# .PCD v0.7 - Point Cloud Data file format
VERSION 0.7
FIELDS x y z intensity normal_x normal_y normal_z curvature
SIZE 4 4 4 4 4 4 4 4
TYPE F F F F F F F F
COUNT 1 1 1 1 1 1 1 1
WIDTH 946
HEIGHT 1
VIEWPOINT 0 0 0 1 0 0 0
POINTS 946
DATA ascii
-41.855911 -43.955284 1.9854182 12 0 0 0 86.747559
16.707714 -43.372082 1.5300306 54 0 0 0 68.750099
32.38623 -35.758236 1.5622927 19 0 0 0 62.882141
-31.11182 -34.316544 1.5235739 38 0 0 0 86.359299
0.81655747 -34.146492 1.9745988 10 0 0 0 74.232063
7.1614876 -32.000393 1.89617 13 0 0 0 71.104271
7.9710059 -31.920694 1.9018679 21 0 0 0 70.711075
-2.2554085 -30.287329 1.7591565 51 0 0 0 75.795425
12.462317 -30.150578 1.8822936 6 0 0 0 68.369316
-2.8318045 -28.535406 1.6626772 64 0 0 0 76.188881
10.977084 -28.526804 1.7664324 10 0 0 0 68.750099
-9.3315754 -28.193531 1.7178762 88 0 0 0 79.705566
-3.4226928 -27.579052 1.6122187 75 0 0 0 76.584015
-8.2884922 -27.263117 1.6500918 44 0 0 0 79.317291
-9.6592693 -26.946926 1.6566975 53 0 0 0 80.090416
-7.2098975 -25.984491 1.5637493 42 0 0 0 78.919319
-5.1486311 -25.781712 1.5263458 111 0 0 0 77.753273
-4.5149164 -25.900658 1.5266454 133 0 0 0 77.352348
-3.8759489 -25.987217 1.5259392 98 0 0 0 76.965508
-44.225693 -23.636398 1.6436731 9 0 0 0 91.821167
-8.1175022 -13.52133 1.7020024 20 0 0 0 83.216782
-8.7836294 -13.127437 1.7045342 86 0 0 0 83.999367
-8.0505466 -12.697801 1.9932872 120 0 0 0 83.605675
-1.7160046 -11.434723 1.6853505 60 0 0 0 76.965508
33.498394 -11.07033 1.9724485 17 0 0 0 54.675648
-9.3336105 -10.80837 1.54418 37 0 0 0 85.959991
-3.628067 -10.093519 1.961784 30 0 0 0 80.090416
-3.0768087 -10.08492 1.9294471 53 0 0 0 79.317291
-6.5519276 -9.7890673 1.8595958 47 0 0 0 83.999367
-3.2721236 -9.8527422 1.9000874 21 0 0 0 79.705566
-2.4087849 -9.5408163 1.8031576 18 0 0 0 78.52491
16.346281 -9.815361 1.5685383 40 0 0 0 58.192398
-8.4502144 -9.3152971 1.9832832 33 0 0 0 86.359299
-7.9217014 -9.1739235 1.613116 18 0 0 0 85.959991
-6.8314648 -9.1973457 1.668169 391.5 0 0 0 84.776497
-2.1177433 -9.3439026 1.8729384 30 0 0 0 78.134895
-1.7315909 -9.1919928 1.831531 554.5 0 0 0 77.552811
-1.3966144 -9.2743196 1.9511523 439 0 0 0 76.965508
9.5420008 -9.1141338 1.7494361 558 0 0 0 61.712421
10.227839 -9.2973042 1.8302356 323 0 0 0 61.311539
-1.0547316 -8.386632 1.9682221 258 0 0 0 76.584015
12.089025 -8.0968294 1.9198503 60 0 0 0 58.975498
14.108262 -8.0102072 1.733873 58 0 0 0 57.798233
13.035653 -7.8332191 1.6285808 34 0 0 0 58.192398
14.24225 -7.6294823 1.7259517 65 0 0 0 57.40844
11.735287 -7.2493105 1.8209796 80 0 0 0 58.3895
13.380879 -7.1661844 1.9977039 60 0 0 0 57.40844
14.363435 -7.2456632 1.7177192 71 0 0 0 57.00864
-33.518394 -5.8147202 1.956322 61 0 0 0 96.900757
32.966438 -5.7175622 1.8610239 23 0 0 0 52.334179
20.177853 -5.0567164 1.6930468 199 0 0 0 53.500648
-9.0332985 -4.005229 1.6869893 809.5 0 0 0 92.987549
-8.6353884 -4.0848079 1.7494875 795 0 0 0 92.601685
-8.2654924 -4.1605778 1.8097367 793 0 0 0 92.208946
-7.7159743 -4.2439966 1.7237685 825 0 0 0 91.631409
-7.1506515 -4.2848644 1.7355186 844.66669 0 0 0 91.055229
-6.8029175 -4.3064518 1.7756598 575 0 0 0 90.66716
-6.4348745 -4.2974682 1.7078422 492.5 0 0 0 90.272331
-4.7700634 -4.1089482 1.7812593 790.22223 0 0 0 88.303596
5.3981767 -4.0305009 1.7428969 969.33331 0 0 0 59.753376
9.7762833 -4.3477736 1.8160772 999 0 0 0 56.238258
14.747254 -4.4814634 1.6410902 348 0 0 0 54.287392
-18.811285 -3.7443676 1.5955027 147 0 0 0 96.500786
-17.499062 -3.9318483 1.9295483 117 0 0 0 96.110146
-15.67203 -3.9275551 1.7416072 194 0 0 0 95.730362
-9.2864666 -3.8480022 1.8397789 8 0 0 0 93.379074
5.4823494 -3.8868067 1.7384657 1169.6666 0 0 0 59.366261
31.319584 3.8833406 1.742256 112 0 0 0 47.642799
-15.29091 4.1834311 1.7471091 521 0 0 0 3.9070499
-11.371643 4.9754839 1.6704912 363 0 0 0 6.2468901
-10.659433 4.9746356 1.8718985 122 0 0 0 6.6321702
-10.391382 4.8471341 1.5438076 363 0 0 0 6.6321702
30.910112 4.6071634 1.7248088 112 0 0 0 47.254002
-18.023495 5.413115 1.6148533 29 0 0 0 4.3023
-15.972711 5.2220421 1.8489251 285 0 0 0 4.67942
-13.938272 5.3172183 1.6417378 256 0 0 0 5.4613199
-12.502203 5.1155963 1.8172488 293 0 0 0 5.8520498
-10.261722 5.0944934 1.5418878 446 0 0 0 7.0246
-15.563074 5.5111461 1.8158594 302 0 0 0 5.0767198
-11.717758 7.3353505 1.5157958 342 0 0 0 8.5808401
-11.665228 7.7058644 1.5317426 212 0 0 0 8.9695301
17.138885 7.6385789 1.5159328 76 0 0 0 42.956242
28.356295 7.8780694 1.623571 115 0 0 0 45.288818
-12.006398 8.3630457 1.6010931 230 0 0 0 9.36586
-11.007662 8.4895401 1.6900887 524.5 0 0 0 10.14756
-10.416189 8.4429255 1.7938415 374 0 0 0 10.54015
-9.3261976 8.3395443 1.6735699 263 0 0 0 11.31615
-11.691889 8.5738955 1.7629308 483.5 0 0 0 9.7547598
-10.153615 9.5477648 1.8611702 469 0 0 0 11.70168
-9.885355 9.7620001 1.6845059 406.5 0 0 0 12.09288
16.574013 9.989253 1.5628884 125 0 0 0 40.989841
19.662794 9.9463253 1.773818 66 0 0 0 42.173969
15.877057 10.11176 1.5215081 91 0 0 0 40.602921
17.920321 10.204914 1.6627989 60 0 0 0 41.388321
18.853205 10.128306 1.7240206 47 0 0 0 41.77874
8.9004965 10.954728 1.8458964 205 0 0 0 35.514759
6.3448806 11.361506 1.7077217 549 0 0 0 32.786251
6.6672077 11.27538 1.7182884 474 0 0 0 33.172741
7.1916008 11.191505 1.7438984 292 0 0 0 33.755966
7.7295737 11.103271 1.7720734 313 0 0 0 34.34399
8.1065769 11.051867 1.7943867 234 0 0 0 34.737488
8.5100632 11.019886 1.8217884 269 0 0 0 35.122059
15.169518 11.317279 1.9912035 149 0 0 0 39.4356
6.3104229 11.97863 1.775773 133 0 0 0 32.388802
10.767425 11.977839 1.7031204 293 0 0 0 36.308861
11.248583 11.907837 1.731061 264 0 0 0 36.692558
11.736257 11.824853 1.7595339 256 0 0 0 37.091248
12.253897 11.751097 1.7919177 293 0 0 0 37.478649
12.774164 11.658278 1.8242128 245 0 0 0 37.871647
14.485482 11.96181 1.9774642 142 0 0 0 38.654472
14.796441 11.617469 1.9798031 155 0 0 0 39.047752
10.286497 12.027781 1.674667 399 0 0 0 35.911839
14.148529 12.282313 1.9726956 118 0 0 0 38.266781
5.8436503 12.552994 1.8163528 433 0 0 0 31.61487
6.2035446 12.509356 1.8307756 366 0 0 0 31.99988
-0.76440978 13.47124 1.7795607 468 0 0 0 23.79681
2.3529987 13.170897 1.7603631 383 0 0 0 27.515804
2.8307154 13.037157 1.7546523 432 0 0 0 28.100321
5.6858058 13.037758 1.6903359 202 0 0 0 31.22765
-1.1042626 13.570201 1.7959757 374 0 0 0 23.41066
-0.43858016 13.701932 1.8069944 322 0 0 0 24.19735
-7.3841515 14.44387 1.7506406 241 0 0 0 17.165359
-6.8890882 14.327238 1.7151513 438 0 0 0 17.55353
-6.4300504 14.253368 1.6864725 472 0 0 0 17.93965
-5.8101273 14.250459 1.6589448 325 0 0 0 18.533779
-5.2236619 14.292372 1.6391668 357 0 0 0 19.113991
-4.8097315 14.22727 1.8012297 302 0 0 0 19.50489
-4.2306471 14.213238 1.7780586 308.5 0 0 0 20.0989
-7.9574599 14.672676 1.8016279 231 0 0 0 16.776859
-3.8347285 14.879834 1.6512991 331 0 0 0 20.676609
4.2334323 14.928219 1.6523421 619 0 0 0 29.06604
4.8103194 14.849771 1.6611429 646 0 0 0 29.66061
5.2009106 14.801149 1.6688823 542 0 0 0 30.0439
5.5884829 14.732999 1.6756111 532 0 0 0 30.436279
6.0252705 14.77422 1.6958137 269 0 0 0 30.82955
-3.5031519 15.123433 1.6670682 331 0 0 0 21.073641
-3.1646683 15.374312 1.6843795 300 0 0 0 21.45756
0.66007024 15.483917 1.6558083 337 0 0 0 25.366819
1.2261662 15.399271 1.6497185 366 0 0 0 25.95462
1.7912778 15.325941 1.6468004 396 0 0 0 26.54364
2.1666555 15.270391 1.6454709 345 0 0 0 26.93244
3.6663637 15.022622 1.6474363 589 0 0 0 28.49371
-14.396605 15.741566 1.7936831 136 0 0 0 12.86637
-12.60875 15.995946 1.7093068 79 0 0 0 14.04054
-2.815768 15.616617 1.7016158 315 0 0 0 21.846809
-2.2674596 15.920528 1.7228632 299.5 0 0 0 22.434544
-1.6685119 15.881804 1.709708 251 0 0 0 23.020309
-0.10177649 15.618175 1.6698242 395 0 0 0 24.58107
0.28012112 15.532334 1.6603478 296 0 0 0 24.96903
-12.774127 17.054977 1.7854558 123 0 0 0 14.43319
-12.358782 17.37149 1.7847883 131 0 0 0 14.82711
-11.938853 17.682877 1.7846192 137 0 0 0 15.22499
-11.521175 18.000124 1.7860048 132 0 0 0 15.610929
-11.109416 18.33145 1.7896832 152 0 0 0 15.99378
-10.483633 18.292809 1.7593124 255 0 0 0 16.380131
-16.554827 24.584806 1.7320507 11 0 0 0 15.22499
38.215031 -48.990467 2.0096712 10 0 0 0 64.056915
-44.405434 -42.271385 2.0047252 10 0 0 0 87.530708
6.7176609 -38.841267 2.2729847 40 0 0 0 71.879921
-1.8543149 -37.339195 2.1576817 22 0 0 0 75.408409
-53.019951 -35.423653 2.0818188 10 0 0 0 90.272331
22.255346 -33.344818 2.2953801 8 0 0 0 65.234993
30.746967 -30.769882 2.4735641 10 0 0 0 62.098122
7.3069391 -29.248583 2.4961667 12 0 0 0 70.711075
-1.4116318 -28.393698 2.3565114 7 0 0 0 75.408409
-10.439312 -27.033295 2.3973222 16 0 0 0 80.480034
8.7625732 -26.58922 2.319068 15 0 0 0 69.533051
9.5277796 -26.688055 2.3464096 16 0 0 0 69.148354
-4.2059603 -24.144388 2.0352261 21 0 0 0 77.352348
-3.6034789 -24.178562 2.030365 21 0 0 0 76.965508
-3.0086482 -24.253124 2.0300326 38 0 0 0 76.584015
-2.4139779 -24.329897 2.0310752 63 0 0 0 76.188881
-7.8180652 -23.623671 2.064033 16 0 0 0 79.705566
-6.5581245 -23.644337 2.0364339 14 0 0 0 78.919319
-7.1369166 -23.479719 2.0363705 37 0 0 0 79.317291
-9.5651693 -13.570494 2.1977665 42 0 0 0 84.393517
-8.0797167 -13.463702 2.080327 107 0 0 0 83.216782
-10.213846 -12.437835 2.1313696 18 0 0 0 85.564545
-9.6567841 -11.187313 2.3249612 41 0 0 0 85.959991
-2.8763745 -11.412654 2.4397063 36 0 0 0 78.52491
-1.7147377 -11.427451 2.1127732 73 0 0 0 76.965508
-1.4224306 -11.369699 2.0954683 16 0 0 0 76.584015
-10.778545 -10.774066 2.3964753 98 0 0 0 87.142159
-7.0736289 -10.570779 2.3197451 32 0 0 0 83.999367
-6.9329634 -10.93111 2.0403991 78 0 0 0 83.605675
-2.9532342 -10.60742 2.0137384 35 0 0 0 78.919319
-3.6350026 -10.113156 2.2294598 17 0 0 0 80.090416
-0.77962142 -10.303165 2.3995101 156 0 0 0 75.795425
-10.211597 -9.7178726 2.2190273 16 0 0 0 87.530708
-9.653532 -9.6480942 2.486794 30 0 0 0 87.142159
-9.2356873 -9.6939907 2.1093051 25 0 0 0 86.747559
-8.2056351 -9.9885521 2.0376086 25 0 0 0 85.564545
-6.5193739 -9.7404652 2.427943 42 0 0 0 83.999367
-6.0839753 -9.5891066 2.353384 45 0 0 0 83.605675
-3.8362792 -9.9035349 2.2034554 18 0 0 0 80.480034
-3.357867 -9.7186794 2.2588696 28.5 0 0 0 79.897995
-1.1926733 -9.5136032 2.4635227 319 0 0 0 76.584015
-0.75115937 -9.8873329 2.0616012 137 0 0 0 75.795425
-7.7043934 -9.3772945 2.3626041 69.5 0 0 0 85.564545
-7.2960081 -9.3369722 2.3080578 108.5 0 0 0 85.176392
-2.6623192 -9.2666063 2.1606212 65.666664 0 0 0 79.051971
-1.8034767 -9.3743019 2.2969351 416 0 0 0 77.619629
-1.3952409 -9.2769003 2.1808639 504 0 0 0 76.965508
-0.84816122 -9.1855326 2.2970388 54.666668 0 0 0 76.057732
9.4657106 -9.0402784 2.3844831 215 0 0 0 61.712421
9.5143852 -9.0872107 2.0704777 422 0 0 0 61.712421
-7.6465983 -8.8548651 2.4234939 77 0 0 0 85.959991
-2.2657247 -8.9759026 2.3785565 66 0 0 0 78.52491
-1.9645501 -8.6677942 2.2849383 50 0 0 0 78.134895
-1.3096089 -8.6976681 2.480371 168 0 0 0 76.965508
-0.460484 -8.9418478 2.0836051 297 0 0 0 75.408409
9.7890663 -8.8996334 2.0812845 152 0 0 0 61.311539
-7.6231208 -8.4019947 2.3509266 82 0 0 0 86.359299
-1.2371106 -8.1818314 2.23153 88 0 0 0 76.968185
-1.7904065 -7.889729 2.2831826 160 0 0 0 78.134895
13.217776 -7.502851 2.001132 165 0 0 0 57.798233
20.163284 -5.0524817 2.1976454 245 0 0 0 53.500648
25.516699 -5.0721807 2.1052017 67 0 0 0 52.715569
-14.550755 -4.0310712 2.3739984 224 0 0 0 95.347275
-9.0261774 -4.0020747 2.0501156 720 0 0 0 92.987549
-8.6191835 -4.0789819 2.213903 688 0 0 0 92.601685
-8.2488403 -4.1539955 2.1452055 777 0 0 0 92.208946
-7.6866775 -4.229816 2.1467066 723.5 0 0 0 91.631409
-7.1716661 -4.2986202 2.149662 728 0 0 0 91.055229
-6.7991238 -4.3048935 2.1696963 846 0 0 0 90.66716
-6.47019 -4.3219237 2.0988841 724.5 0 0 0 90.272331
-4.7047572 -4.1914597 2.2472749 491.22223 0 0 0 88.045441
5.4359951 -4.0560508 2.2578735 750 0 0 0 59.753376
9.7780294 -4.3467264 2.3442645 784 0 0 0 56.238258
14.603267 -4.4343815 2.190033 394.5 0 0 0 54.287392
-9.1748676 -3.9333076 2.1928101 279 0 0 0 93.183311
-4.8534231 -3.9809406 2.3146174 683.5 0 0 0 88.69239
5.5290508 -3.9172337 2.2557724 956 0 0 0 59.366261
-15.302245 4.1847196 2.1357939 552 0 0 0 3.9070499
-17.932968 5.3869452 2.0590892 54 0 0 0 4.3023
-15.741805 5.3557229 2.2356827 243 0 0 0 4.8780699
-13.899239 5.3010678 2.1829677 199 0 0 0 5.4613199
-12.491053 5.1120162 2.1471481 272 0 0 0 5.8520498
-11.882636 5.2025723 2.0634592 420 0 0 0 6.2468901
24.894663 7.587358 2.0886955 235 0 0 0 44.900501
28.318844 7.8728485 2.3544555 99 0 0 0 45.288818
38.903786 7.7685103 2.1778872 33 0 0 0 46.462048
24.493151 8.1290331 2.0712421 232 0 0 0 44.517979
37.130489 8.3691664 2.0902624 29 0 0 0 46.072033
-13.285682 8.785449 2.1315541 347 0 0 0 8.9695301
-12.438663 8.6661854 2.215019 423.5 0 0 0 9.36586
-11.933455 8.7535448 2.3440611 143 0 0 0 9.7547598
-11.137244 8.5912714 2.2277684 83 0 0 0 10.14756
24.080189 8.6556358 2.053844 235 0 0 0 44.125031
23.697208 9.1827469 2.0399697 222 0 0 0 43.732689
36.658642 9.2156439 2.0754621 32 0 0 0 45.68943
-10.157042 9.5527363 2.2050707 448 0 0 0 11.70168
-9.8813772 9.7589569 2.1955695 449 0 0 0 12.09288
23.304844 9.6970968 2.0263267 230 0 0 0 43.347679
22.530361 10.704644 2.0029144 233 0 0 0 42.567421
17.032913 11.442549 2.154978 74 0 0 0 40.221951
17.806471 11.334729 2.2153733 99 0 0 0 40.602921
20.045895 11.410316 2.4167137 65 0 0 0 41.388321
10.748974 11.959958 2.2962248 265 0 0 0 36.308861
11.241313 11.903271 2.1336932 285 0 0 0 36.692558
11.745105 11.836811 2.1720078 260 0 0 0 37.091248
12.247282 11.747901 2.2094386 278 0 0 0 37.478649
12.766042 11.654041 2.2492945 204 0 0 0 37.871647
16.351259 11.580225 2.1054618 68 0 0 0 39.820721
19.234629 11.585782 2.3539531 66 0 0 0 40.989841
9.3915653 12.150078 2.3862104 293 0 0 0 35.122059
9.8347473 12.093814 2.4211161 284 0 0 0 35.514759
10.278084 12.020489 2.2593622 288 0 0 0 35.911839
2.4898658 12.998645 2.2328532 443 0 0 0 27.70842
5.8411279 12.545565 2.1583197 446 0 0 0 31.61487
6.2033205 12.506952 2.1765103 372 0 0 0 31.99988
9.3375711 12.713161 2.450469 224 0 0 0 34.737488
14.519898 12.60656 2.4973979 45 0 0 0 38.266781
-0.76257461 13.469057 2.279496 416.5 0 0 0 23.79681
2.2065187 13.271685 2.2694178 275 0 0 0 27.323191
2.8295207 13.024992 2.2482033 442 0 0 0 28.100321
5.6723762 13.007023 2.2127473 196 0 0 0 31.22765
9.0880623 13.034099 2.4686728 30 0 0 0 34.34399
-1.0993638 13.528051 2.2936034 378.5 0 0 0 23.41066
-0.43720829 13.716303 2.3177619 273 0 0 0 24.19735
-11.243727 14.249587 2.4102449 127 0 0 0 14.04054
-6.5272264 14.470816 2.2967644 270.5 0 0 0 17.93965
-6.0797873 14.407701 2.2619677 271.5 0 0 0 18.33663
-5.6465058 14.349943 2.2301524 271.5 0 0 0 18.73093
-5.2230673 14.28907 2.1996908 262 0 0 0 19.113991
-4.8037271 14.211544 2.3537688 277 0 0 0 19.50489
-4.2318101 14.220602 2.3272686 274.5 0 0 0 20.0989
-7.9599681 14.674471 2.2112012 227 0 0 0 16.776859
-7.4827418 14.636437 2.1766586 213 0 0 0 17.165359
-6.9935017 14.544548 2.1364586 223 0 0 0 17.55353
-3.8359444 14.879388 2.0284042 316 0 0 0 20.676609
4.8500271 14.973785 2.2571764 159.5 0 0 0 29.66061
5.236455 14.905711 2.0692751 316 0 0 0 30.0439
5.6438847 14.880187 2.2812848 124.5 0 0 0 30.436279
6.0332317 14.796621 2.2897656 324 0 0 0 30.82955
-11.888842 15.077617 2.0776994 138 0 0 0 14.04054
-3.5051761 15.126464 2.0485685 315 0 0 0 21.073641
-3.169085 15.393224 2.2665272 267.5 0 0 0 21.45756
1.2937893 15.454803 2.1655369 246.66667 0 0 0 26.020119
1.7971654 15.381203 2.2255428 351 0 0 0 26.54364
2.1749642 15.332878 2.2251825 187.5 0 0 0 26.93244
3.6914816 15.129744 2.0421066 287 0 0 0 28.49371
4.3327928 15.044925 2.1817276 203.66667 0 0 0 29.130623
-14.389285 15.736327 2.3091843 141 0 0 0 12.86637
-2.8171892 15.616855 2.0913146 309 0 0 0 21.846809
-2.2689631 15.921223 2.1179552 272 0 0 0 22.434544
-1.6705374 15.895012 2.3013163 291 0 0 0 23.020309
-0.10259767 15.677275 2.2552869 162 0 0 0 24.58107
0.28160208 15.627943 2.2481551 154 0 0 0 24.96903
0.66177064 15.549081 2.0452104 326 0 0 0 25.366819
-13.797449 16.248878 2.3063452 142 0 0 0 13.455345
-12.764492 17.045235 2.3000691 146 0 0 0 14.43319
-12.35111 17.363966 2.3000326 143 0 0 0 14.82711
-11.719852 17.829546 2.3009384 150.5 0 0 0 15.417959
-10.198867 17.794762 2.2091138 103 0 0 0 16.380131
-11.100178 18.319853 2.3074558 158 0 0 0 15.99378
20.993628 -39.318943 2.5539813 28 0 0 0 66.800247
-31.072006 -34.272793 2.653667 35 0 0 0 86.359299
0.83104527 -34.466427 2.8509769 14 0 0 0 74.232063
7.1475353 -31.909163 2.7050481 13 0 0 0 71.104271
9.4686747 -31.275335 2.7016723 19 0 0 0 69.927048
12.355358 -29.87557 2.6706257 17 0 0 0 68.369316
13.021387 -29.42034 2.6570907 10 0 0 0 67.97393
11.00168 -28.573433 2.5317953 8 0 0 0 68.750099
-4.4864907 -25.766518 2.8046644 32 0 0 0 77.352348
-3.7921669 -25.456034 2.7607074 14 0 0 0 76.965508
-6.8332267 -24.640663 2.7415631 7 0 0 0 78.919319
-3.081109 -24.844936 2.6865709 14 0 0 0 76.584015
-7.2619767 -23.893198 2.6778383 7 0 0 0 79.317291
-44.464493 -22.379061 2.8498178 17 0 0 0 92.208946
-9.534976 -13.527687 2.5999875 36 0 0 0 84.393517
-9.9227753 -12.706075 2.5334055 34 0 0 0 85.176392
-8.9801579 -12.739191 2.8356581 72 0 0 0 84.393517
-7.8821106 -12.431755 2.6798067 47 0 0 0 83.605675
-7.3772383 -12.290667 2.786612 112 0 0 0 83.216782
33.935638 -12.139256 2.9145751 21 0 0 0 55.067318
-8.5807562 -11.558496 2.621351 45 0 0 0 84.776497
-2.6213927 -11.603337 2.7565281 36 0 0 0 78.134895
-2.8575284 -11.346053 2.711514 39 0 0 0 78.52491
33.76759 -11.151417 2.8741102 31 0 0 0 54.675648
-10.15975 -10.6655 2.6814535 66 0 0 0 86.747559
-9.6344233 -10.623137 2.6115303 39 0 0 0 86.359299
-9.4451351 -10.941788 2.6319237 26 0 0 0 85.959991
-2.9383731 -10.561787 2.8110392 35 0 0 0 78.919319
-0.28093055 -10.628508 2.7293296 27 0 0 0 75.014877
12.403416 -10.720836 2.9757504 8 0 0 0 60.922672
23.186802 -10.974031 2.7151916 16 0 0 0 56.619713
-10.863107 -10.338755 2.7293701 47 0 0 0 87.530708
-7.1540217 -10.143649 2.5694368 35 0 0 0 84.393517
-6.8526888 -10.243805 2.8525829 54 0 0 0 83.999367
-3.6394737 -10.131686 2.7602327 151 0 0 0 80.090416
-3.3344753 -10.477638 2.6840482 41 0 0 0 79.511429
-2.823014 -10.143989 2.9622328 52 0 0 0 78.919319
-1.508568 -10.045977 2.608103 45 0 0 0 76.965508
-1.0051641 -10.010871 2.8334298 90 0 0 0 76.188881
-0.52233589 -10.226065 2.6294341 241 0 0 0 75.408409
-0.27659109 -10.451429 2.9438407 37 0 0 0 75.014877
0.22954141 -10.212365 2.6237986 15 0 0 0 74.232063
-7.1982212 -9.6943378 2.6473885 66 0 0 0 84.776497
-6.7057242 -9.5100412 2.6949506 75 0 0 0 84.393517
-3.5857577 -9.9814186 2.982779 91 0 0 0 80.090416
-3.1914818 -9.8862925 2.8382151 50 0 0 0 79.576141
-2.4844897 -9.8525734 2.8598292 137 0 0 0 78.52491
-1.7368231 -9.9061584 2.8316455 22 0 0 0 77.352348
-1.192775 -9.5300217 2.9417856 119 0 0 0 76.584015
-0.6250785 -9.8677406 2.7855697 51 0 0 0 75.601913
-0.49342477 -9.6673355 2.9654033 64 0 0 0 75.408409
-8.1275549 -9.4163332 2.8786595 50 0 0 0 85.959991
-7.4952941 -9.1255913 2.734446 58 0 0 0 85.564545
-6.6025863 -9.3634624 2.9346919 155 0 0 0 84.393517
-3.7995992 -9.1393538 2.7850196 15 0 0 0 80.878593
-2.2833402 -9.0538521 2.8595977 81 0 0 0 78.52491
-1.8993363 -9.4634647 2.8370128 325.5 0 0 0 77.753273
-0.020872688 -9.1981344 2.8173964 47.666668 0 0 0 74.624977
13.563936 -9.0790205 2.9582477 15 0 0 0 58.975498
16.479145 -9.3458452 2.9545035 16 0 0 0 57.798233
-8.2104273 -8.7609129 2.6804073 77.333336 0 0 0 86.618141
-6.9315648 -8.8727999 2.6085334 82 0 0 0 85.176392
-0.65815854 -8.6529026 2.7702804 155.5 0 0 0 75.795425
-0.33720639 -8.5831928 2.7417519 73 0 0 0 75.211639
14.182346 -8.5147133 2.5856295 41 0 0 0 58.192398
-11.373227 -8.0094242 2.8756068 92 0 0 0 89.877411
-8.5144491 -8.1035604 2.7218306 22 0 0 0 87.530708
-2.8069458 -8.4481268 2.9467447 32 0 0 0 79.705566
-2.4870296 -8.1480141 2.6110411 39 0 0 0 79.317291
-1.0465652 -8.3231525 2.780323 50 0 0 0 76.584015
-0.8461808 -8.3844271 2.7931418 108 0 0 0 76.188881
16.77313 -8.4514399 2.9272487 10 0 0 0 57.00864
-11.355947 -7.9972234 2.5300343 76 0 0 0 89.877411
45.740887 -6.7754169 2.5555711 27 0 0 0 51.938881
4.4037247 -6.291163 2.9292336 165 0 0 0 64.845795
-33.706692 -5.8534379 2.8186507 30 0 0 0 96.900757
32.478661 -5.6264572 2.655587 24 0 0 0 52.334179
20.15941 -5.0471663 2.7090304 201 0 0 0 53.500648
25.545376 -5.0771837 2.7410696 109 0 0 0 52.715569
9.646719 -4.5740867 2.99928 327 0 0 0 56.619713
-24.421782 -4.2410016 2.6535263 39 0 0 0 96.900757
-19.058262 -4.2857132 2.5785649 288 0 0 0 96.110146
-14.545395 -4.0295854 2.7463584 190 0 0 0 95.347275
-10.158627 -4.21171 2.5485761 313 0 0 0 93.379074
5.4486933 -4.0633264 2.5972612 802 0 0 0 59.75338
9.751976 -4.3335972 2.7316928 566 0 0 0 56.238258
14.455605 -4.3890142 2.7310677 300 0 0 0 54.287392
-9.9148197 -3.6897309 2.844059 516.25 0 0 0 93.978638
5.54178 -3.9240999 2.5946934 981 0 0 0 59.366261
-10.709753 -3.2536128 2.8679826 96 0 0 0 94.958359
-10.491853 -3.4706268 2.8319249 233 0 0 0 94.563591
31.319672 3.8891027 2.5291352 89 0 0 0 47.642799
-15.310205 4.1884432 2.7224507 458 0 0 0 3.9070499
-19.253279 4.7724643 2.6676955 188 0 0 0 3.5123301
30.878059 4.6080422 2.5014758 87 0 0 0 47.254002
-15.995386 5.2287583 2.6766608 277 0 0 0 4.67942
-12.938194 5.2979522 2.5672863 65 0 0 0 5.8520498
-19.393553 5.8266606 2.7207313 164 0 0 0 4.3023
-15.899939 5.630734 2.6819115 269 0 0 0 5.0767198
24.879156 7.5824418 2.7202344 232 0 0 0 44.900501
24.472576 8.1219664 2.6969128 259 0 0 0 44.517979
24.071503 8.6522121 2.6754923 213 0 0 0 44.125031
23.679707 9.1756191 2.6563952 195 0 0 0 43.732689
-10.15879 9.5569639 2.7198124 371.5 0 0 0 11.70168
-9.7959814 9.8362646 2.7628002 408 0 0 0 12.223546
23.285135 9.6884966 2.6382947 218 0 0 0 43.347679
-18.618341 10.461693 2.8561256 134 0 0 0 7.8007398
-9.2125454 10.286558 2.8594813 321.5 0 0 0 13.060585
22.896141 10.194867 2.6220977 241 0 0 0 42.956242
-8.7242632 10.757145 2.8665977 182 0 0 0 13.848215
22.509928 10.694427 2.6075056 244 0 0 0 42.567421
-18.546961 11.027472 2.8840392 123 0 0 0 8.19946
-8.2467175 11.253012 2.8859885 185 0 0 0 14.63015
22.12286 11.186159 2.5941002 217 0 0 0 42.173969
-18.463062 11.598658 2.9125512 121 0 0 0 8.5808401
-7.7290764 11.708793 2.9007344 172.5 0 0 0 15.417959
10.751686 11.961261 2.8948381 280 0 0 0 36.308861
11.223447 11.882853 2.7381783 276.5 0 0 0 36.692558
11.728715 11.818838 2.7883384 271.5 0 0 0 37.091248
12.255321 11.754573 2.6318719 229 0 0 0 37.478649
12.759541 11.647187 2.6765008 212 0 0 0 37.871647
21.766537 11.687459 2.5855765 237 0 0 0 41.77874
-7.190238 12.147566 2.9170721 170.5 0 0 0 16.186954
-6.7832484 12.485159 2.934876 208 0 0 0 16.776859
6.1920705 12.481632 2.6892099 352.5 0 0 0 31.99988
9.3848801 12.140206 2.7649453 256 0 0 0 35.122059
9.8209953 12.0758 2.8036873 237 0 0 0 35.514759
10.282058 12.023334 2.8485594 257 0 0 0 35.911839
-14.920927 12.755528 2.6154928 120 0 0 0 10.92693
-9.9530649 12.602918 2.9268012 110 0 0 0 14.04054
-6.3410053 12.769699 2.9440334 186 0 0 0 17.359444
2.4900155 12.991721 2.7210605 402 0 0 0 27.70842
5.7448955 12.746294 2.6992917 304.25 0 0 0 31.421259
9.3090773 12.673275 2.8329105 147 0 0 0 34.737488
-5.7448611 13.151463 2.9619675 184.5 0 0 0 18.13814
-5.2844024 13.422386 2.9758496 174 0 0 0 18.73093
-0.76028764 13.457634 2.7755342 398 0 0 0 23.79681
2.20029 13.226623 2.7579558 337 0 0 0 27.323191
2.8385706 13.058622 2.7482872 370 0 0 0 28.100321
8.8910561 13.442681 2.9035618 8 0 0 0 33.948559
9.1735764 13.1542 2.888859 6 0 0 0 34.34399
-10.660398 13.505759 2.71012 143 0 0 0 14.04054
-4.8153348 13.69021 2.9929321 179.5 0 0 0 19.309441
-1.0990511 13.547395 2.7989523 323 0 0 0 23.41066
-0.43584093 13.730751 2.8277876 261 0 0 0 24.19735
8.7918377 13.656275 2.7254291 94.5 0 0 0 33.755966
-6.5209703 14.462163 2.8827236 239 0 0 0 17.93965
-6.0728045 14.396535 2.8387673 215 0 0 0 18.33663
-5.6349778 14.326034 2.7964506 221 0 0 0 18.73093
-5.2119083 14.264169 2.7582464 241 0 0 0 19.113991
-4.8020492 14.210859 2.7239835 282 0 0 0 19.50489
-4.2331562 14.231998 2.6957569 230 0 0 0 20.0989
8.2588673 14.330064 2.9803212 275.5 0 0 0 32.979496
-7.9514065 14.661761 2.6207039 273 0 0 0 16.776859
-7.462451 14.601269 2.7782593 233 0 0 0 17.165359
-6.9853878 14.532663 2.731482 231 0 0 0 17.55353
5.2429056 14.917299 2.8543274 24 0 0 0 30.0439
5.6489406 14.888819 2.8740489 46 0 0 0 30.436279
6.0375781 14.802954 2.8848398 280 0 0 0 30.82955
7.6966758 14.574177 2.7662408 149 0 0 0 32.388802
8.1238956 14.506059 2.5836482 309 0 0 0 32.786251
-14.603877 15.202393 2.8013384 150 0 0 0 12.484879
-11.4139 15.226828 2.993926 180 0 0 0 14.43319
-3.1665537 15.391356 2.8484831 228 0 0 0 21.45756
1.4240074 15.459073 2.8073134 368 0 0 0 26.151119
1.802375 15.408678 2.8048978 382 0 0 0 26.54364
2.1837749 15.380218 2.8081276 142 0 0 0 26.93244
4.2706704 15.054901 2.8264151 21 0 0 0 29.06604
-14.398602 15.743937 2.8334396 183 0 0 0 12.86637
-2.2693746 15.942101 2.9167457 65 0 0 0 22.434544
-1.6658626 15.868957 2.8892062 315 0 0 0 23.020309
-0.10061777 15.649291 2.831825 322 0 0 0 24.58107
0.28305098 15.607618 2.8242025 326 0 0 0 24.96903
0.66505843 15.564451 2.8180232 328 0 0 0 25.366819
1.0452338 15.512956 2.8120394 359 0 0 0 25.75812
-13.794608 16.242933 2.8281355 135 0 0 0 13.455345
-12.095053 16.140976 2.6743596 142 0 0 0 14.43319
-11.732052 16.483242 2.6811829 150 0 0 0 14.82711
-11.357249 16.81411 2.6874828 170 0 0 0 15.22499
-9.7445984 16.990805 2.5912349 83 0 0 0 16.380131
-10.779774 17.298409 2.6976948 194 0 0 0 15.802355
0.75110191 17.368376 2.7108696 65 0 0 0 25.366819
1.1707002 17.24806 2.6952705 54 0 0 0 25.75812
-2.7403076 17.753309 2.8065398 52 0 0 0 22.24226
6.2596531 17.769106 2.9273 27 0 0 0 30.0439
8.1920528 -55.341091 3.2117326 7 0 0 0 72.279839
-0.016248522 -54.827667 3.1487184 13 0 0 0 74.624977
-21.709736 -52.384083 3.2464645 14 0 0 0 80.878593
-20.158201 -52.227077 3.2064586 10 0 0 0 80.480034
-24.533905 -51.849602 3.2827287 11 0 0 0 81.658676
25.948893 -51.586792 3.3001475 11 0 0 0 67.186882
-27.389652 -51.223389 3.3238902 13 0 0 0 82.440331
-25.86158 -51.357147 3.2907126 11 0 0 0 82.045761
-28.753387 -50.739422 3.3371449 6 0 0 0 82.834251
-35.193348 -49.958908 3.4950316 7 0 0 0 84.393517
-32.858871 -49.163467 3.3831339 10 0 0 0 83.999367
6.6283627 -38.283421 3.2082064 20 0 0 0 71.879921
18.391689 -34.438095 3.2136724 9 0 0 0 66.800247
22.167734 -33.198902 3.280025 12 0 0 0 65.234993
26.453259 -32.249199 3.4193711 6 0 0 0 63.672512
12.327471 -29.806116 3.4481869 17 0 0 0 68.369316
-2.83076 -28.58313 3.0776467 14 0 0 0 76.188881
8.7684145 -28.968662 3.2401857 35 0 0 0 69.927048
6.1765938 -27.592592 3.0305192 11 0 0 0 71.104271
12.333058 -27.867672 3.2590981 12 0 0 0 67.97393
9.6719666 -27.088257 3.0798922 9 0 0 0 69.148354
10.397289 -27.006973 3.097944 8 0 0 0 68.750099
12.859673 -27.232155 3.2203724 18 0 0 0 67.577682
8.7918091 -26.675415 3.0088215 15 0 0 0 69.533051
-7.7764263 -12.269639 3.3569579 65 0 0 0 83.605675
-7.3637609 -12.273197 3.308054 74 0 0 0 83.216782
14.222713 -11.690223 3.3359854 9 0 0 0 60.5396
23.019413 -11.589451 3.36374 18 0 0 0 57.00864
14.451403 -11.294884 3.3226213 11 0 0 0 60.14608
-1.9129335 -10.938177 3.396096 36 0 0 0 77.352348
-10.710198 -10.193089 3.0546503 68 0 0 0 87.530708
-6.8952174 -10.307637 3.1741393 62 0 0 0 83.999367
-3.3362756 -10.060328 3.2413642 82 0 0 0 79.705566
-1.004223 -10.020544 3.0834529 64 0 0 0 76.188881
11.909294 -10.294622 3.2466433 26 0 0 0 60.922672
12.994643 -10.159426 3.3982708 30 0 0 0 60.14608
24.526213 -10.157752 3.4588602 34 0 0 0 55.838139
-8.1251221 -9.8941278 3.2758851 63 0 0 0 85.564545
-7.734683 -9.6574535 3.4740391 57.5 0 0 0 85.370468
-7.3670683 -9.924201 3.1635625 113 0 0 0 84.776497
-2.7533145 -9.8951826 3.2696857 37 0 0 0 78.919319
-2.2006063 -9.728013 3.1753483 163 0 0 0 78.134895
-1.4619017 -9.742816 3.0166025 82 0 0 0 76.965508
15.159524 -9.6126194 3.2484713 100 0 0 0 58.586601
16.041868 -9.6261749 3.3829424 26 0 0 0 58.192398
21.108932 -9.9875631 3.0501053 24 0 0 0 56.619713
-11.764693 -9.183486 3.4478812 35 0 0 0 89.082207
-7.7703791 -9.0017796 3.0447862 79 0 0 0 85.959991
-7.3511696 -9.411273 3.0575974 127 0 0 0 85.176392
-6.9916019 -9.417305 3.2944498 63 0 0 0 84.776497
-6.3423023 -9.4789972 3.2043149 33 0 0 0 83.999367
-3.1759589 -9.2016811 3.4579864 45.5 0 0 0 79.897995
-2.8471107 -9.3394642 3.3469708 22.5 0 0 0 79.317291
-2.2792239 -9.0309887 3.0826011 131 0 0 0 78.52491
-1.7371485 -9.229393 3.1088257 123.5 0 0 0 77.552811
-1.3847276 -9.2197294 3.1989908 94 0 0 0 76.965508
-0.24709636 -9.2870464 3.1912282 28 0 0 0 75.014877
16.945841 -9.0661325 3.4719191 29 0 0 0 57.40844
-8.5252609 -8.9504843 3.4703486 41 0 0 0 86.747559
-8.0848408 -8.9151459 3.2306037 49 0 0 0 86.359299
-3.6977243 -8.8931894 3.1850305 15 0 0 0 80.878593
-1.7614372 -8.7836323 3.2966406 37 0 0 0 77.743622
-1.0748451 -8.5801048 3.1826582 139 0 0 0 76.584015
-0.80979568 -8.7953653 3.2885926 55 0 0 0 76.057732
-0.44250479 -8.645133 3.1854484 126.5 0 0 0 75.408409
-11.452262 -8.0681438 3.238148 82 0 0 0 89.877411
-4.8026667 -8.2271824 3.3835084 133 0 0 0 83.025513
-0.6387282 -8.4187031 3.0053089 26 0 0 0 75.795425
-10.137929 -7.5198641 3.2300754 144 0 0 0 89.482109
-4.403513 -7.7582564 3.3879912 35 0 0 0 82.834251
-3.2768342 -7.8829308 3.2437615 125 0 0 0 80.878593
-2.7144015 -7.5492172 3.0503509 75 0 0 0 80.090416
-9.8343592 -7.2944632 3.437902 163 0 0 0 89.482109
14.667052 -7.1670661 3.3562274 93.5 0 0 0 56.814178
-9.9115715 -6.9817538 3.4043252 123 0 0 0 89.877411
-8.8735867 -6.583436 3.3763587 88 0 0 0 89.482109
5.5203037 -6.7571154 3.3231885 20 0 0 0 63.672512
-8.9843426 -6.3302684 3.3586252 82 0 0 0 89.877411
5.7690639 -6.3934746 3.1736681 97.5 0 0 0 62.882141
6.3460016 -6.3704619 3.4233522 179 0 0 0 62.098122
6.5632172 -6.271688 3.4556623 236 0 0 0 61.712421
-10.01608 -5.6766267 3.2343371 70 0 0 0 91.44165
-9.3414068 -5.7046733 3.2551134 278.66666 0 0 0 90.925873
7.3815556 -5.7788057 3.3360975 17 0 0 0 60.14608
17.179129 -5.6773529 3.263773 61 0 0 0 54.675648
25.896671 -5.8065357 3.4473622 93 0 0 0 53.11393
-11.796919 -5.2339392 3.3020442 43 0 0 0 92.987549
-10.7486 -5.4140029 3.081238 355 0 0 0 92.208946
-10.012444 -5.0429516 3.1502821 49 0 0 0 92.208946
-8.8684607 -5.025672 3.3689759 108 0 0 0 91.44165
20.170256 -5.0492668 3.2258365 141 0 0 0 53.500648
25.529909 -5.0687909 3.3802652 84 0 0 0 52.715569
-13.939546 -4.6115727 3.3923895 79 0 0 0 94.563591
-10.09096 -4.7760725 3.137352 394 0 0 0 92.601685
-8.9526787 -4.7874146 3.3555372 41 0 0 0 91.821167
9.496172 -4.5023093 3.4729176 465 0 0 0 56.619713
9.5297661 -4.5165095 3.2232232 632 0 0 0 56.619713
10.164645 -4.5129623 3.3962929 221 0 0 0 56.238258
14.453267 -4.7791791 3.1277931 75 0 0 0 54.675648
17.658314 -4.8864455 3.3025868 26 0 0 0 53.893353
-19.102398 -4.2956371 3.0686543 137 0 0 0 96.110146
-14.548233 -4.0303717 3.1179495 141 0 0 0 95.347275
-14.290455 -4.3404617 3.2685246 299 0 0 0 94.958359
-9.1513386 -4.0604968 3.1847115 356 0 0 0 92.987549
10.183047 -4.3234544 3.1968963 283 0 0 0 55.971512
14.314032 -4.3441501 3.2560127 315 0 0 0 54.287392
-14.878954 -3.7315211 3.1677322 140 0 0 0 95.730362
-11.258789 -3.7244296 3.3309286 232 0 0 0 94.563591
-9.8940783 -3.6824913 3.3579469 434 0 0 0 93.978638
-8.8512325 -3.930006 3.439405 300 0 0 0 92.987549
-7.9301214 -3.5207264 3.2964945 211 0 0 0 92.987549
-7.2407374 -3.6490526 3.0821934 248 0 0 0 92.208946
18.888144 -3.7525935 3.4660666 41 0 0 0 52.715569
-16.027168 -3.1930456 3.3726296 75 0 0 0 96.500786
-10.868439 -3.109586 3.2696619 401.66666 0 0 0 95.217628
-9.6513824 -3.193428 3.2341557 428 0 0 0 94.563591
-8.1736746 -3.3916199 3.1453063 323 0 0 0 93.379074
-10.92748 -2.7443898 3.4430296 157 0 0 0 95.730362
-9.8191099 -2.984808 3.13872 114 0 0 0 94.958359
-8.3329 -2.9879966 3.1465409 115 0 0 0 94.172333
-10.102843 -2.0144784 3.4053245 93 0 0 0 96.500786
16.514488 -2.4448566 3.4202158 78 0 0 0 51.938881
-10.587393 -1.7108569 3.2792919 97.5 0 0 0 97.095657
-10.184355 -1.7721519 3.4170957 23 0 0 0 96.900757
17.972672 -1.7620884 3.2493865 60 0 0 0 51.152378
-10.126114 -1.253975 3.3733845 99 0 0 0 97.679665
-16.039713 3.9721498 3.0376909 80 0 0 0 3.5123301
31.320015 3.8893335 3.2967942 85 0 0 0 47.642799
-15.317081 4.1918626 3.3071404 401 0 0 0 3.9070499
-19.28117 4.7806573 3.1606619 315 0 0 0 3.5123301
30.804388 4.5971928 3.2531536 122 0 0 0 47.254002
-15.992556 5.2289848 3.0902731 252 0 0 0 4.67942
30.280989 5.2835131 3.2104111 170 0 0 0 46.856838
-19.407343 5.8321819 3.2217426 197 0 0 0 4.3023
-15.902521 5.6328607 3.0975773 322 0 0 0 5.0767198
29.783701 5.9551506 3.1720722 163 0 0 0 46.462048
-17.2104 6.5777159 3.3808701 417 0 0 0 5.4613199
29.296194 6.6110892 3.1363916 144 0 0 0 46.072033
28.804323 7.2491727 3.1018314 138 0 0 0 45.68943
-17.120716 7.7736073 3.4475212 82.5 0 0 0 6.4395304
24.848066 7.5775323 3.3568492 217 0 0 0 44.900501
28.328695 7.8754168 3.0705059 147 0 0 0 45.288818
24.451658 8.1195288 3.3293722 228 0 0 0 44.517979
37.13599 8.377161 3.039537 21 0 0 0 46.072033
24.055895 8.6510534 3.3035967 237 0 0 0 44.125031
-18.791138 9.3819981 3.3295748 141 0 0 0 7.0246
-10.559427 9.4591627 3.28354 163 0 0 0 11.31615
23.659094 9.172039 3.2792819 187 0 0 0 43.732689
36.573517 9.2009325 3.0108454 48 0 0 0 45.68943
-18.71344 9.9224777 3.3563073 133 0 0 0 7.4141202
-10.162051 9.5592737 3.2308993 286 0 0 0 11.70168
-9.7496815 9.868763 3.2118869 278 0 0 0 12.288879
23.264183 9.6841478 3.2568135 196 0 0 0 43.347679
-18.64016 10.475956 3.3865666 130 0 0 0 7.8007398
-9.2123928 10.284496 3.1954699 316.5 0 0 0 13.060585
22.88208 10.192932 3.2376955 201 0 0 0 42.956242
-8.6684561 10.685276 3.1831203 334.5 0 0 0 13.848215
-8.2692757 10.994491 3.1814394 331 0 0 0 14.43319
-18.558439 11.036345 3.4181676 120 0 0 0 8.19946
-7.8635683 11.295578 3.1821225 338 0 0 0 15.026051
-18.466141 11.602694 3.4507997 113 0 0 0 8.5808401
-7.3299999 11.713477 3.1934514 304.5 0 0 0 15.802355
10.743749 11.951368 3.2887397 234 0 0 0 36.308861
11.239698 11.898331 3.3484008 232 0 0 0 36.692558
11.733912 11.822493 3.4064946 228 0 0 0 37.091248
12.241084 11.73951 3.2584057 243 0 0 0 37.478649
12.773325 11.658745 3.1081667 173 0 0 0 37.871647
-18.37677 12.184274 3.4871032 100 0 0 0 8.9695301
-15.197317 12.363415 3.0946782 149 0 0 0 10.54015
-6.7776442 12.112571 3.2064598 366.5 0 0 0 16.578495
-6.3650956 12.426128 3.2240484 327 0 0 0 17.165359
6.1891627 12.478366 3.2015274 279 0 0 0 31.99988
9.3899832 12.145472 3.144655 285 0 0 0 35.122059
9.8274603 12.082462 3.1892381 234 0 0 0 35.514759
10.266821 12.004475 3.2336352 223 0 0 0 35.911839
21.468365 12.221629 3.1940274 38 0 0 0 41.388321
-14.885945 12.727665 3.0923553 154 0 0 0 10.92693
-10.645812 12.827082 3.0382717 105 0 0 0 13.65589
-6.0874662 12.63891 3.2388253 307 0 0 0 17.55353
-5.8039489 12.847321 3.2540445 330 0 0 0 17.93965
2.489481 12.993265 3.207633 360 0 0 0 27.70842
5.7372971 12.732108 3.21064 304.5 0 0 0 31.421261
9.3002272 12.659927 3.2172375 158 0 0 0 34.737488
14.642366 12.710869 3.238795 39.5 0 0 0 38.266781
-5.5186439 13.061115 3.2721708 361 0 0 0 18.33663
-5.2322431 13.284081 3.2940879 277 0 0 0 18.73093
-0.76149952 13.469046 3.2731953 355 0 0 0 23.79681
2.194766 13.199451 3.2441018 292.5 0 0 0 27.323191
2.8313334 13.030205 3.2326252 373.5 0 0 0 28.100321
8.8759499 13.418422 3.2949398 8 0 0 0 33.948559
-4.7887378 13.610125 3.3279476 300.5 0 0 0 19.309441
-4.3380032 13.951521 3.1900117 259.5 0 0 0 19.900351
-1.0980871 13.525902 3.2926888 290.5 0 0 0 23.41066
-0.43819705 13.774691 3.1737573 175 0 0 0 24.19735
8.6627722 13.822853 3.3409033 11 0 0 0 33.56337
-10.779534 14.375344 3.2713313 178 0 0 0 14.43319
-4.0752521 14.34493 3.2551243 186.5 0 0 0 20.297449
8.0982218 14.45661 3.3940749 216 0 0 0 32.786251
20.216927 14.310984 3.2038183 96 0 0 0 39.820721
-10.275824 14.807842 3.2800865 205 0 0 0 15.026051
-7.9531865 14.668368 3.0335321 234 0 0 0 16.776859
4.4551959 14.996928 3.210422 100 0 0 0 29.25979
4.8349748 14.919339 3.2179189 81 0 0 0 29.66061
5.2156258 14.837682 3.2266071 102 0 0 0 30.0439
5.6286821 14.833211 3.2542043 59 0 0 0 30.436279
6.0237079 14.766632 3.2706857 250 0 0 0 30.82955
7.6808181 14.541238 3.3693032 39 0 0 0 32.388802
-9.7640667 15.236317 3.2913251 220 0 0 0 15.610929
-3.1623585 15.377497 3.2315238 153 0 0 0 21.45756
1.2335045 15.457379 3.1860015 101.5 0 0 0 25.95462
1.8000461 15.379751 3.1806598 349 0 0 0 26.54364
2.1807113 15.351276 3.1844275 29 0 0 0 26.93244
3.6900706 15.109978 3.1927369 31 0 0 0 28.49371
4.0701571 15.048851 3.1995769 106 0 0 0 28.87229
-14.468807 15.824185 3.3764503 133 0 0 0 12.86637
-11.067719 15.544425 3.0008616 233 0 0 0 14.82711
-10.697361 15.831204 3.0034783 212 0 0 0 15.22499
-9.2561951 15.686048 3.3110838 203 0 0 0 16.186954
-2.2664785 15.928677 3.3096604 92.5 0 0 0 22.434544
-1.6649004 15.873225 3.2821903 262 0 0 0 23.020309
-0.099308565 15.629417 3.2125576 102 0 0 0 24.58107
0.28402382 15.594768 3.2054462 86 0 0 0 24.96903
0.66513562 15.539991 3.1961763 95 0 0 0 25.366819
-13.599008 16.418745 3.3543923 108 0 0 0 13.65589
-10.342824 16.145899 3.0128706 221 0 0 0 15.610929
-9.9797173 16.45356 3.0224097 215 0 0 0 15.99378
-9.5954695 16.731628 3.0280981 196 0 0 0 16.380131
-36.782608 -49.584888 3.5305266 15 0 0 0 84.776497
-43.636024 -45.825573 3.6170235 9 0 0 0 86.747559
-44.868664 -44.862476 3.626554 12 0 0 0 87.142159
-46.419346 -44.189297 3.6625814 9 0 0 0 87.530708
-53.746887 -37.849625 3.7542894 5 0 0 0 89.877411
-55.110039 -36.820438 3.7846439 13 0 0 0 90.272331
-0.90072322 -36.152004 3.8668852 27 0 0 0 75.014877
-56.49189 -35.770435 3.8174658 7 0 0 0 90.66716
-1.7501757 -35.354931 3.7856112 17 0 0 0 75.408409
-57.921898 -34.714611 3.8546827 10 0 0 0 91.055229
7.2728519 -29.085938 3.9482477 9 0 0 0 70.711075
11.590991 -28.014942 3.9889796 23 0 0 0 68.369316
11.998183 -27.098579 3.8993363 53 0 0 0 67.97393
12.962499 -27.434868 3.9908061 6 0 0 0 67.577682
8.8993378 -26.982332 3.7420506 15 0 0 0 69.533051
10.331719 -26.821278 3.7840703 24 0 0 0 68.750099
-7.7508354 -13.289085 3.7414322 33.5 0 0 0 83.025513
-6.9572625 -13.000896 3.7687874 66 0 0 0 82.440331
19.62077 -13.118869 3.675637 27 0 0 0 58.975498
-7.2232475 -12.737253 3.7427444 18 0 0 0 82.834251
-12.274919 -12.271896 3.5807414 34 0 0 0 87.142159
-11.939422 -11.940315 3.8970838 33 0 0 0 87.142159
-7.3746247 -11.634269 3.522491 67 0 0 0 83.605675
13.751443 -11.303332 3.6652677 11 0 0 0 60.5396
-11.265026 -10.725639 3.9736362 32 0 0 0 87.530708
-2.13219 -10.6557 3.8585038 25 0 0 0 77.753273
12.80327 -10.522184 3.8211207 25 0 0 0 60.5396
20.151413 -10.77658 3.5545142 13 0 0 0 57.40844
32.938404 -10.876962 3.6478498 10 0 0 0 54.675648
-7.5215511 -10.136638 3.8532124 25 0 0 0 84.776497
-7.1938176 -10.204243 3.5050449 40 0 0 0 84.393517
-3.6573205 -10.182347 3.5750797 77 0 0 0 80.090416
-3.0647964 -10.066465 3.9934456 36 0 0 0 79.317291
-2.1521349 -10.106831 3.9234452 42 0 0 0 77.944084
-0.016660511 -10.118557 3.7208776 34 0 0 0 74.624977
13.166569 -10.288837 3.8516223 39 0 0 0 60.14608
-2.6870952 -9.6653967 3.5633235 63 0 0 0 78.919319
-2.4585962 -9.7644205 3.5767281 140 0 0 0 78.52491
-1.7023064 -9.7282734 3.5094993 82 0 0 0 77.352348
14.452538 -9.6707792 3.5776634 26 0 0 0 58.975498
15.081996 -9.5628519 3.6719992 90 0 0 0 58.586601
21.033323 -9.9509888 3.6158159 64 0 0 0 56.619713
-11.6846 -9.1209326 3.7880971 29 0 0 0 89.082207
-3.5152829 -9.0853672 3.6981769 18 0 0 0 80.480034
-0.24368089 -9.2179098 3.505908 47 0 0 0 75.014877
17.013796 -9.101594 3.9610102 38 0 0 0 57.40844
-8.1681232 -8.8612747 3.7789414 23.333334 0 0 0 86.488716
-6.2923508 -8.925869 3.7401104 26 0 0 0 84.393517
-2.5030963 -8.9977741 3.5476756 134 0 0 0 78.919319
-11.932653 -8.4069166 3.7307069 46 0 0 0 89.877411
-6.5214777 -8.3528996 3.7604041 17 0 0 0 85.176392
-5.3768501 -8.0382843 3.670516 15 0 0 0 83.999367
-4.4908767 -8.3862247 3.6112239 37 0 0 0 82.440331
-9.8357649 -7.6763291 3.5025938 32 0 0 0 89.082207
-5.0589437 -7.9783349 3.58622 46 0 0 0 83.605675
-4.7626452 -7.9334126 3.513206 29 0 0 0 83.216782
9.3060837 -7.6566844 3.9811683 41 0 0 0 60.5396
13.118784 -7.8728375 3.9021473 113 0 0 0 58.192398
15.028214 -7.5698366 3.8710306 33 0 0 0 57.00864
-28.973797 -7.2670336 3.9255185 27 0 0 0 95.730362
7.6662874 -7.3187833 3.7676358 37 0 0 0 61.712421
9.4704304 -7.4080524 3.8231058 146.5 0 0 0 60.14608
12.425484 -7.0491066 3.6454992 41 0 0 0 57.798233
26.30979 -7.2736464 3.5476105 19 0 0 0 53.893353
-8.9888887 -6.6715555 3.9708204 61 0 0 0 89.482109
-8.3794098 -6.540761 3.6413376 24 0 0 0 89.082207
7.7488818 -6.7021976 3.89432 138 0 0 0 60.922672
8.13692 -6.6942606 3.8723526 25.5 0 0 0 60.5396
10.690949 -6.7808414 3.8636508 150 0 0 0 58.586601
11.149681 -6.6921301 3.9668236 23 0 0 0 58.192398
12.40417 -6.6390166 3.9402919 127 0 0 0 57.40844
14.667609 -6.9423175 3.7337132 35 0 0 0 56.619713
15.783931 -6.5398421 3.92699 22 0 0 0 55.838139
16.187561 -6.7104139 3.5970402 27 0 0 0 55.838139
18.345173 -6.5658369 3.5128045 25 0 0 0 55.067318
-13.083657 -6.1935077 3.6999919 21 0 0 0 92.601685
-9.6320486 -6.4397197 3.5392551 256 0 0 0 90.272331
-8.6645546 -6.1046901 3.7582016 67.5 0 0 0 89.877411
-8.3596306 -6.2039585 3.9492185 65 0 0 0 89.482109
11.335237 -6.4295545 3.974628 87 0 0 0 57.798233
16.051571 -6.1963539 3.5317202 27 0 0 0 55.454922
34.878071 -6.0403399 3.7097099 21 0 0 0 52.334179
-11.149098 -5.9629869 3.5491514 171 0 0 0 91.821167
-10.006004 -5.6732249 3.5138714 48 0 0 0 91.44165
-9.3916626 -5.7883239 3.6440735 60.5 0 0 0 90.861191
-8.9598808 -5.8333426 3.6622903 233.5 0 0 0 90.469742
-8.2902489 -5.8428316 3.6002564 96 0 0 0 89.877411
13.667973 -5.6657815 3.7703419 76 0 0 0 55.838139
14.996384 -5.7869325 3.6962476 89 0 0 0 55.454922
-12.788972 -5.3028855 3.5401013 33 0 0 0 93.379074
-10.173539 -5.2306046 3.5887764 224.66667 0 0 0 92.079689
-8.7614212 -5.2569075 3.7494962 182.5 0 0 0 91.055229
14.278858 -5.2437768 3.7490227 139.33333 0 0 0 55.196518
15.368986 -5.0772066 3.7199445 20 0 0 0 54.675648
20.124348 -5.0372052 3.7328739 142 0 0 0 53.500648
30.106171 -5.2093992 3.959538 53 0 0 0 52.334179
34.991814 -5.1778121 3.7052956 58 0 0 0 51.938881
-11.56696 -4.7959504 3.5153663 63 0 0 0 93.379074
-10.192759 -4.8242989 3.7241931 60 0 0 0 92.601685
-9.2487507 -4.9500399 3.9796309 19 0 0 0 91.821167
9.4129486 -4.7453089 3.8720703 453 0 0 0 57.00864
10.154537 -4.5078783 3.805079 196.5 0 0 0 56.238258
-18.804823 -4.2287107 3.7336361 234.5 0 0 0 96.110146
-9.6462202 -4.0030985 3.9624949 192 0 0 0 93.379074
-9.4122114 -4.4586239 3.6966298 75 0 0 0 92.601685
-8.9274817 -4.2288356 3.7492783 79 0 0 0 92.601685
9.4386454 -4.4705582 3.8362198 484 0 0 0 56.619713
10.280236 -4.1639671 3.8441401 325.33334 0 0 0 55.7104
13.318859 -4.4016795 3.9238579 45 0 0 0 54.675648
14.047323 -4.2615161 3.7380965 360 0 0 0 54.287392
17.318676 -4.336659 3.6582823 129 0 0 0 53.500648
34.897682 -4.2904348 3.6814477 11 0 0 0 51.542702
-14.762389 -3.7050157 3.7017665 190.5 0 0 0 95.730362
-9.792448 -3.6476917 3.8373828 356.5 0 0 0 93.978638
9.9325886 -3.5562809 3.7438252 56 0 0 0 55.067318
11.105469 -3.6727347 3.8578217 52 0 0 0 54.675648
14.25296 -3.9434383 3.7647779 153 0 0 0 53.893353
-15.661793 -3.1230829 3.6871579 250 0 0 0 96.500786
-15.040071 -3.384774 3.9385605 218 0 0 0 96.110146
-10.178718 -3.3709371 3.805325 87 0 0 0 94.563591
11.264721 -3.4199395 3.8818851 60 0 0 0 54.287392
-18.499155 -2.7499602 3.8550565 157 0 0 0 97.290558
-12.711508 -2.5347161 3.6381304 47 0 0 0 96.500786
-11.510218 -2.5923743 3.6041627 376 0 0 0 96.110146
-10.888977 -2.7347083 3.8453245 233.5 0 0 0 95.730362
-9.6723013 -2.7695911 3.6538441 449.33334 0 0 0 95.217628
-9.4684582 -2.8799767 3.7567165 241 0 0 0 94.958359
9.9907446 -2.7640464 3.9328475 199 0 0 0 53.893353
10.079681 -2.5232735 3.6863532 134 0 0 0 53.500648
17.036091 -2.5182805 3.949101 66 0 0 0 51.938881
-12.655534 -2.2021899 3.6058767 86 0 0 0 96.900757
-10.88148 -2.4487488 3.6843939 360 0 0 0 96.110146
-9.8363113 -2.3455048 3.8383706 259 0 0 0 95.920258
9.7066116 -2.1776688 3.6513348 52.5 0 0 0 53.11393
12.737135 -2.2040985 3.9344831 70 0 0 0 52.334179
15.124352 -2.2365365 3.8870289 26 0 0 0 51.938881
18.767847 -2.30673 3.8673832 80 0 0 0 51.542702
-10.508189 -1.5639435 3.5110714 60 0 0 0 97.290558
-9.5967379 -1.7949027 3.707109 284 0 0 0 96.700775
12.695117 -1.8761618 3.9058239 97 0 0 0 51.938881
13.689332 -1.6817398 3.8537207 82 0 0 0 51.542702
15.746437 -1.5413804 3.6302335 61 0 0 0 51.152378
18.161901 -1.7801681 3.7329957 128 0 0 0 51.152378
24.340563 -1.7807997 3.7708573 20 0 0 0 50.766659
-11.797127 -1.3161058 3.626461 79.5 0 0 0 97.872017
-11.064032 -1.0991026 3.9456162 40 0 0 0 98.064369
-9.8937721 -1.2287037 3.6631565 79.5 0 0 0 97.679665
-9.3462896 -1.394343 3.5889261 169 0 0 0 97.290558
9.5585852 -1.1728694 3.6550696 56 0 0 0 51.542702
14.306942 -1.2250078 3.652154 56.5 0 0 0 50.959518
20.056561 -1.4681464 3.6130035 19 0 0 0 50.766659
-9.8157215 -0.8517375 3.7412543 62 0 0 0 98.261566
-9.9969378 -0.49956745 3.800215 139 0 0 0 98.851585
-18.066885 4.4796948 3.8762999 100 0 0 0 3.5123301
-15.336294 4.1953182 3.6979868 418 0 0 0 3.9070499
-16.009727 5.2348385 3.7106838 270.5 0 0 0 4.67942
30.260693 5.2854967 3.9647582 124 0 0 0 46.856838
-19.405066 5.8328428 3.7206297 153 0 0 0 4.3023
-15.925659 5.6413631 3.7213039 338 0 0 0 5.0767198
29.72744 5.9493351 3.9127607 135 0 0 0 46.462048
-17.169352 6.563261 3.8229041 276 0 0 0 5.4613199
29.256544 6.6074824 3.8708665 120 0 0 0 46.072033
-17.065676 7.2521267 3.8551345 327 0 0 0 6.0494699
28.789759 7.2507563 3.8314734 158 0 0 0 45.68943
-16.941832 7.944097 3.8882954 262 0 0 0 6.6321702
-12.756896 7.9949203 3.8599422 141 0 0 0 8.5808401
28.337879 7.883132 3.7959344 135 0 0 0 45.288818
43.240726 7.5410852 3.5005834 14 0 0 0 46.856838
-12.259149 8.1047277 3.7672198 160 0 0 0 8.9695301
-11.901665 8.2920504 3.7176688 327 0 0 0 9.36586
24.445589 8.11726 3.9669132 162 0 0 0 44.517979
-11.588337 8.5008192 3.6827545 336 0 0 0 9.7547598
-11.117584 8.872653 3.7609246 349 0 0 0 10.409286
24.041239 8.6454811 3.9347782 198 0 0 0 44.125031
-18.78966 9.383028 3.8471546 123 0 0 0 7.0246
-10.730846 9.1518478 3.7862155 320 0 0 0 10.92693
-10.45142 9.3638706 3.7664344 344 0 0 0 11.31615
23.6369 9.1630888 3.9045186 211 0 0 0 43.732689
-18.719114 9.9273529 3.8798242 110 0 0 0 7.4141202
-10.170866 9.5702248 3.7479162 332 0 0 0 11.70168
-9.7609234 9.8826504 3.7271399 320 0 0 0 12.288879
23.260134 9.6820383 3.8806603 189 0 0 0 43.347679
-18.643295 10.479654 3.9145916 131 0 0 0 7.8007398
-13.763887 10.111048 3.9574869 212 0 0 0 9.7547598
-13.409805 10.364365 3.926316 213 0 0 0 10.14756
-9.2174206 10.293031 3.706239 327.25 0 0 0 13.060585
-13.065897 10.618193 3.8994288 252 0 0 0 10.54015
-12.725726 10.868442 3.875021 143 0 0 0 10.92693
-8.6719627 10.692752 3.6917396 287 0 0 0 13.848215
-8.2695217 10.999063 3.8591237 284 0 0 0 14.43319
-18.564972 11.042263 3.9521701 136 0 0 0 8.19946
-8.1391468 11.103952 3.5203435 300.5 0 0 0 14.63015
-7.8184447 11.332891 3.7468367 286 0 0 0 15.092364
-18.478439 11.612563 3.9914839 119 0 0 0 8.5808401
-7.3293972 11.71628 3.7030311 305.75 0 0 0 15.802355
10.743155 11.953785 3.6831169 158 0 0 0 36.308861
11.229365 11.890545 3.7468581 198 0 0 0 36.692558
11.719576 11.81123 3.810838 216 0 0 0 37.091248
12.240087 11.741178 3.8834357 181 0 0 0 37.478649
12.776066 11.661856 3.747174 132 0 0 0 37.871647
25.240963 11.993154 3.6074169 147 0 0 0 42.567421
-15.174404 12.34683 3.572597 121 0 0 0 10.54015
-6.7806063 12.121834 3.7204804 327.75 0 0 0 16.578495
-6.3673735 12.434948 3.7408886 311 0 0 0 17.165359
6.1864581 12.470066 3.714951 266.5 0 0 0 31.99988
9.3862476 12.143128 3.7087646 204 0 0 0 35.122059
9.8219128 12.078158 3.7609711 189 0 0 0 35.514759
10.272196 12.013782 3.6233547 188 0 0 0 35.911839
-14.905214 12.746542 3.5801957 106 0 0 0 10.92693
-6.0872121 12.642915 3.7567873 337 0 0 0 17.55353
-5.8056965 12.856071 3.7761168 295.5 0 0 0 17.93965
2.4871137 12.973625 3.6933897 387 0 0 0 27.70842
5.7326035 12.718333 3.7236123 222 0 0 0 31.421261
9.2755003 12.629065 3.786 132 0 0 0 34.737488
14.538379 12.619536 3.9293847 41 0 0 0 38.266781
-5.5210271 13.071979 3.7978182 283 0 0 0 18.33663
-5.2296104 13.280893 3.6426868 285 0 0 0 18.73093
-4.9347677 13.495252 3.6664236 271 0 0 0 19.113991
