# .PCD v0.7 - Point Cloud Data file format
VERSION 0.7
FIELDS x y z intensity normal_x normal_y normal_z curvature
SIZE 4 4 4 4 4 4 4 4
TYPE F F F F F F F F
COUNT 1 1 1 1 1 1 1 1
WIDTH 940
HEIGHT 1
VIEWPOINT 0 0 0 1 0 0 0
POINTS 940
DATA ascii
3.7297895 7.8083172 -0.31293684 388 0 0 0 31.788624
4.1920452 7.7664576 -0.10353443 538 0 0 0 32.570633
3.4143696 8.4378862 -0.331321 398 0 0 0 30.81567
3.7163208 8.2862082 -0.21717677 487.5 0 0 0 31.399845
4.0178227 8.144556 -0.10781167 447 0 0 0 31.982059
0.35686159 8.9927788 -0.32761925 399 0 0 0 25.34972
0.68587708 8.9466572 -0.3265202 524.5 0 0 0 25.931629
1.2325538 8.8732309 -0.3259218 689 0 0 0 26.910744
1.7833586 8.8157482 -0.3272711 593 0 0 0 27.882244
2.2299743 8.7727566 -0.3295438 388 0 0 0 28.664188
2.6761429 8.7047091 -0.33170342 477.5 0 0 0 29.438866
3.1311574 8.64116 -0.33503515 553.5 0 0 0 30.225645
3.6796751 8.7787189 -0.11517182 450.5 0 0 0 31.010086
-0.66349465 9.3915405 -0.34469312 151 0 0 0 23.584896
-0.1995941 9.2478886 -0.33792093 112.5 0 0 0 24.373295
0.13696544 9.0489998 -0.32968456 161 0 0 0 24.953039
2.3515749 9.243536 -0.11609581 205.5 0 0 0 28.664188
2.7994115 9.0991745 -0.11560783 491 0 0 0 29.438866
3.2748265 9.0324497 -0.11683463 590.5 0 0 0 30.225645
-2.1555514 9.7688856 -0.36886275 372 0 0 0 21.25383
-1.6485509 9.7043085 -0.3622815 264.5 0 0 0 22.025761
-1.1479232 9.5682468 -0.35380411 169 0 0 0 22.807831
1.3903117 9.9466238 -0.12478458 126 0 0 0 26.90847
1.7265196 9.7320061 -0.12204446 143.5 0 0 0 27.495789
2.0499179 9.5046101 -0.11925588 113 0 0 0 28.074551
-3.1965065 10.250945 -0.39888129 93 0 0 0 19.89115
-2.7449365 10.079605 -0.38698778 113 0 0 0 20.470501
0.80302584 10.329196 -0.13023365 138 0 0 0 25.931629
1.1591332 10.090068 -0.12673394 130 0 0 0 26.52212
-3.6456351 10.773471 -0.42499387 258 0 0 0 19.503941
-0.086355962 10.940961 -0.14010344 126 0 0 0 24.57102
0.30644375 10.687296 -0.13586754 120.5 0 0 0 25.151379
-0.6421482 11.306563 -0.14660764 96 0 0 0 23.78027
-0.3598665 11.134719 -0.14347814 139 0 0 0 24.17557
-4.2914491 11.754057 -0.47181427 130 0 0 0 19.106489
-1.2457294 11.765546 -0.15516083 88 0 0 0 23.00445
-0.93783635 11.536985 -0.1508318 92 0 0 0 23.389521
-1.7382202 12.143049 -0.16251954 87 0 0 0 22.414761
-6.2963958 12.717821 -0.19549091 657 0 0 0 17.34474
-5.6951323 12.649765 -0.19001475 795 0 0 0 17.93928
-5.3113418 12.610449 -0.18676594 725 0 0 0 18.3249
-4.7928162 12.659378 -0.18421194 360 0 0 0 18.910454
-2.6560822 12.91517 -0.17796808 82 0 0 0 21.446791
-2.2735262 12.600704 -0.17154801 75 0 0 0 21.83321
-7.0372744 13.002332 -0.20556101 343 0 0 0 16.769461
-4.5191813 13.415402 -0.19440171 161 0 0 0 19.503941
-3.2613745 13.356441 -0.18742174 75 0 0 0 20.862505
-4.2420111 13.696873 -0.19736382 84 0 0 0 19.89115
-3.8450632 13.579508 -0.19354782 56 0 0 0 20.276859
-11.091342 18.367126 -0.31746003 283 0 0 0 15.98749
-10.620875 18.60248 -0.31665084 259 0 0 0 16.37673
4.9945307 -50.71632 0.38395479 10 0 0 0 73.004547
-4.8783526 -49.53529 0.36957827 10 0 0 0 76.137726
-3.662333 -49.65134 0.37026381 14 0 0 0 75.751564
-7.2972288 -49.201046 0.36829466 14 0 0 0 76.922737
-10.961422 -48.823681 0.3690933 19 0 0 0 78.094994
-9.7280655 -48.915512 0.36834535 19 0 0 0 77.706497
15.888923 -48.103954 0.39202064 13 0 0 0 69.490623
-19.675426 -47.515724 0.37724102 8 0 0 0 80.838234
-18.416683 -47.757935 0.37563741 15 0 0 0 80.443077
-17.108829 -47.829617 0.37312001 10 0 0 0 80.05011
5.8894348 -47.770172 0.36574075 26 0 0 0 72.622879
14.513905 -47.854595 0.38629705 24 0 0 0 69.88237
17.150852 -47.940552 0.39503473 18 0 0 0 69.103249
19.786076 -47.773724 0.40318853 15 0 0 0 68.315033
25.413591 -47.54813 0.42465591 29 0 0 0 66.748711
10.651406 -47.444202 0.37351114 22 0 0 0 71.058739
11.858996 -47.354828 0.37585473 22 0 0 0 70.66555
13.062454 -47.212475 0.37808028 21 0 0 0 70.267838
20.960526 -47.292038 0.40469465 21 0 0 0 67.930466
28.430254 -47.433739 0.43787497 9 0 0 0 65.974609
30.050554 -47.454643 0.4458583 8 0 0 0 65.57341
-24.89937 -46.599407 0.38594905 11 0 0 0 82.39743
-23.527765 -46.75742 0.38294768 9 0 0 0 82.01371
-22.198555 -46.950577 0.38050666 7 0 0 0 81.611282
22.220444 -46.98658 0.40785134 20 0 0 0 67.542175
33.006199 -46.863266 0.45783517 10 0 0 0 64.801643
34.554165 -46.588074 0.4647283 14 0 0 0 64.407402
6.8632116 -46.29097 0.35766628 16 0 0 0 72.229111
37.985813 -46.280788 0.48248386 9 0 0 0 63.627018
22.994492 -45.688606 0.40338704 36 0 0 0 67.144577
3.2038476 -43.499859 0.33322325 21 0 0 0 73.401375
16.683001 -43.26403 0.36430719 31 0 0 0 68.704636
28.707232 -42.967678 0.41488022 9 0 0 0 65.184761
-10.308916 -41.149067 0.3183502 31 0 0 0 78.488922
-26.706457 -39.979973 0.35406971 5 0 0 0 83.960037
6.7684922 -39.054047 0.30964822 16 0 0 0 71.834236
-1.8916421 -38.368156 0.29480359 27 0 0 0 75.361351
27.900684 -35.760441 0.37331194 15 0 0 0 64.013298
6.5872092 -33.1758 0.27062091 25 0 0 0 71.443886
-30.715263 -32.270161 0.33130524 7 0 0 0 86.706177
-30.404337 -30.412481 0.32127202 21 0 0 0 87.100975
-30.313131 -28.868156 0.31390423 5 0 0 0 87.484497
-3.5335073 -28.557289 0.22919564 51 0 0 0 76.539871
-4.5214424 -25.989012 0.21270223 119 0 0 0 77.308365
-7.0578141 -25.466715 0.21228744 43 0 0 0 78.882088
-30.559444 -20.425455 0.28200093 36 0 0 0 90.226799
-26.097216 -16.530148 0.24313946 25 0 0 0 90.624443
-25.592554 -15.343675 0.23638903 27 0 0 0 91.009888
-25.617441 -14.516237 0.23403943 7 0 0 0 91.398735
-25.461262 -13.613445 0.23049815 31 0 0 0 91.781319
-25.16486 -12.670981 0.22611199 34 0 0 0 92.161713
-25.104519 -11.87763 0.22372669 27 0 0 0 92.56131
-48.118362 -10.813791 0.3748053 21 0 0 0 96.073769
32.915005 -10.871298 0.31889859 44 0 0 0 54.634129
16.25971 -9.7609253 0.18793465 79 0 0 0 58.144089
-12.62436 -8.8887749 0.13956349 349 0 0 0 89.833649
-7.6651821 -8.6550541 0.25709802 450.5 0 0 0 86.114548
-2.7693851 -8.8015165 0.17485698 368.33334 0 0 0 79.401802
-2.4752238 -8.865591 0.32760924 670 0 0 0 78.882088
9.3584824 -8.9423265 0.2989217 101.5 0 0 0 61.664047
11.469258 -8.0993366 0.14802766 23 0 0 0 59.320759
11.507727 -7.7099147 0.14697017 40 0 0 0 58.927567
13.694083 -7.773622 0.16309512 43 0 0 0 57.751671
11.397524 -7.2404461 0.48250529 21 0 0 0 58.541119
11.521452 -7.3155017 0.14577848 69 0 0 0 58.541119
49.940311 -7.3917499 0.45336571 13 0 0 0 51.903168
35.297592 -6.1156683 0.33251417 64 0 0 0 52.287071
-21.944742 -5.5003467 0.1912663 224 0 0 0 95.692001
25.009865 -5.6137085 0.24815582 50 0 0 0 53.074558
29.821173 -5.9261613 0.28761101 73 0 0 0 52.676579
19.978561 -5.0053158 0.20671125 175 0 0 0 53.463528
9.582448 -4.5487089 0.25582516 658.5 0 0 0 56.584446
14.984781 -4.5511637 0.16592187 201 0 0 0 54.237461
-5.116879 -4.1319089 0.26652971 773.57141 0 0 0 88.767151
0.16869125 -4.0239096 0.21486647 73.5 0 0 0 73.7882
4.9052982 -4.1610065 0.24795084 1012.6667 0 0 0 60.687683
5.1105146 -4.0195208 0.25193164 391 0 0 0 60.09584
9.7496996 -4.3370285 0.25763488 515 0 0 0 56.191021
-19.493259 -3.880451 0.17296836 180 0 0 0 96.467674
-5.3656735 -3.9722371 0.16434991 476 0 0 0 89.442703
5.0567074 -3.9778438 0.40782332 1033 0 0 0 60.09584
23.180004 2.8778582 0.23522526 36 0 0 0 47.610741
25.61236 2.5407941 0.25482157 18 0 0 0 47.996326
19.314661 3.3721783 0.20427951 34 0 0 0 46.831039
20.963604 3.129359 0.21737975 47 0 0 0 47.218681
-15.61085 4.3060546 0.15401167 354 0 0 0 3.9054401
-12.327671 4.385457 0.13312718 325 0 0 0 5.072
-7.4822311 4.4310122 0.21067744 662 0 0 0 8.1871901
-6.797811 4.3606281 0.2477479 597.75 0 0 0 8.7721405
-6.1984782 4.4128866 0.096155658 791 0 0 0 9.5514297
-5.7516327 4.3024778 0.183521 359 0 0 0 9.9390793
-19.664198 4.9176083 0.18220054 161 0 0 0 3.5190799
-11.202273 4.931118 0.27926803 398 0 0 0 6.2318702
-10.222994 4.7966914 0.2608358 495 0 0 0 6.6255002
-9.386488 4.6824903 0.24537328 561.5 0 0 0 7.0177398
-8.6625862 4.5841684 0.23202315 613 0 0 0 7.4021702
-8.0407448 4.5051613 0.22081091 617 0 0 0 7.79351
-6.8329968 4.5052481 0.30175221 835 0 0 0 8.9636602
-23.074572 5.1791124 0.20528319 158 0 0 0 3.12199
-16.17874 5.3251915 0.16085012 321 0 0 0 4.67486
-13.71034 5.2612596 0.14493079 244 0 0 0 5.4589
-12.3239 5.0742092 0.30022916 350 0 0 0 5.8470502
16.794964 5.1231909 0.18786626 16 0 0 0 44.872101
-19.684917 5.9574394 0.18541667 44 0 0 0 4.2893
-8.765274 6.1113133 0.3829411 429 0 0 0 9.3591299
-7.8699832 6.3830414 0.11541565 316 0 0 0 10.5301
-8.6678839 6.6952715 0.39216322 446 0 0 0 10.13443
-7.7891741 6.8069992 0.11734725 420 0 0 0 11.109965
15.465526 6.8933678 0.18294697 18 0 0 0 42.923634
-8.6118851 7.1727304 0.40089041 412 0 0 0 10.722176
-7.7188373 7.2607927 0.11956797 418 0 0 0 11.69413
13.087072 7.4604058 0.16717114 142 0 0 0 41.362
13.680052 7.3565001 0.17114778 118 0 0 0 41.747849
14.387256 7.2840962 0.17616889 91 0 0 0 42.141151
15.088924 7.1765814 0.18108329 72 0 0 0 42.537434
-8.5295858 7.6497836 0.40943968 444 0 0 0 11.30568
-7.6473827 7.7442265 0.12203155 391 0 0 0 12.277124
-7.320354 7.9754791 0.25570387 915.5 0 0 0 12.85915
-6.7391214 7.8969412 0.24728999 1125.5 0 0 0 13.445255
-6.1981883 7.8224926 0.11594781 1178 0 0 0 14.03566
-5.691524 7.8116288 0.19349104 764.33331 0 0 0 14.694354
-5.0108113 7.76508 0.11084586 601 0 0 0 15.60309
12.358212 7.8774428 0.16356994 297 0 0 0 40.583061
12.616687 7.6112447 0.16430545 284 0 0 0 40.964249
-8.3331985 8.0421848 0.41388327 569.5 0 0 0 11.88595
-7.7249136 8.0188313 0.39971685 905 0 0 0 12.47648
-6.3586807 8.0307131 0.37161738 713 0 0 0 14.03566
11.86948 8.4166613 0.16253144 308 0 0 0 39.793758
12.110973 8.1466961 0.16299522 288 0 0 0 40.190006
11.380073 8.9443588 0.16170293 348 0 0 0 39.020912
11.630134 8.6856785 0.16214561 331 0 0 0 39.403793
10.890501 9.4640951 0.16109909 381 0 0 0 38.231701
11.137517 9.2068176 0.16139597 353 0 0 0 38.62764
10.405143 9.9836979 0.16078852 355 0 0 0 37.456768
10.656157 9.7316141 0.16100603 365 0 0 0 37.84679
6.2062387 10.492486 0.14056523 206 0 0 0 33.147362
10.163075 10.244196 0.16074041 391 0 0 0 37.067219
5.9382243 10.628796 0.14026698 142 0 0 0 32.76746
6.6103053 10.56908 0.14300877 161 0 0 0 33.53643
9.8076763 10.645658 0.16090947 344.5 0 0 0 36.472862
5.3473983 11.477986 0.46027672 683 0 0 0 31.59519
5.9732833 11.330615 0.14530438 394 0 0 0 32.37381
6.1549163 11.328699 0.46852773 198.5 0 0 0 32.570633
6.8050489 11.171509 0.47522405 211 0 0 0 33.341896
7.3944488 11.187666 0.31863099 282.5 0 0 0 33.936607
7.761425 11.134939 0.32252139 272.5 0 0 0 34.320606
8.1311569 11.072094 0.32594875 303.5 0 0 0 34.709278
8.5201063 11.022188 0.1558252 318 0 0 0 35.102951
9.3196716 11.173116 0.1612273 280.5 0 0 0 35.696579
5.297328 11.751282 0.30912715 498 0 0 0 31.399845
5.912672 11.909424 0.31490928 155.5 0 0 0 31.982059
5.2628908 12.061593 0.14759979 274 0 0 0 31.2045
3.3188498 12.905659 0.48041385 302.5 0 0 0 28.664188
3.8037393 12.81547 0.31518844 360 0 0 0 29.24008
4.4954515 12.793344 0.48902696 259 0 0 0 30.02747
4.845644 12.776834 0.32078275 324 0 0 0 30.42382
5.2433095 12.860744 0.15334162 350 0 0 0 30.81567
-1.0831695 13.497826 0.31556624 538.5 0 0 0 23.389521
1.8850272 13.283138 0.3148073 307 0 0 0 26.90847
2.1741176 13.020418 0.31062111 480.5 0 0 0 27.30164
2.6576319 13.209399 0.25908819 416.33334 0 0 0 27.818144
3.2786164 13.429481 0.15154076 319 0 0 0 28.474449
3.6172895 13.378519 0.15203236 324 0 0 0 28.85393
4.3002224 13.272819 0.15320911 346 0 0 0 29.63765
4.6467881 13.22241 0.15393783 372 0 0 0 30.02747
-3.7399457 13.846445 0.15203914 304.5 0 0 0 20.470501
-2.8363373 13.809568 0.15040952 132 0 0 0 21.446791
-2.4725466 13.741261 0.32340699 595.5 0 0 0 21.83321
-1.4249539 13.577438 0.3172324 386.5 0 0 0 23.00445
-0.76251066 13.74621 0.3203699 380.5 0 0 0 23.78027
-0.25904655 13.928461 0.15038237 418.5 0 0 0 24.373295
0.25246412 13.84974 0.15002103 468 0 0 0 24.953039
0.75870442 13.77129 0.14982769 466.5 0 0 0 25.542995
1.2633395 13.70834 0.14989538 445 0 0 0 26.126989
1.5980023 13.65811 0.14996353 465 0 0 0 26.52212
-6.5068216 14.47595 0.16298996 322 0 0 0 17.93928
-6.0527015 14.395007 0.16117802 311 0 0 0 18.3249
-5.6204863 14.337049 0.15965551 380 0 0 0 18.71442
-5.2001266 14.281753 0.1582458 431 0 0 0 19.106489
-4.7814527 14.201297 0.15671407 429 0 0 0 19.503941
-4.3971009 14.198998 0.15591341 223 0 0 0 19.89115
-3.3142374 14.360645 0.15530466 322 0 0 0 21.060869
-2.1835349 14.120281 0.15223947 208 0 0 0 22.218309
-1.8333356 14.144452 0.15220943 397 0 0 0 22.61121
-7.9417267 14.689786 0.16883908 297 0 0 0 16.769461
-7.4402952 14.602562 0.16664237 295 0 0 0 17.151461
-6.9658847 14.537732 0.16475368 305 0 0 0 17.538019
-11.083941 18.346336 0.2048955 313 0 0 0 15.98749
-10.636129 18.620676 0.20524538 238 0 0 0 16.37673
-16.858631 25.106924 0.27191457 20 0 0 0 15.21366
46.917107 -49.265793 0.55010992 7 0 0 0 62.449921
-3.5221772 -28.418966 0.94284242 69 0 0 0 76.539871
76.979141 -27.519064 0.69704533 11 0 0 0 55.025608
-4.5289583 -26.002337 0.87134212 139 0 0 0 77.308365
79.348366 -21.932459 0.70684546 9 0 0 0 53.853458
16.173107 -9.7136459 0.6589607 150 0 0 0 58.144089
-12.713265 -9.1819811 0.91546917 126.5 0 0 0 89.638176
8.9860258 -9.0225306 0.76554298 730 0 0 0 62.056179
-12.715522 -8.9496346 0.52791762 204 0 0 0 89.833649
-7.6021152 -8.6537218 0.77661395 273.66666 0 0 0 86.049622
-7.2889757 -8.8662205 0.82069981 666 0 0 0 85.526566
-2.7019756 -8.8363619 0.55435961 411 0 0 0 79.271042
-2.3939619 -8.856142 0.70274162 605.66669 0 0 0 78.75103
9.3662968 -8.9522905 0.77878356 257 0 0 0 61.664047
82.505791 -6.054781 0.72215372 77 0 0 0 50.723701
24.857368 -5.5847468 0.88405496 5 0 0 0 53.074558
-8.5107203 -4.5470138 0.81704336 880 0 0 0 91.781319
-8.1377382 -4.6073565 0.79280353 684 0 0 0 91.398735
-7.7457376 -4.5523934 0.90824836 842 0 0 0 91.139503
-7.2669697 -4.597827 0.83558333 721.5 0 0 0 90.624443
-6.8308144 -4.5595369 0.79995942 879 0 0 0 90.226799
-6.4366927 -4.5277758 0.86297995 830 0 0 0 89.833649
9.5028839 -4.5126672 0.64466614 760 0 0 0 56.584446
14.805899 -4.5002513 0.55176812 278 0 0 0 54.237461
19.925573 -4.9963112 0.72020447 152 0 0 0 53.463528
-9.2064924 -4.3532653 0.86062866 891 0 0 0 92.56131
-8.8721275 -4.4643016 0.8400808 860 0 0 0 92.161713
-6.3826423 -4.4897199 0.66702878 776 0 0 0 89.833649
-5.8354521 -4.3215013 0.71090204 1279.5 0 0 0 89.442703
-5.1142654 -4.191009 0.73118699 659.22223 0 0 0 88.655045
4.8407135 -4.0546312 0.67434531 1034.5 0 0 0 60.591774
9.4581928 -4.4898705 0.9033677 828 0 0 0 56.584446
9.6351299 -4.2869883 0.77777481 653 0 0 0 56.191021
14.626934 -4.4464331 0.92085791 311 0 0 0 54.237461
84.892303 -4.137969 0.74242032 83 0 0 0 50.334888
-19.446297 -3.8675742 0.66722113 245 0 0 0 96.467674
4.9757671 -3.9133115 0.79268032 1083.5 0 0 0 60.09584
5.0241156 -3.951293 0.56520337 1299 0 0 0 60.09584
-15.60792 4.3071666 0.75161904 256 0 0 0 3.9054401
-8.0200548 4.4937601 0.55587924 562 0 0 0 7.79351
-7.5715599 4.4849677 0.53385544 747 0 0 0 8.1871901
-19.628824 4.9115133 0.68392849 144 0 0 0 3.5190799
-11.155454 4.9107299 0.72441989 405 0 0 0 6.2318702
-10.190002 4.7801352 0.81056178 445.5 0 0 0 6.6255002
-9.3536625 4.6650777 0.75528938 530 0 0 0 7.0177398
-8.6539078 4.5787106 0.70992041 577 0 0 0 7.4021702
-8.4123392 4.7140355 0.81868392 469 0 0 0 7.79351
-7.6904931 4.5541925 0.76141286 129 0 0 0 8.1871901
-7.3038278 4.5682368 0.52360785 627 0 0 0 8.5806198
-23.109524 5.1902356 0.79366803 135 0 0 0 3.12199
-16.181982 5.3283339 0.79005754 307.5 0 0 0 4.67486
-15.35923 5.4744778 0.75798643 222.5 0 0 0 5.072
-13.672888 5.2486038 0.68491542 279.5 0 0 0 5.4589
-12.300155 5.0647874 0.787117 335 0 0 0 5.8470502
-19.595203 5.9330297 0.69277769 54 0 0 0 4.2893
-9.9390984 6.9387355 0.72356045 305 0 0 0 9.3591299
-9.9026585 7.2795596 0.73352742 316 0 0 0 9.7437296
16.712248 7.4426632 0.65242106 167 0 0 0 42.923634
19.130714 7.4101887 0.72656101 70 0 0 0 43.705078
20.103176 7.2218289 0.75472713 98 0 0 0 44.089741
24.629572 7.4966664 0.900962 238 0 0 0 44.872101
-9.8315716 7.7997169 0.74887609 356.5 0 0 0 10.332265
-7.3013096 7.9550738 0.65116036 866 0 0 0 12.85915
-6.651135 7.9926915 0.62891972 338 0 0 0 13.64424
-6.2937756 7.9469452 0.61430538 421 0 0 0 14.03566
14.841209 7.9739747 0.60406053 133 0 0 0 41.747849
15.573698 7.8780475 0.62430525 112 0 0 0 42.141151
16.286642 7.7397313 0.64366645 109 0 0 0 42.537434
18.065592 7.5156126 0.69489706 60 0 0 0 43.31728
-9.6571894 8.2540827 0.75815016 619 0 0 0 10.91425
-9.1350422 8.1987123 0.73409683 648 0 0 0 11.30568
-8.6468525 8.1469889 0.71195608 785 0 0 0 11.69413
-8.2022829 8.11026 0.83576012 616 0 0 0 12.07777
-7.7251062 8.0185194 0.67005676 731 0 0 0 12.47648
-7.2893972 8.1386909 0.79370999 385.5 0 0 0 13.05271
12.983029 8.2700262 0.5552333 268 0 0 0 40.583061
13.479818 8.1255093 0.56688637 109 0 0 0 40.964249
14.137239 8.0522003 0.5847047 153 0 0 0 41.362
24.220558 8.0284576 0.89346826 249 0 0 0 44.488899
12.470227 8.8366098 0.55137432 266 0 0 0 39.793758
12.725156 8.5539713 0.55312395 252 0 0 0 40.190006
11.970547 9.4019318 0.54905671 286 0 0 0 39.020912
12.216393 9.1172876 0.54991847 272 0 0 0 39.403793
13.390869 9.4849243 0.9918071 233 0 0 0 39.793758
11.441931 9.9364147 0.546543 325 0 0 0 38.231701
11.69341 9.6597404 0.54711944 277 0 0 0 38.62764
13.100835 9.7731638 0.98789835 267 0 0 0 39.403793
10.941422 10.490788 0.54637027 360 0 0 0 37.456768
11.183238 10.20592 0.54592681 380 0 0 0 37.84679
12.697027 10.223291 0.98522758 247 0 0 0 38.824276
8.5053177 10.999795 0.84468299 275 0 0 0 35.102951
10.693109 10.770656 0.54683965 316 0 0 0 37.067219
12.150942 10.812486 0.98279572 262 0 0 0 38.039246
5.348886 11.481612 0.77091938 640 0 0 0 31.59519
5.9961529 11.369456 0.78227001 210 0 0 0 32.37381
6.2632613 11.198659 0.78123182 214 0 0 0 32.76746
6.6437364 11.218551 0.79344058 278 0 0 0 33.147362
7.1903257 11.173347 0.80823863 204.5 0 0 0 33.736519
7.7339201 11.094281 0.82222831 193 0 0 0 34.320606
8.1093845 11.041139 0.83259112 214 0 0 0 34.709278
8.5254393 11.025316 0.50459582 323 0 0 0 35.102951
10.309178 11.181604 0.54766238 322.5 0 0 0 36.472862
11.743346 11.254214 0.98245502 271 0 0 0 37.456768
5.8726807 11.828136 0.80230194 161 0 0 0 31.982059
9.788271 11.726283 0.5494737 239.5 0 0 0 35.696579
10.264027 11.989441 0.95368785 312 0 0 0 35.891079
10.735782 11.931045 0.96937031 293 0 0 0 36.276848
11.324274 11.685394 0.98261487 252 0 0 0 36.868046
5.2526774 12.03399 0.79738432 246 0 0 0 31.2045
9.8143911 12.05439 0.93967748 309 0 0 0 35.502079
3.3152342 12.891885 0.80592895 396.5 0 0 0 28.664188
3.8022585 12.807824 0.80913758 506 0 0 0 29.24008
4.4867969 12.76988 0.81980783 144 0 0 0 30.02747
4.8055444 12.670617 0.82103825 580 0 0 0 30.42382
-1.0822144 13.495044 0.81497926 535 0 0 0 23.389521
1.8798121 13.242768 0.80822897 365 0 0 0 26.90847
2.1721437 13.004567 0.79755461 544 0 0 0 27.30164
2.5125158 13.053858 0.80410057 510 0 0 0 27.689939
4.2548666 13.129099 0.66447365 192.5 0 0 0 29.63765
5.3162279 13.031239 0.6788727 230.5 0 0 0 30.81567
-3.7399869 13.855478 0.50934029 235.5 0 0 0 20.470501
-2.8326578 13.802011 0.50116456 359 0 0 0 21.446791
-1.4244479 13.579998 0.8213554 379 0 0 0 23.00445
-0.76307434 13.773505 0.82996428 356 0 0 0 23.78027
-6.5002322 14.466854 0.55739754 354 0 0 0 17.93928
-6.1912332 14.396989 0.80666429 295 0 0 0 18.19636
-5.611455 14.319434 0.7297129 334.5 0 0 0 18.71442
-5.1887593 14.256114 0.72050881 384 0 0 0 19.106489
-4.7761226 14.191713 0.71193701 417.5 0 0 0 19.503941
-4.4076805 14.241018 0.70933849 272.5 0 0 0 19.89115
-7.9270582 14.667017 0.78635275 341.5 0 0 0 16.769461
-7.4333105 14.593534 0.77357197 309.5 0 0 0 17.151461
-6.9549971 14.519743 0.76131356 323.5 0 0 0 17.538019
-4.2072535 14.886934 0.92352891 380 0 0 0 20.276859
-3.7086844 15.254009 0.93704963 319.5 0 0 0 20.862505
-3.1914303 15.60822 0.95068949 318 0 0 0 21.446791
-2.8394103 15.865394 0.96167076 308 0 0 0 21.83321
-2.2509007 15.933056 0.96069902 314.5 0 0 0 22.414761
-0.50357914 17.069267 0.60103095 498 0 0 0 24.17557
-0.084218502 17.360062 0.61063659 382 0 0 0 24.57102
-11.069066 18.327559 0.7375145 299 0 0 0 15.98749
-10.630563 18.617191 0.73875147 252 0 0 0 16.37673
4.1407323 18.802225 0.67578965 571 0 0 0 28.074551
-14.252527 19.107582 0.81523991 223 0 0 0 14.43264
0.39272025 19.386909 0.67777252 419 0 0 0 24.953039
0.86554444 19.308294 0.676 67 0 0 0 25.34972
1.3361273 19.236151 0.67482644 348 0 0 0 25.736269
1.808374 19.199331 0.67520237 157 0 0 0 26.126989
2.2740326 19.10531 0.67406487 543 0 0 0 26.52212
-3.0299611 19.858828 0.69859701 342 0 0 0 22.218309
-2.5240881 19.783003 0.69412065 334 0 0 0 22.61121
-4.6253209 20.22212 0.71928936 211 0 0 0 21.060869
-13.606165 21.358335 0.86497104 154 0 0 0 15.60309
-14.788292 22.012426 0.90356606 31 0 0 0 15.21366
-6.5787835 -44.278931 1.4524777 12 0 0 0 76.922737
3.1951852 -43.501545 1.42204 15 0 0 0 73.401375
-9.5829601 -42.630531 1.417526 23 0 0 0 78.094994
-10.324554 -41.177902 1.3780237 34 0 0 0 78.488922
11.016311 -39.868313 1.3578147 23 0 0 0 70.267838
7.2643223 -32.43594 1.0971285 45 0 0 0 71.058739
-30.65188 -18.370775 1.1675339 35 0 0 0 91.009888
-30.480968 -17.266121 1.1456093 26 0 0 0 91.398735
-31.445267 -14.871837 1.1389616 30 0 0 0 92.56131
16.060745 -9.6470509 1.1141279 191 0 0 0 58.144089
-2.1227903 -9.0174341 1.3907784 449 0 0 0 78.226311
9.0054054 -9.0397243 1.2405983 621 0 0 0 62.056179
-7.2787929 -8.8551617 1.2407976 387 0 0 0 85.526566
-2.5077415 -8.9924135 1.477694 193 0 0 0 78.882088
-2.3626578 -8.8866711 1.1163927 499.25 0 0 0 78.685501
9.3694077 -8.9531002 1.2599022 164 0 0 0 61.664047
13.410129 -8.5119791 1.3464737 10 0 0 0 58.541119
13.840179 -7.4143062 1.3330173 18 0 0 0 57.366501
35.012272 -6.0734305 1.2185031 34 0 0 0 52.287071
29.613453 -5.891058 1.0408484 77 0 0 0 52.676579
-8.0128822 -4.5383692 1.2303215 594 0 0 0 91.398735
-7.6563416 -4.5875268 1.1933931 856 0 0 0 91.009888
-7.2495847 -4.5885305 1.1483577 537 0 0 0 90.624443
-6.8271704 -4.5587506 1.2014015 444 0 0 0 90.226799
19.867508 -4.9823103 1.2207351 219 0 0 0 53.463528
-8.7841606 -4.2839775 1.064224 825 0 0 0 92.361511
-8.3536663 -4.2904725 1.253992 612 0 0 0 92.034912
-7.9270759 -4.2365499 1.4236494 463 0 0 0 91.781319
-6.8266878 -4.3203974 1.4820877 33 0 0 0 90.624443
-6.3750901 -4.4859667 1.1423054 738 0 0 0 89.833649
-5.895071 -4.3672028 1.3486031 129 0 0 0 89.442703
-5.1181316 -4.1685958 1.1959496 776.375 0 0 0 88.704086
4.9486971 -4.0925727 1.0420898 693 0 0 0 60.495861
9.430769 -4.4764223 1.2841533 718.5 0 0 0 56.584446
9.5359974 -4.2417583 1.283937 591.5 0 0 0 56.191021
14.496297 -4.4044914 1.2912604 364 0 0 0 54.237461
-19.400902 -3.8585422 1.1495831 337 0 0 0 96.467674
-17.409435 -3.910418 1.2620542 136.5 0 0 0 96.073769
-0.30718106 -3.818871 1.332556 138.75 0 0 0 75.751564
0.0673455 -3.8557386 1.2007846 70 0 0 0 74.181709
4.9959798 -3.9289324 1.111249 1545 0 0 0 60.09584
5.1234694 -3.8775172 1.2419643 1017.5 0 0 0 59.807064
31.003599 3.8391621 1.0824802 14 0 0 0 47.610741
-15.644255 4.3133526 1.3512955 205 0 0 0 3.9054401
-19.660244 4.918601 1.1779631 151 0 0 0 3.5190799
-11.154877 4.9074221 1.1711389 388 0 0 0 6.2318702
-10.186809 4.7768588 1.2193149 463 0 0 0 6.6255002
-9.5682526 4.7703104 1.2912018 379.5 0 0 0 7.0177398
-9.0874634 4.8091507 1.1174377 244 0 0 0 7.4021702
-8.282217 4.6398482 1.0343164 269 0 0 0 7.79351
30.565535 4.5505252 1.0715876 157 0 0 0 47.218681
-23.094664 5.1859379 1.3694857 108 0 0 0 3.12199
-16.19206 5.3275228 1.4189816 280 0 0 0 4.67486
-15.321531 5.4569688 1.3558227 218 0 0 0 5.072
-13.65802 5.2392459 1.2229919 242 0 0 0 5.4589
-12.279211 5.0527945 1.2731071 317 0 0 0 5.8470502
-19.710972 5.9674263 1.1977448 54 0 0 0 4.2893
-10.846522 6.8118663 1.0780165 178 0 0 0 8.5806198
29.234112 6.5855312 1.0413085 52 0 0 0 46.044319
-10.78438 7.1457639 1.0889707 261 0 0 0 8.9636602
16.693573 7.4343252 1.100323 154 0 0 0 42.923634
-10.723924 7.6869206 1.1107364 270.5 0 0 0 9.5514297
31.623766 7.9437823 1.1297083 109 0 0 0 45.65559
38.597427 7.6974769 1.3544627 13 0 0 0 46.437969
-10.872416 8.4136133 1.3224106 515 0 0 0 10.13443
-10.267796 8.3509741 1.2744352 573 0 0 0 10.5301
-9.6819954 8.27174 1.227897 569.5 0 0 0 10.91425
-9.3019962 8.3464441 1.2088023 427.5 0 0 0 11.30568
-8.6338787 8.1312408 1.003745 704 0 0 0 11.69413
-8.3159504 8.2218151 1.2723825 279 0 0 0 12.07777
15.733651 8.9564209 1.0904063 93 0 0 0 41.362
16.478128 8.8487949 1.1251699 114 0 0 0 41.747849
17.01697 8.6044149 1.1463323 114 0 0 0 42.141151
18.189846 8.6397448 1.2082381 48 0 0 0 42.537434
31.13579 8.6403942 1.1201406 108 0 0 0 45.258591
13.741905 9.2332554 1.0003905 115 0 0 0 40.190006
14.367818 9.1468067 1.0280998 139 0 0 0 40.583061
15.018959 9.0478973 1.0572491 124 0 0 0 40.964249
23.435879 9.0707178 1.4972517 289 0 0 0 43.705078
23.042665 9.5769835 1.4871012 240 0 0 0 43.31728
13.985459 10.432987 1.4873675 203 0 0 0 39.403793
8.494503 10.990145 1.1905333 261 0 0 0 35.102951
13.716275 10.768055 1.4863498 216 0 0 0 39.020912
5.9635515 11.313864 1.2532809 301.5 0 0 0 32.37381
6.2924032 11.255222 1.2635481 263.5 0 0 0 32.76746
6.8163676 11.195585 1.2842026 267.75 0 0 0 33.341896
7.3566561 11.134157 1.3072879 209.5 0 0 0 33.936607
7.7079077 11.061892 1.3201852 257.5 0 0 0 34.320606
8.0996437 11.032301 1.1734064 193 0 0 0 34.709278
13.280581 11.24332 1.4830729 203 0 0 0 38.429672
5.880105 11.848715 1.2943232 176.5 0 0 0 31.982059
10.260123 11.989386 1.3473506 291 0 0 0 35.891079
10.73287 11.93224 1.3698483 282 0 0 0 36.276848
11.19794 11.847465 1.3910255 304 0 0 0 36.668873
11.718815 11.800523 1.4184678 265 0 0 0 37.067219
12.225262 11.717165 1.4437644 247 0 0 0 37.456768
12.81138 11.685563 1.4776365 161 0 0 0 37.84679
9.8126793 12.056853 1.3276542 335 0 0 0 35.502079
2.1681805 12.998152 1.4452919 575 0 0 0 27.30164
5.3895807 12.774474 1.1852752 345 0 0 0 31.010086
5.8427219 12.531209 1.1825306 347 0 0 0 31.59519
-1.0848966 13.493486 1.3155298 509.5 0 0 0 23.389521
1.8749979 13.228895 1.3020976 353.5 0 0 0 26.90847
2.1699834 13.00707 1.1259495 524 0 0 0 27.30164
2.5163226 13.086813 1.2995942 428 0 0 0 27.689939
-1.4251399 13.558245 1.3241758 377.5 0 0 0 23.00445
-0.76825666 13.824258 1.1770698 287 0 0 0 23.78027
-6.2517247 14.365821 1.3221254 303 0 0 0 18.13209
-5.6103835 14.307607 1.2979904 349 0 0 0 18.71442
-5.1885867 14.246123 1.2813386 318 0 0 0 19.106489
-4.7756596 14.180264 1.2653289 389 0 0 0 19.503941
-4.4124336 14.245924 1.2616005 258 0 0 0 19.89115
-8.4169521 14.69665 1.4245782 82 0 0 0 16.37673
-7.9140878 14.635127 1.40047 284 0 0 0 16.769461
-7.4318819 14.582886 1.3786455 321 0 0 0 17.151461
-6.954031 14.509652 1.3562316 307 0 0 0 17.538019
-4.2113376 14.890236 1.3079914 328 0 0 0 20.276859
4.4546533 14.966496 1.327958 301 0 0 0 29.24008
4.837718 14.901662 1.3326185 295 0 0 0 29.63765
5.2303944 14.855181 1.339751 309 0 0 0 30.02747
5.6226687 14.795587 1.3466413 293 0 0 0 30.42382
-3.7115932 15.25268 1.3269165 316.5 0 0 0 20.862505
0.67348868 15.497181 1.3156362 318 0 0 0 25.34972
1.2396016 15.412706 1.3122318 311 0 0 0 25.931629
1.8034942 15.32873 1.3103893 324 0 0 0 26.52212
3.3091657 15.119976 1.3154778 312 0 0 0 28.074551
3.6908419 15.077502 1.3195493 351 0 0 0 28.474449
4.0737839 15.030199 1.3240398 361 0 0 0 28.85393
-3.19925 15.631526 1.3484677 278 0 0 0 21.446791
-2.8447616 15.877749 1.3632206 284 0 0 0 21.83321
-2.2529764 15.925396 1.3600376 310 0 0 0 22.414761
-0.2802597 15.595485 1.3218985 325 0 0 0 24.373295
0.29292074 15.520254 1.3161889 331 0 0 0 24.953039
-0.50340611 17.047476 1.0173327 53 0 0 0 24.17557
-0.084580481 17.344938 1.0343202 37 0 0 0 24.57102
2.0279026 17.118534 1.0298879 80 0 0 0 26.52212
-11.057559 18.307169 1.2586353 268 0 0 0 15.98749
-10.411078 18.228071 1.2364035 253 0 0 0 16.37673
4.1442552 18.81953 1.1481756 106 0 0 0 28.074551
-14.254842 19.109512 1.3970616 252 0 0 0 14.43264
0.39191833 19.370552 1.1511614 54 0 0 0 24.953039
0.86513907 19.307978 1.1488168 62 0 0 0 25.34972
1.3340245 19.212984 1.145275 85 0 0 0 25.736269
1.8079649 19.199064 1.1470673 96 0 0 0 26.126989
-13.174115 20.673887 1.4369348 26 0 0 0 15.60309
10.680564 -53.744476 1.7828592 10 0 0 0 71.443886
6.5484123 -53.174225 1.7402947 22 0 0 0 72.622879
9.2541313 -53.390671 1.7621578 18 0 0 0 71.834236
5.1957603 -52.855305 1.7243621 21 0 0 0 73.004547
16.044107 -52.926838 1.8040111 15 0 0 0 69.88237
-2.5664196 -52.056286 1.6875012 11 0 0 0 75.361351
17.281694 -52.347343 1.7996 9 0 0 0 69.490623
-5.0899301 -51.591633 1.6773642 17 0 0 0 76.137726
-3.8311594 -51.817894 1.6817261 8 0 0 0 75.751564
21.2145 -51.246281 1.8145808 13 0 0 0 68.315033
-10.128233 -50.881428 1.6765277 15 0 0 0 77.706497
22.457071 -50.690994 1.815394 16 0 0 0 67.930466
25.442301 -50.570442 1.8559563 21 0 0 0 67.144577
-16.567545 -50.135323 1.7043165 11 0 0 0 79.663315
23.738655 -50.218502 1.8202519 27 0 0 0 67.542175
26.854277 -50.264744 1.8697616 7 0 0 0 66.748711
28.467634 -50.274704 1.8967496 14 0 0 0 66.35881
-20.534967 -49.567352 1.7309936 8 0 0 0 80.838234
-19.261215 -49.922497 1.7264746 12 0 0 0 80.443077
-17.862661 -49.909962 1.7107726 8 0 0 0 80.05011
29.947828 -49.985909 1.9144642 21 0 0 0 65.974609
-24.779694 -49.224682 1.7766329 12 0 0 0 82.01371
-23.360529 -49.386562 1.7618521 13 0 0 0 81.611282
32.920506 -49.287548 1.9503819 15 0 0 0 65.184761
-27.65505 -48.81562 1.807575 9 0 0 0 82.786819
-26.099367 -48.825127 1.7843651 14 0 0 0 82.39743
-30.425283 -48.04567 1.8314145 13 0 0 0 83.574242
-28.948425 -48.295727 1.8137918 12 0 0 0 83.178596
-31.97872 -47.859135 1.8531363 9 0 0 0 83.960037
-33.431786 -47.469627 1.8689034 9 0 0 0 84.343361
-36.318134 -46.538418 1.8996609 9 0 0 0 85.135612
-37.801048 -46.062138 1.917276 12 0 0 0 85.526566
6.8737473 -46.426266 1.5302047 10 0 0 0 72.229111
-33.308739 -44.911106 1.8011891 14 0 0 0 84.735359
31.226101 -44.35865 1.7901216 17 0 0 0 64.801643
-41.601631 -43.697643 1.9414307 11 0 0 0 86.706177
-43.423119 -43.42561 1.9757402 12 0 0 0 87.100975
16.687883 -43.303299 1.5233135 31 0 0 0 68.704636
-45.829411 -41.540062 1.9903781 6 0 0 0 87.868805
32.226101 -35.575745 1.5967799 25 0 0 0 62.842632
28.855543 -35.183876 1.5124676 19 0 0 0 63.627018
7.1553693 -31.956074 1.8830618 18 0 0 0 71.058739
7.9490542 -31.818378 1.8865631 23 0 0 0 70.66555
-2.9568996 -29.84375 1.7198281 27 0 0 0 76.137726
13.167464 -29.759298 1.8781601 15 0 0 0 67.930466
-2.1638021 -29.087084 1.6740785 20 0 0 0 75.751564
-3.5193973 -28.391438 1.6419618 65 0 0 0 76.539871
10.909381 -28.343914 1.7536856 6 0 0 0 68.704636
-10.483194 -27.142229 1.6673365 42 0 0 0 80.443077
-9.0622244 -27.388582 1.6536208 61 0 0 0 79.663315
-4.0234475 -27.004368 1.5683393 66 0 0 0 76.922737
8.9925795 -27.293381 1.6598382 9 0 0 0 69.490623
-11.185869 -26.974215 1.6732043 11 0 0 0 80.838234
-9.4772377 -26.44776 1.6112328 77 0 0 0 80.05011
-6.4275064 -25.594538 1.5161506 98 0 0 0 78.488922
-5.7949824 -25.731255 1.5155869 119 0 0 0 78.094994
-5.1592097 -25.850365 1.5149418 180 0 0 0 77.706497
-4.5169883 -25.930145 1.5129721 96 0 0 0 77.308365
-44.903194 -22.603203 1.6294472 11 0 0 0 92.161713
-9.709094 -13.771235 1.8077873 74 0 0 0 84.343361
-8.0939713 -12.099953 1.9240364 38 0 0 0 83.960037
-53.173958 -11.94027 1.7706273 20 0 0 0 96.073769
-2.0239608 -11.552672 1.5585841 7 0 0 0 77.308365
-2.1378706 -11.380442 1.8254015 21.5 0 0 0 77.507431
-11.480703 -10.92407 1.7024896 26 0 0 0 87.484497
-3.1206436 -10.22823 1.8193262 44.5 0 0 0 79.271042
-6.8685923 -9.7377119 1.8753932 25 0 0 0 84.343361
-3.5784979 -9.953433 1.9306122 15 0 0 0 80.05011
16.037722 -9.6301661 1.5791326 195 0 0 0 58.144089
-7.6936045 -9.3640184 1.9066892 41 0 0 0 85.526566
-7.2050333 -9.2201891 1.6978288 462.5 0 0 0 85.135612
-2.2163191 -9.2433357 1.8559133 563.75 0 0 0 78.291962
-1.7936901 -9.3119202 1.8907901 331 0 0 0 77.573784
9.0373449 -9.0694456 1.7158489 551 0 0 0 62.056179
-7.2969141 -8.8802652 1.5261207 78 0 0 0 85.526566
-2.7456784 -8.9886169 1.9502389 32 0 0 0 79.271042
9.3867559 -8.9674358 1.7398188 125 0 0 0 61.664047
13.71294 -8.7041788 1.7713342 43 0 0 0 58.541119
11.716775 -8.2733822 1.9216104 48 0 0 0 59.320759
11.44075 -7.6650977 1.8471737 140 0 0 0 58.927567
13.145595 -7.8989115 1.6754001 87 0 0 0 58.144089
13.808356 -7.8406148 1.7337711 81 0 0 0 57.751671
11.210974 -7.1189718 1.7833579 154 0 0 0 58.541119
13.899652 -7.4466171 1.7225405 110 0 0 0 57.366501
-33.941093 -5.8886495 1.9763181 28 0 0 0 96.864174
32.92329 -5.7122045 1.9674447 28 0 0 0 52.287071
19.835659 -4.9711905 1.7291033 189 0 0 0 53.463528
25.08103 -4.9911699 1.5149136 90 0 0 0 52.676579
-9.1757164 -4.068408 1.710326 813 0 0 0 92.948509
-8.7727051 -4.1497669 1.6547556 705 0 0 0 92.56131
-8.3690548 -4.2126417 1.8292316 754.5 0 0 0 92.161713
-7.7575922 -4.266633 1.730114 774.25 0 0 0 91.590027
-7.1639404 -4.2925696 1.735865 706.66669 0 0 0 91.009888
-6.8129911 -4.312501 1.7754598 109 0 0 0 90.624443
-5.1356072 -4.184782 1.7287024 637.125 0 0 0 88.704086
9.4374065 -4.337944 1.7932216 655 0 0 0 56.387733
14.39173 -4.3732238 1.6487272 389 0 0 0 54.237461
-19.048546 -3.7919056 1.6125677 150 0 0 0 96.467674
-17.578426 -3.9499879 1.9353881 145 0 0 0 96.073769
-15.685335 -3.9311621 1.7403257 91 0 0 0 95.692001
-9.5775032 -3.9686928 1.7657878 464.5 0 0 0 93.338974
5.0899787 -3.9152832 1.7236683 1150.1428 0 0 0 59.930828
30.971069 3.8347189 1.846689 35 0 0 0 47.610741
47.342152 3.5067635 1.6224586 13 0 0 0 48.38998
-20.002426 4.4844108 1.6977003 149 0 0 0 3.12199
-17.000324 4.2454982 1.8786993 109 0 0 0 3.5190799
-15.634421 4.3099823 1.741362 151 0 0 0 3.9054401
-19.658897 4.913815 1.6791989 90 0 0 0 3.5190799
-11.141484 4.8984342 1.6126468 366 0 0 0 6.2318702
30.530519 4.5449305 1.8273727 149 0 0 0 47.218681
-17.365971 5.2496634 1.7269444 60.5 0 0 0 4.2893
-16.187246 5.3252497 1.8295193 255 0 0 0 4.67486
-15.315599 5.4541936 1.7472682 200 0 0 0 5.072
-13.616835 5.2211013 1.7483828 249.5 0 0 0 5.4589
-12.253462 5.0388288 1.7528168 337 0 0 0 5.8470502
-10.791782 5.0605831 1.5803298 456 0 0 0 6.6255002
29.228823 6.584033 1.7759217 55 0 0 0 46.044319
-12.190437 7.2537403 1.5320172 159 0 0 0 8.1871901
24.602118 7.4881353 1.5308548 264 0 0 0 44.872101
-12.460376 7.8342929 1.5890495 257 0 0 0 8.5806198
-12.417048 8.2371559 1.6088834 223 0 0 0 8.9636602
-10.91851 8.4456816 1.8310179 424 0 0 0 10.13443
-10.435648 8.4849424 1.7852789 176 0 0 0 10.5301
-9.8111544 8.3794336 1.7142445 198 0 0 0 10.91425
24.208719 8.0243692 1.5186962 252 0 0 0 44.488899
-12.31052 8.604866 1.8054752 389.5 0 0 0 9.3591299
-11.56954 8.5113087 1.7280939 521 0 0 0 9.7437296
16.901175 8.5498199 1.6117977 73 0 0 0 42.141151
23.805845 8.5465317 1.5066272 249 0 0 0 44.089741
31.121307 8.6361055 1.911636 119 0 0 0 45.258591
-10.597655 9.5174112 1.8902357 424 0 0 0 11.30568
-10.310719 9.7263699 1.7085216 396.5 0 0 0 11.69413
16.536499 9.9612837 1.6417229 106 0 0 0 40.964249
17.123098 9.7473803 1.6748328 90 0 0 0 41.362
-10.297627 10.20073 1.9240755 133 0 0 0 12.07777
14.452638 10.236411 1.5092529 98 0 0 0 39.793758
15.171233 10.192016 1.556302 91 0 0 0 40.190006
15.833806 10.078892 1.597241 84 0 0 0 40.583061
18.77412 10.080072 1.8079016 70 0 0 0 41.747849
8.4801044 10.97404 1.6974064 223 0 0 0 35.102951
5.9695182 11.330389 1.726225 413 0 0 0 32.37381
6.2909732 11.257844 1.7383919 367 0 0 0 32.76746
6.6308198 11.206935 1.7552518 89 0 0 0 33.147362
7.1878033 11.179699 1.791363 435 0 0 0 33.736519
7.7009954 11.056603 1.8158649 222 0 0 0 34.320606
8.1083107 11.046396 1.6770167 245.5 0 0 0 34.709278
5.9184318 11.930719 1.7930555 180 0 0 0 31.982059
10.26047 11.990025 1.7316928 334 0 0 0 35.891079
10.730819 11.930193 1.7603691 346 0 0 0 36.276848
11.202298 11.852243 1.7887248 275 0 0 0 36.668873
11.705885 11.787779 1.8215492 259 0 0 0 37.067219
12.222325 11.71454 1.8557553 269 0 0 0 37.456768
12.778225 11.655664 1.8951759 211 0 0 0 37.84679
9.8114586 12.05562 1.7059946 347 0 0 0 35.502079
2.1642609 12.990487 1.7682906 532 0 0 0 27.30164
5.4144287 12.6935 1.7430922 371.33334 0 0 0 31.07489
5.8314142 12.510908 1.6863477 382 0 0 0 31.59519
-1.0877367 13.494123 1.8120944 405 0 0 0 23.389521
1.8679327 13.199779 1.7890779 351 0 0 0 26.90847
2.5116439 13.077147 1.7879939 434 0 0 0 27.689939
5.3034682 13.008427 1.541801 276 0 0 0 30.81567
-1.4257457 13.535742 1.8211769 401 0 0 0 23.00445
-0.77068889 13.840403 1.6848769 282 0 0 0 23.78027
-7.82651 14.470218 1.7832524 198 0 0 0 16.769461
-7.3142285 14.348022 1.7468286 411 0 0 0 17.151461
-6.8428516 14.273436 1.7178994 488 0 0 0 17.538019
-6.1976976 14.242288 1.6870654 295 0 0 0 18.13209
-5.6082597 14.301043 1.6693423 350 0 0 0 18.71442
-5.1847601 14.234329 1.6471394 393 0 0 0 19.106489
-4.7758026 14.174834 1.8104742 341 0 0 0 19.503941
-4.4251933 14.286822 1.6273735 288 0 0 0 19.89115
-8.4328108 14.723728 1.8377559 103 0 0 0 16.37673
-4.2129507 14.894737 1.683395 329 0 0 0 20.276859
3.6650608 14.975796 1.6855811 722 0 0 0 28.474449
4.2318244 14.887449 1.6927001 596 0 0 0 29.047005
4.8037982 14.799893 1.7020539 587 0 0 0 29.63765
5.1909089 14.745664 1.7102431 589 0 0 0 30.02747
5.6208878 14.791723 1.7310758 326 0 0 0 30.42382
-3.7133636 15.258667 1.7080228 321.5 0 0 0 20.862505
0.29181114 15.488026 1.689517 310 0 0 0 24.953039
0.67051566 15.443153 1.6864154 362 0 0 0 25.34972
1.233412 15.345058 1.6804464 359.5 0 0 0 25.931629
1.7954878 15.26633 1.6785094 403 0 0 0 26.52212
3.286782 15.021655 1.6808085 694 0 0 0 28.074551
-14.896459 15.553457 1.7972263 142 0 0 0 12.47648
-3.1991396 15.629187 1.7349855 280 0 0 0 21.446791
-2.8471868 15.889705 1.7555952 274 0 0 0 21.83321
-2.2535677 15.926168 1.7501869 297 0 0 0 22.414761
-0.28053635 15.580976 1.6988854 312 0 0 0 24.373295
-14.143003 16.292683 1.8014493 162 0 0 0 13.24627
-13.710261 16.597485 1.7981002 86 0 0 0 13.64424
-13.306586 16.936485 1.7994832 120 0 0 0 14.03566
-12.890302 17.26008 1.8002787 124 0 0 0 14.43264
-12.262491 17.743067 1.803256 158.5 0 0 0 15.019435
-11.62952 18.223562 1.8079332 164 0 0 0 15.60309
-11.053663 18.292242 1.788251 267 0 0 0 15.98749
-15.370823 21.71039 1.5551769 75 0 0 0 14.82521
-14.85154 22.105814 1.5574212 190 0 0 0 15.21366
36.367958 -49.052208 2.0122035 15 0 0 0 64.407402
38.166809 -48.920555 2.0461028 10 0 0 0 64.013298
-47.055882 -40.593479 2.0000033 17 0 0 0 88.26265
-53.244129 -35.579521 2.0624471 11 0 0 0 90.226799
-10.479776 -27.146236 2.3915105 6 0 0 0 80.443077
6.0996218 -27.244867 2.3060944 10 0 0 0 71.058739
8.7434053 -26.527363 2.3098836 11 0 0 0 69.490623
9.5987244 -26.882765 2.3606005 14 0 0 0 69.103249
-9.3842535 -26.200729 2.2888994 14 0 0 0 80.05011
-5.4434528 -24.180943 2.0431526 20 0 0 0 78.094994
-4.8293719 -24.208807 2.035265 34 0 0 0 77.706497
-4.2211151 -24.243725 2.0292516 29 0 0 0 77.308365
-3.5996022 -24.165771 2.0152776 16 0 0 0 76.922737
-3.0062034 -24.249084 2.0157812 67 0 0 0 76.539871
-7.1732678 -23.607246 2.0334733 19 0 0 0 79.271042
-7.7313485 -23.367922 2.0285473 81 0 0 0 79.663315
-37.018982 -17.508514 2.3365219 10 0 0 0 92.56131
-35.618958 -17.92872 2.2756813 17 0 0 0 92.161713
23.851213 -13.523754 2.2961819 13 0 0 0 57.751671
-9.1800385 -13.023932 2.1027226 21 0 0 0 84.343361
-8.4851332 -13.385658 2.2874055 61.5 0 0 0 83.574242
-13.459845 -12.814019 2.4470375 35 0 0 0 87.484497
-10.76893 -12.478499 2.1739457 35 0 0 0 85.919769
-3.6985922 -11.14411 2.4280593 23 0 0 0 79.663315
-3.1624284 -11.36265 2.2943168 42 0 0 0 78.882088
33.283916 -11.001445 2.0575643 13 0 0 0 54.634129
-11.721631 -10.62171 2.2826314 18 0 0 0 87.868805
-10.641596 -10.637303 2.3593595 61 0 0 0 87.100975
-7.1968179 -10.755336 2.0338497 36 0 0 0 83.960037
-4.1859107 -10.810248 2.112602 23 0 0 0 80.443077
-11.012798 -10.481672 2.3837104 133 0 0 0 87.484497
-9.2659502 -10.216317 2.1653833 89 0 0 0 86.309326
-7.4500136 -10.032057 2.2736657 25 0 0 0 84.735359
-3.0848598 -10.114834 2.4485202 28 0 0 0 79.271042
-1.535442 -10.21781 2.3944728 31 0 0 0 76.922737
-1.1561323 -10.233076 2.2613678 206.5 0 0 0 76.338799
19.940893 -10.050546 2.4225116 9 0 0 0 56.967472
-6.8361363 -9.6913681 2.1596432 60 0 0 0 84.343361
-3.6436102 -9.8848658 2.3532884 37.666668 0 0 0 80.181099
-2.6852334 -9.6399088 2.3189561 36 0 0 0 78.882088
-0.72297317 -9.5029163 2.4457021 164 0 0 0 75.751564
-12.621876 -9.3612566 2.2697773 221 0 0 0 89.442703
-8.8106146 -9.247179 2.0077379 23 0 0 0 86.706177
-6.8681564 -9.2464304 2.3811538 48 0 0 0 84.735359
-2.8077466 -9.1983261 2.4654362 132 0 0 0 79.271042
-2.2139142 -9.4155684 2.3224897 182.33333 0 0 0 78.226311
-1.72308 -9.365777 2.28757 287 0 0 0 77.441078
-1.176365 -9.367445 2.3076992 49 0 0 0 76.539871
9.0073586 -9.0404749 2.1849871 514 0 0 0 62.056179
-8.5390625 -8.7468147 2.2250986 104.5 0 0 0 86.90358
-8.2948303 -8.7046146 2.4843204 59 0 0 0 86.706177
-7.1761785 -8.7326803 2.0596995 32 0 0 0 85.526566
-2.9454331 -8.8645306 2.1665049 40 0 0 0 79.663315
-1.622342 -8.6009903 2.4648116 61 0 0 0 77.507431
9.3696194 -8.9521141 2.218812 306 0 0 0 61.664047
9.7924213 -8.9048767 2.1019526 44 0 0 0 61.266727
-13.243572 -8.388031 2.4578834 8 0 0 0 90.624443
-1.7031211 -8.4604731 2.2164934 33 0 0 0 77.706497
-1.2040573 -7.9787245 2.4731231 164 0 0 0 76.922737
12.799961 -7.6894507 2.0004547 159 0 0 0 58.144089
12.984324 -7.3717685 2.0008638 190 0 0 0 57.751671
13.970795 -7.4820304 2.1217008 39 0 0 0 57.366501
25.167225 -5.0043554 2.1600578 93 0 0 0 52.676579
19.806683 -4.964467 2.2238495 269 0 0 0 53.463528
-9.1785269 -4.0696301 2.08145 618 0 0 0 92.948509
-8.7572269 -4.1433325 2.1274481 707.5 0 0 0 92.56131
-8.3622093 -4.2109857 2.1714537 646 0 0 0 92.161713
-7.7508011 -4.2647533 2.1617267 644.25 0 0 0 91.590027
-7.1902494 -4.3094344 2.1523521 735 0 0 0 91.009888
-6.8398581 -4.3303084 2.1797478 304 0 0 0 90.624443
-5.0910373 -4.1751065 2.2147205 540.40002 0 0 0 88.655441
-4.9608603 -4.2756715 2.4915943 534 0 0 0 88.26265
5.0906205 -4.0008488 2.4919131 586 0 0 0 60.09584
9.3636398 -4.4440918 2.3014691 763 0 0 0 56.584446
9.5430431 -4.2442312 2.3196712 477 0 0 0 56.191021
14.292967 -4.3411913 2.1912637 300 0 0 0 54.237461
-15.087311 -3.7840328 2.2493815 65.5 0 0 0 95.692001
-9.5783615 -3.9690268 2.1485577 650 0 0 0 93.338974
-5.3191748 -3.9422884 2.2753298 214 0 0 0 89.442703
5.1501336 -3.9264836 2.2057111 812.40002 0 0 0 59.864819
-19.978279 4.4781613 2.1899502 167 0 0 0 3.12199
-16.929939 4.2240086 2.2969508 79 0 0 0 3.5190799
-16.185764 5.320962 2.2452254 293 0 0 0 4.67486
-15.290119 5.4414191 2.1404181 173 0 0 0 5.072
-13.611163 5.2166686 2.2832193 248 0 0 0 5.4589
-12.49653 5.1390409 2.1185675 261 0 0 0 5.8470502
24.583677 7.4870334 2.1710639 213 0 0 0 44.872101
38.513336 7.6803045 2.3143759 42 0 0 0 46.437969
24.208641 8.028861 2.1552072 232 0 0 0 44.488899
-13.154289 8.726264 2.0883138 351 0 0 0 8.9636602
-12.717381 8.8889561 2.4351149 140 0 0 0 9.3591299
-11.761895 8.6515331 2.2935231 65 0 0 0 9.7437296
23.783487 8.5430698 2.135941 179 0 0 0 44.089741
16.994066 9.1283398 2.1106367 72 0 0 0 41.747849
23.399931 9.0614233 2.121273 235 0 0 0 43.705078
36.338551 9.1246538 2.2105961 50 0 0 0 45.65559
-15.809788 9.9527302 2.4660175 54 0 0 0 8.5806198
-10.596058 9.515316 2.2400334 435 0 0 0 11.30568
-10.312578 9.7254725 2.2302983 422 0 0 0 11.69413
17.05443 9.7084818 2.1462986 63 0 0 0 41.362
23.01829 9.5714979 2.1077366 212 0 0 0 43.31728
-10.316456 10.218892 2.2846565 98 0 0 0 12.07777
22.652258 10.080074 2.0965705 175 0 0 0 42.923634
22.250029 10.564576 2.0830712 192 0 0 0 42.537434
14.597132 11.455683 2.0307813 155 0 0 0 39.020912
15.142448 11.291291 2.0666778 134 0 0 0 39.403793
16.225697 11.485428 2.1729603 67 0 0 0 39.793758
17.069225 11.460512 2.2460196 75 0 0 0 40.190006
17.708479 11.266307 2.2921307 91 0 0 0 40.583061
19.088528 11.491286 2.4306822 50 0 0 0 40.964249
10.259497 11.993361 2.1210179 306 0 0 0 35.891079
10.729379 11.933007 2.1561501 282 0 0 0 36.276848
11.203789 11.858154 2.1915419 267 0 0 0 36.668873
11.703357 11.789549 2.2311089 254 0 0 0 37.067219
12.208372 11.705512 2.2710657 241 0 0 0 37.456768
12.769839 11.652302 2.3205497 216 0 0 0 37.84679
14.281326 11.787611 2.0265007 146 0 0 0 38.62764
5.8231168 12.496973 2.1960812 426 0 0 0 31.59519
8.9506187 12.185006 2.4077308 285 0 0 0 34.709278
9.3626661 12.10776 2.4372516 311 0 0 0 35.102951
9.8070507 12.054922 2.2815361 285 0 0 0 35.502079
13.968626 12.120069 2.0237021 122 0 0 0 38.231701
2.1638989 12.990636 2.257175 478 0 0 0 27.30164
5.3743973 12.747007 2.2028055 307.5 0 0 0 31.010086
8.94207 12.819797 2.4872546 233 0 0 0 34.320606
-1.0878724 13.48813 2.4801414 413 0 0 0 23.389521
1.8618617 13.161492 2.2774358 383 0 0 0 26.90847
2.5108361 13.075043 2.2820301 390.5 0 0 0 27.689939
-1.3124164 13.511746 2.2641513 420 0 0 0 23.132807
-0.77268302 13.847461 2.1987522 223 0 0 0 23.78027
-11.715502 14.158195 2.4342198 134 0 0 0 13.64424
-6.9365401 14.464154 2.1336048 279 0 0 0 17.538019
-6.2630038 14.383827 2.2815967 283.25 0 0 0 18.13209
-5.6051416 14.283932 2.2326789 294.5 0 0 0 18.71442
-5.1836596 14.221773 2.2036076 306.5 0 0 0 19.106489
-4.7711911 14.154995 2.3597798 265 0 0 0 19.503941
-4.4462967 14.3456 2.1878181 230 0 0 0 19.89115
-12.35451 14.943303 2.0918236 94 0 0 0 13.64424
-8.4177122 14.690132 2.2486608 126 0 0 0 16.37673
-7.9048982 14.609888 2.2072887 239 0 0 0 16.769461
-7.414947 14.540972 2.1699357 292 0 0 0 17.151461
-4.2185955 14.903688 2.0644007 288 0 0 0 20.276859
4.4517407 14.96822 2.0919561 300 0 0 0 29.24008
4.839108 14.916365 2.1010361 284 0 0 0 29.63765
5.2256427 14.851692 2.109731 294 0 0 0 30.02747
5.6183834 14.79367 2.120775 296 0 0 0 30.42382
-3.6646881 15.318164 2.2296286 276.66666 0 0 0 20.928627
0.66829574 15.459283 2.0684206 377 0 0 0 25.34972
1.2354295 15.405619 2.2586656 287.25 0 0 0 25.931629
1.7923273 15.265075 2.0562453 338 0 0 0 26.52212
3.3067465 15.124167 2.0728142 311 0 0 0 28.074551
3.6855714 15.069967 2.0775824 330 0 0 0 28.474449
4.2697906 15.028538 2.2869482 169 0 0 0 29.047005
-14.730174 15.760742 2.3226187 146.5 0 0 0 12.667814
-3.2015927 15.625478 2.1260915 268 0 0 0 21.446791
-2.8493302 15.883548 2.1510904 227 0 0 0 21.83321
-2.2545562 15.910424 2.1430931 282 0 0 0 22.414761
-0.34861907 15.654243 2.2209306 198.33333 0 0 0 24.307386
0.29015711 15.54366 2.0774729 322 0 0 0 24.953039
0.67256141 15.552652 2.4657321 52 0 0 0 25.34972
-14.136421 16.284025 2.3224089 160 0 0 0 13.24627
-13.313296 16.94404 2.3218946 126 0 0 0 14.03566
-12.871344 17.233431 2.3182886 135 0 0 0 14.43264
-12.250023 17.723932 2.3230662 140 0 0 0 15.019435
-10.849 17.949389 2.263371 48 0 0 0 15.98749
-11.620416 18.208031 2.3295183 154 0 0 0 15.60309
20.695326 -38.75618 2.5261509 6 0 0 0 66.748711
28.45088 -34.693665 2.5907867 18 0 0 0 63.627018
4.7314005 -31.998777 2.6633768 16 0 0 0 72.229111
9.4597454 -31.240839 2.6921945 23 0 0 0 69.88237
10.936756 -28.402779 2.5152786 8 0 0 0 68.704636
6.1175961 -27.328417 2.9933162 15 0 0 0 71.058739
8.1177664 -26.828249 2.9980989 21 0 0 0 69.88237
-5.8253207 -25.883204 2.8285208 33 0 0 0 78.094994
-5.1674666 -25.910387 2.8171992 18 0 0 0 77.706497
-4.4765267 -25.717083 2.7841163 11 0 0 0 77.308365
-3.7371018 -25.092438 2.7070823 19 0 0 0 76.922737
-7.3576937 -24.21484 2.6992331 9 0 0 0 79.271042
-3.0319278 -24.454311 2.6307955 23 0 0 0 76.539871
19.060789 -14.15694 2.5677252 42 0 0 0 59.710808
19.326305 -13.630515 2.5585725 11 0 0 0 59.320759
-9.9652367 -13.427606 2.6181731 35 0 0 0 84.735359
19.549421 -13.080824 2.5458021 11 0 0 0 58.927567
-11.214567 -12.995481 2.6868086 68 0 0 0 85.919769
-8.2685795 -12.361047 2.6998591 40 0 0 0 83.960037
-7.8145037 -12.324659 2.8285213 85 0 0 0 83.574242
-10.034248 -11.064748 2.7115161 19 0 0 0 86.309326
33.454941 -11.052436 2.9462912 23 0 0 0 54.634129
-9.1150017 -10.558667 2.5342441 31 0 0 0 85.919769
0.75627387 -10.577464 2.719908 41 0 0 0 73.401375
-11.264997 -10.207234 2.7592199 98 0 0 0 87.868805
-7.3419037 -10.411942 2.7852135 52.5 0 0 0 84.343361
-4.2165189 -10.145612 2.5421388 17 0 0 0 80.838234
-3.6661572 -10.202991 2.7748978 87 0 0 0 80.05011
-3.4111772 -10.2773 2.7717524 111 0 0 0 79.663315
-1.5237178 -10.136935 2.6271093 108 0 0 0 76.922737
-1.0256164 -10.198718 2.7533045 84.5 0 0 0 76.137726
0.48811993 -10.422839 2.9353757 27 0 0 0 73.7882
0.74301034 -10.403028 2.9345181 32 0 0 0 73.401375
-9.7575464 -9.7520733 2.8457084 41 0 0 0 87.100975
-7.6929035 -9.8473024 2.7348845 96.5 0 0 0 85.135612
-7.1611032 -9.645196 2.7755435 57 0 0 0 84.735359
