# .PCD v0.7 - Point Cloud Data file format
VERSION 0.7
FIELDS x y z intensity normal_x normal_y normal_z curvature
SIZE 4 4 4 4 4 4 4 4
TYPE F F F F F F F F
COUNT 1 1 1 1 1 1 1 1
WIDTH 950
HEIGHT 1
VIEWPOINT 0 0 0 1 0 0 0
POINTS 950
DATA ascii
1.6377385 5.9856038 0.53944004 690 0 0 0 28.896891
8.2460423 5.9103842 0.62604052 1164.5 0 0 0 39.658127
19.958809 5.9267964 0.74216849 156 0 0 0 44.926193
0.76908016 6.3978734 0.55617827 685.66669 0 0 0 26.561508
1.2853982 6.1752548 0.54678673 551.25 0 0 0 27.924187
1.82328 6.0664907 0.55040509 756 0 0 0 29.282379
8.096344 6.1122441 0.75257772 924 0 0 0 39.265617
-0.015743075 6.9709468 0.59649861 694 0 0 0 24.598
0.30873358 6.7011962 0.57624644 821 0 0 0 25.385809
1.3643336 6.9275131 0.86678731 631 0 0 0 27.72617
1.6984028 6.8319201 0.86565834 543 0 0 0 28.510099
2.2659662 6.8164153 0.81805849 533.875 0 0 0 29.725878
21.313492 6.9019237 0.79577404 100 0 0 0 44.536518
0.90282196 7.4041452 0.81968993 656 0 0 0 26.564541
1.1376544 7.1535482 0.88739622 602.75 0 0 0 27.145054
2.7936158 7.2487564 0.85802227 569 0 0 0 30.458509
-0.29780167 7.8467226 0.76230645 606 0 0 0 24.018169
0.7446698 7.6484156 0.84292758 626 0 0 0 26.167049
7.4589362 7.7834139 0.92783225 592 0 0 0 36.722961
7.6487288 7.7205734 0.75474912 467.33334 0 0 0 36.983826
-0.60453022 8.1294756 0.78929216 192.5 0 0 0 23.432899
-0.0023788281 8.4341259 0.91963774 618 0 0 0 24.598
24.160831 9.1545744 0.91183507 72 0 0 0 43.752769
3.860682 9.5974331 0.75052154 547 0 0 0 30.653728
4.0682116 10.464873 0.67129248 417 0 0 0 30.458509
4.7818475 10.702628 0.70093381 354 0 0 0 31.245581
5.2271576 10.961695 0.72590441 286 0 0 0 31.64093
5.7267432 11.280635 0.75575119 272 0 0 0 32.023201
6.3066216 11.694527 0.79302281 224 0 0 0 32.419498
6.92454 12.111537 0.83201569 290 0 0 0 32.805382
8.7882442 12.360666 0.53381914 197 0 0 0 34.371601
7.6414094 12.627685 0.87931508 216 0 0 0 33.195271
-22.442064 13.012132 0.85178566 19 0 0 0 7.8174
8.5892487 13.428598 0.94804519 284 0 0 0 33.591881
9.7488604 13.015534 0.57097739 178 0 0 0 34.760601
10.796144 13.692912 0.61089134 154 0 0 0 35.1465
15.886042 13.550007 0.7344107 192 0 0 0 38.290409
-23.131327 14.180805 0.88934642 105 0 0 0 8.1981497
-23.477867 15.196675 0.9155525 72 0 0 0 8.5850697
12.446564 15.003337 0.68013322 39 0 0 0 35.549019
-23.915014 16.324774 0.94653463 63 0 0 0 8.9883404
-6.2088914 16.375443 0.5795123 80 0 0 0 18.748791
14.151073 16.222162 0.74877822 126 0 0 0 35.934261
-9.3270245 16.721979 0.6318745 126 0 0 0 16.403139
-8.2764072 16.705343 0.61565107 81 0 0 0 17.180941
-7.7587495 16.671057 0.60745126 227 0 0 0 17.575541
-24.21887 17.417013 0.97394955 51 0 0 0 9.3705902
-7.5892248 17.414797 0.62634027 185 0 0 0 17.962021
-9.4099827 17.895311 0.66529346 70 0 0 0 16.7885
-6.3049483 17.963743 0.62709147 178 0 0 0 19.13356
-5.3335586 17.960728 0.61731845 134 0 0 0 19.91811
-18.050232 18.369226 0.84259307 121 0 0 0 12.10549
-16.966852 18.128613 0.8132019 91 0 0 0 12.49236
-16.168148 18.141947 0.7962684 99 0 0 0 12.88176
-7.4145899 18.226685 0.64745009 181 0 0 0 18.358641
-5.8293524 18.005863 0.62339884 170 0 0 0 19.534559
-4.712348 18.313644 0.62260503 111.5 0 0 0 20.50473
-11.233253 19.055361 0.7254774 124 0 0 0 16.009041
17.471996 19.04957 0.8936817 38 0 0 0 36.322689
-20.766354 20.137617 0.94306695 19 0 0 0 11.70963
-14.64554 20.083355 0.81264299 89 0 0 0 14.44708
-13.350677 20.322117 0.795012 108 0 0 0 15.23475
-12.75247 20.485054 0.78889018 100 0 0 0 15.62897
-17.638166 20.80752 0.88984662 45 0 0 0 13.26811
-16.91972 20.97739 0.87921703 58 0 0 0 13.66311
-16.232079 21.162088 0.87006634 58 0 0 0 14.05866
-14.834766 21.430988 0.85035598 99 0 0 0 14.83838
47.346432 26.428814 0.51363349 11 0 0 0 41.408512
59.154526 34.940575 0.6398046 18 0 0 0 41.024727
50.585629 38.944309 0.58433455 15 0 0 0 39.069759
2.7969565 -39.734024 1.3287809 27 0 0 0 73.477242
-0.98907536 -35.716805 1.1946852 14 0 0 0 75.051033
0.73396957 -34.546375 1.1569095 22 0 0 0 74.26339
-4.3501244 -34.454094 1.1613921 40 0 0 0 76.617104
-7.4922009 -32.962574 1.1307709 16 0 0 0 78.178879
-29.238945 -32.194881 1.4292451 30 0 0 0 86.406578
-11.457364 -31.79598 1.1298676 32 0 0 0 80.131317
-34.525745 -29.742498 1.4931017 24 0 0 0 88.348717
-35.415424 -29.029751 1.4998283 7 0 0 0 88.73764
-35.56789 -27.72772 1.4773027 19 0 0 0 89.141838
-36.184185 -26.810631 1.4749768 23 0 0 0 89.527069
14.267603 -26.99012 1.0234232 31 0 0 0 66.827034
-7.9294076 -23.805443 1.4617727 123 0 0 0 79.749084
-7.2145419 -23.566286 1.4365327 117 0 0 0 79.352547
-6.0663853 -23.942827 1.4397868 107 0 0 0 78.564285
-6.5070934 -23.273935 1.4093598 136 0 0 0 78.956001
-38.7463 -20.707605 1.4393651 26 0 0 0 91.867294
-39.042942 -19.653086 1.4323946 39 0 0 0 92.259453
-39.593208 -18.729805 1.4354424 9 0 0 0 92.646835
-38.697147 -17.15974 1.3887472 96 0 0 0 93.040596
-8.7773275 -16.341232 1.0872602 148 0 0 0 82.487984
-10.53683 -15.712677 1.1064312 159 0 0 0 84.04213
-9.0124359 -15.837037 1.0682182 186 0 0 0 82.877533
-9.8513165 -15.496278 1.0753307 175 0 0 0 83.660484
-9.2062492 -15.29751 1.2689943 225.5 0 0 0 83.261589
10.88836 -8.6082907 1.1742517 58 0 0 0 60.168221
-11.743219 -8.2660389 1.2028301 410 0 0 0 89.921875
9.6669016 -8.447402 1.0876398 150 0 0 0 60.94669
-13.91371 -7.8832068 1.33556 24 0 0 0 91.483994
-11.923655 -7.7556152 1.1917908 471 0 0 0 90.516876
10.225164 -7.8841105 1.251755 296 0 0 0 59.969727
-12.121749 -7.2653399 1.1842752 197 0 0 0 91.104179
10.38753 -7.4171891 1.083867 322 0 0 0 59.380169
10.691897 -7.2448692 1.0968999 451 0 0 0 58.996166
10.758641 -6.9117174 1.2434754 274.5 0 0 0 58.607647
11.336008 -6.7047048 1.1195042 432.5 0 0 0 58.011192
11.750463 -6.3788376 1.3007362 267.5 0 0 0 57.424599
12.341982 -5.7492409 1.3248774 227.25 0 0 0 56.442875
10.597441 -5.4232454 1.1611977 418.5 0 0 0 57.03936
12.805741 -5.4003034 1.183041 341 0 0 0 55.867809
13.271354 -5.2161956 1.2136096 258 0 0 0 55.47654
13.609001 -4.9664483 1.2331071 309 0 0 0 55.085114
14.004637 -4.7241507 1.2580621 268 0 0 0 54.700741
14.149789 -4.3891926 1.2617139 328 0 0 0 54.306873
14.682107 -4.1614633 1.2993342 222 0 0 0 53.920193
13.239355 -3.405499 1.3344073 563.5 0 0 0 53.526848
11.222385 -2.5970078 1.2717153 124 0 0 0 53.132198
-13.939047 -2.0827136 1.1840929 486 0 0 0 97.341843
11.678975 -2.2504394 1.1680688 286.25 0 0 0 52.542343
-14.051625 -1.748933 1.1898255 482 0 0 0 97.737053
12.25339 -1.7925607 1.2667941 313.33334 0 0 0 51.82896
12.504787 -1.6215067 1.0839953 651 0 0 0 51.573128
-14.175038 -1.4127138 1.1971151 434 0 0 0 98.121712
9.6086998 -1.0081811 1.1939363 358.5 0 0 0 51.173199
9.6116686 -0.76972067 1.1921623 526 0 0 0 50.78648
10.330314 -0.57132113 1.2773801 178 0 0 0 50.397678
13.678811 -0.7550295 1.1762688 65 0 0 0 50.397678
10.744133 -0.19488727 1.3259771 773.5 0 0 0 49.810776
14.076075 -0.43017662 1.2085721 104 0 0 0 50.004002
14.579047 -0.086914383 1.2503146 77 0 0 0 49.617554
11.297941 0.20944691 1.2533301 764 0 0 0 49.22303
14.986687 0.27910623 1.2848332 45 0 0 0 49.22303
11.818252 0.51027042 1.3105644 633 0 0 0 48.83218
12.340599 0.83754134 1.2176676 467 0 0 0 48.44706
15.436706 0.66731519 1.3236483 361 0 0 0 48.83218
12.813398 1.1867291 1.4228703 464 0 0 0 48.048607
13.012634 1.2053825 1.1258483 315 0 0 0 48.048607
13.382254 1.5721605 1.4883114 473 0 0 0 47.667461
13.610079 1.5990887 1.1789916 448 0 0 0 47.667461
16.704847 1.5444617 1.0158172 21 0 0 0 48.048607
-15.692195 2.1172473 1.3060825 134 0 0 0 1.57177
14.174966 2.0197859 1.230374 381 0 0 0 47.270561
14.821437 2.4848759 1.2897059 282 0 0 0 46.875221
17.335651 2.0333741 1.0556936 86 0 0 0 47.667461
-15.886269 2.7389989 1.3298404 109 0 0 0 2.153815
-22.383698 3.0349615 1.2944604 104 0 0 0 1.57177
15.689081 3.0282276 1.3690261 261 0 0 0 46.483471
18.871199 3.1592677 1.1542006 28 0 0 0 46.875221
-22.464663 3.6058819 1.3040221 67 0 0 0 1.95752
-18.897684 3.5035148 1.1056814 380 0 0 0 2.3501101
20.651253 4.5089846 1.2715352 29 0 0 0 46.098518
19.182358 5.1875854 1.1976074 153 0 0 0 45.311913
21.717321 5.3031125 1.3427372 10 0 0 0 45.705513
2.395715 6.7267604 1.3203579 494 0 0 0 30.07073
1.4550097 7.3691339 1.1978307 612 0 0 0 27.72617
1.8036999 7.2396927 1.1915394 674.66669 0 0 0 28.510101
-0.29902139 7.8152986 1.2396184 592.5 0 0 0 24.018171
0.92040819 7.5494061 1.0221866 532 0 0 0 26.564541
7.3805499 7.8324218 1.3657579 585.33331 0 0 0 36.589539
7.7957048 7.7430367 1.2135379 97 0 0 0 37.114262
-0.60389549 8.0859041 1.2826909 425.33334 0 0 0 23.432899
-0.0044366624 8.4233742 1.2296488 169.5 0 0 0 24.598
7.3738308 8.0835409 1.2071482 238 0 0 0 36.322689
9.2018013 8.6911364 1.2388813 522.5 0 0 0 37.50951
9.951273 8.9432545 1.471172 334 0 0 0 37.90276
10.107478 9.082283 1.1624466 326 0 0 0 37.90276
27.056028 9.4971428 1.0083628 77 0 0 0 44.149399
11.454103 9.7884007 1.2857323 189 0 0 0 38.290409
0.86642969 11.401701 1.2375484 123 0 0 0 25.77405
12.958084 11.062513 1.0238296 89 0 0 0 38.290409
5.2994871 11.852532 1.412376 50 0 0 0 31.245581
26.973192 11.761647 1.0327531 114 0 0 0 42.979752
5.0975671 12.192747 1.2741413 222.5 0 0 0 30.848949
9.4688492 14.025781 1.0055104 175 0 0 0 33.976898
-11.878073 15.4501 1.1193732 116 0 0 0 14.05866
8.3642197 15.476623 1.4774288 103 0 0 0 32.419498
8.8033981 15.373291 1.4888912 135 0 0 0 32.805382
10.69065 15.017655 1.0934719 129 0 0 0 34.371601
7.1411495 15.915256 1.4611279 90 0 0 0 31.245581
7.5828977 15.845097 1.4725267 20 0 0 0 31.64093
8.0287104 15.768995 1.4844843 35 0 0 0 32.023201
-8.6005812 16.339478 1.0610614 139 0 0 0 16.7885
-8.1284742 16.402208 1.0520378 116 0 0 0 17.180941
-6.2130013 16.384983 1.0078586 798 0 0 0 18.748791
-7.6993294 16.540623 1.0484821 202 0 0 0 17.575541
-7.3440428 16.843994 1.0556492 150 0 0 0 17.962021
12.691068 16.918751 1.2507936 59 0 0 0 34.760601
14.401218 16.508776 1.2986174 38 0 0 0 35.934261
14.111726 17.001488 1.3080422 76 0 0 0 35.549019
35.091213 17.389532 1.3613107 25 0 0 0 42.193432
-3.506753 18.154358 1.062461 282 0 0 0 21.4844
14.790037 18.729605 1.4084256 46 0 0 0 35.1465
23.992662 19.444546 1.0709759 44 0 0 0 38.68364
-25.011921 19.917389 1.0409276 11 0 0 0 10.15284
-13.339269 20.303436 1.387615 127 0 0 0 15.23475
-12.724834 20.439095 1.37524 133 0 0 0 15.62897
-3.3599193 20.065552 1.1667091 77 0 0 0 21.874331
-2.8502789 20.017082 1.1604968 66 0 0 0 22.262461
-12.121311 20.573374 1.3639679 144 0 0 0 16.009041
-11.540599 20.729792 1.3551774 110 0 0 0 16.403139
-2.4102976 20.53219 1.1867065 94 0 0 0 22.652651
-1.9088415 20.609848 1.1889678 84 0 0 0 23.03882
-15.48572 21.242052 1.499704 94 0 0 0 14.44708
-14.826406 21.417603 1.4860753 104 0 0 0 14.83838
-8.6470432 21.292154 1.3125105 135 0 0 0 18.358641
-1.4481357 21.349834 1.2290646 83 0 0 0 23.432899
-7.9372373 22.679235 1.3705572 137 0 0 0 19.13356
-7.3612423 22.808535 1.3669449 68 0 0 0 19.534559
-6.7802324 22.911795 1.3627256 98 0 0 0 19.91811
-6.204452 23.022535 1.3597901 155 0 0 0 20.30678
-5.6305494 23.13246 1.3576328 186 0 0 0 20.702681
-5.062151 23.261353 1.3580383 177 0 0 0 21.09244
28.432627 26.722128 1.337923 13 0 0 0 37.50951
-25.304605 -53.251881 1.9406302 5 0 0 0 81.706436
-25.905138 -51.241203 1.8892443 7 0 0 0 82.093742
-29.766256 -42.144165 1.6937903 18 0 0 0 84.427963
19.544571 -41.77364 1.5286818 23 0 0 0 67.616508
-30.750952 -41.352566 1.6906903 5 0 0 0 84.828156
20.533075 -41.225464 1.5262749 16 0 0 0 67.215378
-31.318859 -40.031765 1.6670265 6 0 0 0 85.221054
-31.821079 -38.684345 1.6424493 9 0 0 0 85.617523
-32.265915 -37.324547 1.6174438 6 0 0 0 86.014076
-32.966751 -34.561668 1.5654782 35 0 0 0 86.800529
-5.9970207 -34.005943 1.9996324 18 0 0 0 77.391434
-6.766335 -33.545883 1.9818721 35 0 0 0 77.786179
-33.431187 -33.373638 1.5480223 25 0 0 0 87.188301
-33.827694 -32.155563 1.5293225 24 0 0 0 87.58075
-34.207851 -30.959061 1.5116879 29 0 0 0 87.968269
-2.8218935 -27.771364 1.6235441 7 0 0 0 76.227005
-2.1367178 -27.767992 1.6200362 51 0 0 0 75.828911
-1.4408373 -27.505453 1.6027236 64 0 0 0 75.437927
14.433751 -25.760559 1.7138675 68 0 0 0 66.436699
13.829574 -23.328453 1.5769007 84 0 0 0 66.041557
14.533176 -23.20019 1.5915551 94 0 0 0 65.655258
15.260186 -23.083778 1.6084626 81 0 0 0 65.258743
15.994144 -22.95122 1.6258302 86 0 0 0 64.865486
16.711769 -22.770632 1.6414493 75 0 0 0 64.478394
-8.8011475 -16.39196 1.5532304 125 0 0 0 82.487984
-10.52904 -15.706571 1.5762601 152 0 0 0 84.04213
-9.0370617 -15.886082 1.7480116 185.5 0 0 0 82.877533
-9.8276653 -15.464372 1.7512237 158 0 0 0 83.660484
-9.232481 -15.343518 1.9299178 180 0 0 0 83.261589
14.195151 -9.6095419 1.8609673 106 0 0 0 58.996166
12.059808 -8.6068802 1.612725 101 0 0 0 59.380169
-11.754225 -8.2752342 1.729497 434 0 0 0 89.921875
11.250544 -8.4548817 1.5330389 130 0 0 0 59.771233
-13.988017 -7.9252939 1.7327387 23 0 0 0 91.483994
-12.011 -7.6072593 1.8855039 399 0 0 0 90.716812
-11.920169 -7.8236833 1.6576878 426.33334 0 0 0 90.450233
9.9950237 -7.9030075 1.7046376 123 0 0 0 60.168221
10.122805 -7.6086454 1.8510219 150.5 0 0 0 59.771233
10.62738 -7.5860238 1.7471913 132 0 0 0 59.380169
-15.550666 -7.3602881 1.8521365 32 0 0 0 92.646835
-12.158392 -7.2887106 1.7059624 175.5 0 0 0 91.104179
10.509372 -7.1200695 1.7002906 144 0 0 0 58.996166
-15.710232 -6.9705248 1.8504516 52 0 0 0 93.040596
10.667671 -6.8519211 1.8546071 137 0 0 0 58.607647
-13.555055 -6.0172944 1.9659481 68 0 0 0 93.040596
-13.373718 -6.332921 1.9614679 74 0 0 0 92.646835
10.410187 -5.6527863 1.7379088 557 0 0 0 57.424599
12.331789 -5.7453651 1.8243625 162.5 0 0 0 56.442879
17.169582 -5.7881746 1.9749225 118 0 0 0 54.700741
10.558008 -5.4017515 1.7414392 189 0 0 0 57.03936
12.968859 -5.4693308 1.5402664 127 0 0 0 55.867809
13.345676 -5.2447371 1.7443727 56.5 0 0 0 55.47654
13.668545 -4.9875207 1.771873 107.5 0 0 0 55.085114
14.016349 -4.7264047 1.9837561 35 0 0 0 54.700741
14.650308 -4.1530051 1.6673634 283 0 0 0 53.920193
13.13342 -3.3766148 1.8240654 358 0 0 0 53.526848
11.233676 -2.5979204 1.5573617 98 0 0 0 53.132198
-13.925843 -2.1985886 1.7577759 248.66667 0 0 0 97.210594
12.259546 -2.2057674 1.6807735 48 0 0 0 52.343391
-14.08298 -1.7542694 1.7117391 334 0 0 0 97.737053
12.243587 -1.893525 1.6725948 13 0 0 0 51.956879
-14.212142 -1.417859 1.7226262 426 0 0 0 98.121712
9.3829041 -0.86771351 1.7498165 511.33334 0 0 0 50.979839
10.641389 -0.23615891 1.7967726 730.33331 0 0 0 49.875183
11.276344 0.21064147 1.6697695 588 0 0 0 49.22303
11.743697 0.50874186 1.7391982 576.5 0 0 0 48.83218
12.205267 0.83016026 1.6562989 529 0 0 0 48.44706
12.769968 1.1847503 1.7347398 467 0 0 0 48.048607
13.395209 1.5758559 1.8226064 385 0 0 0 47.667461
14.033087 1.999423 1.5638998 384 0 0 0 47.270561
-15.069159 2.4063253 1.627642 89 0 0 0 1.95752
-14.95971 2.0167022 1.6099265 110 0 0 0 1.57177
14.799103 2.4809716 1.6534871 352 0 0 0 46.875221
-15.2485 2.8174784 1.6539247 108 0 0 0 2.3501101
15.65591 3.0216899 1.7547171 304 0 0 0 46.483471
19.153509 5.1833181 1.6911721 113 0 0 0 45.311913
21.04797 5.143733 1.8432453 9 0 0 0 45.705513
2.3859961 6.706171 1.7559085 141.5 0 0 0 30.07073
24.09322 7.1518292 1.5049263 9 0 0 0 44.926193
-0.28080535 7.7909155 1.7721388 1207.4 0 0 0 24.056391
7.2961869 7.8724785 1.8055472 476 0 0 0 36.456116
-0.6041069 8.066638 1.7775049 1150 0 0 0 23.432899
-0.005085676 8.4239197 1.64569 37.5 0 0 0 24.598
25.660986 8.3068333 1.61228 17 0 0 0 44.536518
2.2805789 8.9025717 1.8234354 201.39999 0 0 0 28.587585
9.2352543 8.726346 1.7117621 434 0 0 0 37.50951
1.698898 9.105648 1.8124272 299.75 0 0 0 27.53167
2.0276215 9.0108919 1.6946989 997 0 0 0 28.122669
10.286448 9.246438 1.8608307 227 0 0 0 37.90276
27.039589 9.491437 1.7105087 57 0 0 0 44.149399
-19.232359 9.9139099 1.7790438 21 0 0 0 7.0288301
3.0849962 9.8293619 1.7188034 900 0 0 0 29.413816
11.504804 9.8320322 1.6599786 144 0 0 0 38.290409
26.815437 11.693213 1.7442796 40 0 0 0 42.979752
5.4381824 12.165703 1.7769911 15 0 0 0 31.245581
7.4462423 13.793351 1.701718 146 0 0 0 32.419498
9.3777514 15.480697 1.962219 61 0 0 0 33.195271
-9.1651859 15.508184 1.9196175 84 0 0 0 16.009041
7.6518502 15.989611 1.9168589 1246 0 0 0 31.64093
9.2232208 15.654727 1.7478452 105 0 0 0 33.000328
10.784663 16.84223 1.679245 39 0 0 0 33.591881
-9.4215851 17.907541 1.6625162 221 0 0 0 16.7885
11.991948 17.74518 1.7973143 61 0 0 0 33.976898
-8.5793991 18.444355 1.6709335 101 0 0 0 17.575541
-5.9768653 18.453568 1.5942432 254 0 0 0 19.534559
-9.2426043 18.666794 1.71043 53 0 0 0 17.180941
23.816235 19.302908 1.8149812 36 0 0 0 38.68364
-20.787697 20.157318 1.650968 42 0 0 0 11.70963
-19.986691 20.350088 1.6264824 60 0 0 0 12.10549
-13.400469 20.388277 1.9994855 19 0 0 0 15.23475
-2.3901031 20.315742 1.683443 91 0 0 0 22.652651
38.805038 20.427044 1.5190977 25 0 0 0 41.798199
-19.191532 20.518881 1.6022418 75 0 0 0 12.49236
-18.381681 20.640215 1.5764254 56 0 0 0 12.88176
-17.643147 20.812302 1.5563217 72 0 0 0 13.26811
-16.925423 20.983356 1.5378146 82 0 0 0 13.66311
-2.9466655 20.682703 1.717723 55 0 0 0 22.262461
-1.9202329 20.688776 1.7103655 44 0 0 0 23.03882
-8.1413965 21.532103 1.8866817 26 0 0 0 18.748791
-9.6998615 22.302938 1.9919962 155 0 0 0 17.962021
-9.1110239 22.433567 1.9831154 58 0 0 0 18.358641
-7.9384027 22.667597 1.9670506 149 0 0 0 19.13356
-6.7853851 22.91193 1.9569694 90 0 0 0 19.91811
-6.2070642 23.013247 1.9520431 159 0 0 0 20.30678
-5.6385245 23.144623 1.9508131 160 0 0 0 20.702681
-5.0692148 23.270771 1.9509776 164 0 0 0 21.09244
-4.4951806 23.373037 1.9506963 149 0 0 0 21.4844
-3.9205697 23.470028 1.9511641 127 0 0 0 21.874331
-55.062363 25.17779 1.9515454 15 0 0 0 6.2523499
35.629753 31.86537 1.6336811 15 0 0 0 37.90276
2.9304798 -41.623692 2.4115822 26 0 0 0 73.477242
3.7547212 -39.513462 2.2959235 16 0 0 0 73.094284
-4.3599477 -34.5284 2.0154681 29 0 0 0 76.617104
-5.1982708 -34.376171 2.0132599 31 0 0 0 77.006599
27.42592 -30.559086 2.3723516 29 0 0 0 62.900009
27.382835 -29.048319 2.3081248 7 0 0 0 62.508606
-2.791841 -27.517879 2.2973659 45 0 0 0 76.227005
26.70915 -26.979895 2.1975513 11 0 0 0 62.1236
-7.9283762 -23.815048 2.0868309 106 0 0 0 79.749084
-7.2080331 -23.558462 2.0490153 99 0 0 0 79.352547
-6.0763378 -23.998379 2.058985 88 0 0 0 78.564285
14.072129 -23.728422 2.2904773 56 0 0 0 66.041557
-6.51124 -23.303205 2.0130727 135 0 0 0 78.956001
14.703595 -23.463737 2.2989624 79 0 0 0 65.655258
15.427934 -23.329342 2.3219097 94 0 0 0 65.258743
16.156727 -23.17664 2.3452466 95 0 0 0 64.865486
16.894913 -23.012486 2.3697116 52 0 0 0 64.478394
-38.456188 -20.552561 2.4960401 67 0 0 0 91.867294
-38.796589 -19.529112 2.4866362 38 0 0 0 92.259453
-39.681252 -17.596189 2.4855731 22 0 0 0 93.040596
-35.313999 -16.705652 2.2402763 15 0 0 0 92.646835
-8.8169212 -16.42403 2.2377806 147.5 0 0 0 82.487984
-10.538733 -15.72065 2.0370004 167 0 0 0 84.04213
-9.0500774 -15.914727 2.4226635 168 0 0 0 82.877533
-9.843277 -15.494305 2.428133 147 0 0 0 83.660484
-9.2373333 -15.357212 2.3717558 196 0 0 0 83.261589
10.920288 -8.6321325 2.2038097 221 0 0 0 60.168221
-11.786388 -8.2993326 2.2676289 337 0 0 0 89.921875
11.680522 -8.3353014 2.2721479 86 0 0 0 59.380169
-13.969154 -7.9178138 2.125196 21 0 0 0 91.483994
-12.028024 -7.6180096 2.2401469 339 0 0 0 90.716812
-11.895141 -7.9479961 2.2507384 394 0 0 0 90.31694
10.262307 -7.713882 2.3543622 72 0 0 0 59.771233
-12.187539 -7.3075967 2.2360063 141 0 0 0 91.104179
10.570008 -7.1615095 2.0264232 61 0 0 0 58.996166
-11.633943 -5.6846366 2.2001386 214.25 0 0 0 92.45314
10.269063 -5.68648 2.352879 289.66666 0 0 0 57.554352
12.201906 -5.8663402 2.1510198 92 0 0 0 56.636112
-11.802814 -5.2396288 2.194097 189.5 0 0 0 93.040596
12.166426 -5.4861188 2.1216965 235 0 0 0 56.249641
17.603844 -5.4569368 2.0091667 89 0 0 0 54.306873
-11.845624 -4.9153337 2.3392229 270 0 0 0 93.42997
14.565303 -4.5161042 2.2342408 55.5 0 0 0 54.306873
14.621815 -4.1427231 2.0387664 141 0 0 0 53.920193
12.985427 -3.3396575 2.4695871 273 0 0 0 53.526848
13.065371 -3.3596609 2.1496186 336 0 0 0 53.526848
16.257919 -3.33515 2.2256439 145 0 0 0 52.741299
-12.809948 -2.2387135 2.212219 59 0 0 0 96.948112
-13.034006 -1.6250086 2.0730572 107 0 0 0 97.737053
-12.913523 -1.932256 2.2216592 59 0 0 0 97.341843
-13.229653 -1.3212559 2.0983329 32 0 0 0 98.121712
9.2379551 -0.85309166 2.2966321 540.75 0 0 0 50.979839
-17.623894 2.3761547 2.3277497 74 0 0 0 1.57177
14.812383 2.1126015 2.2032139 269.5 0 0 0 47.270561
-17.627325 2.8153524 2.3368866 74 0 0 0 1.95752
-17.45886 3.2261636 2.3247082 100 0 0 0 2.3501101
19.064322 5.1591587 2.1644905 113 0 0 0 45.311913
-0.33355835 7.8128262 2.1364281 1031.3334 0 0 0 23.95447
7.1891403 7.8893023 2.3670013 430 0 0 0 36.322689
-0.60370302 8.0426207 2.0685258 1084 0 0 0 23.432899
7.0970697 8.181345 2.1330724 256 0 0 0 35.934261
7.7380724 8.0774384 2.2051206 335.5 0 0 0 36.722961
8.0855875 8.0334959 2.386656 149 0 0 0 37.114262
23.466661 8.2440481 2.1100101 54 0 0 0 44.149399
2.2301199 8.8978605 2.2481391 229.33333 0 0 0 28.510101
9.2025852 8.6961975 2.0203397 13 0 0 0 37.50951
1.6913472 9.0796642 2.2608461 269.75 0 0 0 27.53167
-19.286882 9.9414244 2.3087122 16 0 0 0 7.0288301
-20.728228 10.055505 2.4499936 34 0 0 0 6.6433201
-20.578506 11.256209 2.4939804 96 0 0 0 7.4223299
26.705906 11.651326 2.4642212 49 0 0 0 42.979752
10.038453 12.750617 2.1691306 21 0 0 0 35.1465
7.3899498 13.697795 2.2660565 319 0 0 0 32.419498
-9.0709038 15.339883 2.3362942 141 0 0 0 16.009041
-8.0537653 15.273094 2.2644193 106 0 0 0 16.7885
-7.6245103 15.356696 2.2487421 46 0 0 0 17.180941
-7.2096605 15.458248 2.2373099 165 0 0 0 17.575541
-16.834953 15.517036 2.4337151 78 0 0 0 11.32018
-6.7202692 15.908854 2.2651739 167.5 0 0 0 18.160332
10.020486 15.657592 2.0157795 71 0 0 0 33.591881
35.052372 17.370779 2.3188055 20 0 0 0 42.193432
-13.64901 17.764502 2.3813362 65 0 0 0 14.05866
-9.910491 17.767962 2.1645036 78 0 0 0 16.403139
-9.419611 17.902561 2.1523054 142 0 0 0 16.7885
-8.5094032 18.290897 2.1462789 79 0 0 0 17.575541
-9.3347416 18.853456 2.2371495 57 0 0 0 17.180941
15.801892 19.036694 2.077389 143 0 0 0 35.549019
15.775116 19.980312 2.1348193 36 0 0 0 35.1465
-20.788815 20.150251 2.3696973 32 0 0 0 11.70963
-19.966137 20.320835 2.3319733 69 0 0 0 12.10549
-19.178242 20.496298 2.2979019 79 0 0 0 12.49236
-6.0402913 20.360538 2.257741 62 0 0 0 19.91811
-18.409056 20.662722 2.2656753 65 0 0 0 12.88176
-17.683147 20.851225 2.2384562 46 0 0 0 13.26811
-16.899269 20.942087 2.2034714 77 0 0 0 13.66311
-16.218365 21.134094 2.1813872 79 0 0 0 14.05866
-15.497861 21.249794 2.1537626 66 0 0 0 14.44708
-14.81934 21.398087 2.1315339 94 0 0 0 14.83838
-8.6911688 21.3876 2.4519844 140 0 0 0 18.358641
-13.504746 21.691523 2.0925474 93 0 0 0 15.62897
-12.882046 21.864622 2.0782597 86 0 0 0 16.009041
-12.244058 21.99328 2.0614433 36 0 0 0 16.403139
-8.1540022 21.563915 2.4485431 6 0 0 0 18.748791
16.555847 23.21664 2.383074 25 0 0 0 34.371601
-55.868507 27.21899 2.0020165 18 0 0 0 6.6433201
5.5373812 -46.195091 2.6856105 17 0 0 0 72.692436
-30.963524 -41.637554 2.9720225 8 0 0 0 84.828156
31.102669 -40.235714 2.9277 8 0 0 0 64.079437
32.434254 -39.898609 2.9603398 8 0 0 0 63.697392
-31.875181 -38.749367 2.8731256 10 0 0 0 85.617523
-5.1552358 -34.127777 2.8579867 28 0 0 0 77.006599
-4.2947989 -34.054485 2.8425713 16 0 0 0 76.617104
-33.704075 -33.645592 2.725863 9 0 0 0 87.188301
-2.5441341 -33.180569 2.7573402 14 0 0 0 75.828911
-6.5533304 -32.514221 2.7474403 24 0 0 0 77.786179
-5.7985039 -32.907993 2.7678044 7 0 0 0 77.391434
-34.18647 -32.496201 2.6994898 11 0 0 0 87.58075
-0.89180011 -32.306988 2.6792922 35 0 0 0 75.051033
-0.10038899 -32.090431 2.6607845 108 0 0 0 74.661514
1.4527537 -31.691519 2.6312742 26 0 0 0 73.867935
-34.626347 -31.33746 2.6726813 11 0 0 0 87.968269
2.9000955 -30.521784 2.5445037 22 0 0 0 73.094284
-34.947781 -30.105753 2.6397977 42 0 0 0 88.348717
-35.424446 -29.036844 2.6211836 40 0 0 0 88.73764
-10.334293 -28.688694 2.5277832 6 0 0 0 80.131317
-10.993892 -28.326077 2.5187905 17 0 0 0 80.528542
-35.650101 -27.791557 2.5869029 65 0 0 0 89.141838
-2.7619116 -27.217222 2.9369311 35 0 0 0 76.227005
-36.069843 -26.725687 2.5690937 83 0 0 0 89.527069
-3.3561578 -26.577499 2.8764393 74 0 0 0 76.617104
-1.4082295 -26.951483 2.8981411 50 0 0 0 75.437927
-0.74400711 -26.816385 2.881182 43 0 0 0 75.051033
-9.2183342 -25.585516 2.9183867 23 0 0 0 80.131317
-6.1014595 -24.09643 2.6707563 74 0 0 0 78.564285
-7.938755 -23.845144 2.6995947 92 0 0 0 79.749084
-7.2040286 -23.544155 2.645565 136 0 0 0 79.352547
14.834811 -23.673838 2.9980459 58 0 0 0 65.655258
-6.513454 -23.309877 2.601239 124 0 0 0 78.956001
-38.012352 -21.527733 2.5005426 32 0 0 0 91.483994
-8.8321228 -16.455025 2.9329107 141 0 0 0 82.487984
-10.551884 -15.745617 2.7400856 163 0 0 0 84.04213
-9.0658855 -15.942072 2.8802698 184 0 0 0 82.877533
-9.8386021 -15.486523 2.8806255 144 0 0 0 83.660484
-9.2519436 -15.38109 2.8192282 173 0 0 0 83.261589
-11.797035 -8.3067446 2.8039436 366 0 0 0 89.921875
-13.987305 -7.9280839 2.7244754 28 0 0 0 91.483994
-12.042019 -7.6268268 2.7706003 377.5 0 0 0 90.716812
-11.927746 -7.9697189 2.7881191 385 0 0 0 90.31694
-12.180843 -7.3035517 2.7606964 170 0 0 0 91.104179
10.06945 -5.7922363 2.8513167 276.5 0 0 0 57.813858
12.954131 -3.3321011 2.7938514 211 0 0 0 53.526848
15.411031 -1.9951798 2.8603601 32 0 0 0 51.573128
9.1380615 -0.84364802 2.727922 407.75 0 0 0 50.979839
14.752806 2.1038241 2.7500875 207 0 0 0 47.270561
18.18392 4.9247599 2.5310335 192 0 0 0 45.311913
19.174944 5.7016673 2.6851616 121 0 0 0 44.926193
20.583389 6.6739383 2.9011128 82 0 0 0 44.536518
6.9131446 7.9759493 2.993608 292 0 0 0 35.934261
7.1707129 7.8714213 2.7548759 300 0 0 0 36.322689
6.9669862 8.0369396 2.7510221 315 0 0 0 35.934261
7.0049739 8.0798044 2.5019917 303 0 0 0 35.934261
8.0973482 8.0483952 2.6710942 558 0 0 0 37.114262
23.350727 8.2034454 2.7023273 65 0 0 0 44.149399
2.1890786 8.9221821 2.6828599 181.39999 0 0 0 28.432743
1.6858447 9.0599442 2.7116013 273.25 0 0 0 27.53167
-19.407698 9.9990263 2.8573194 20 0 0 0 7.0288301
15.675835 13.383741 2.7553282 203 0 0 0 38.290409
7.369607 13.66252 2.8380177 28 0 0 0 32.419498
-16.415195 15.121591 2.9199681 25 0 0 0 11.32018
-15.675724 15.162439 2.8537881 85 0 0 0 11.70963
-7.0151997 15.033653 2.9957597 159 0 0 0 17.575541
-6.6527143 15.217759 2.9992416 132 0 0 0 17.962021
30.479271 15.114882 2.86974 31 0 0 0 42.193432
-11.069297 15.939761 2.5418916 49 0 0 0 14.83838
-8.1587248 16.444777 2.8590209 52 0 0 0 17.180941
-13.934274 17.23797 2.9000068 106 0 0 0 13.66311
-7.9412522 17.045908 2.92817 37 0 0 0 17.575541
-5.0988755 17.125139 2.7841511 51 0 0 0 19.91811
-9.9245491 17.784924 2.6663837 102 0 0 0 16.403139
11.977859 17.734089 2.843827 15 0 0 0 33.976898
-3.7532296 18.186152 2.8939276 90 0 0 0 21.28842
-3.1630943 18.806154 2.5010381 130 0 0 0 21.874331
-2.2759767 19.268232 2.5459633 166 0 0 0 22.652651
15.840232 19.084053 2.6859176 18 0 0 0 35.549019
-5.9590611 20.067377 2.7398341 70 0 0 0 19.91811
15.811874 20.028164 2.7606661 22 0 0 0 35.1465
38.580811 20.309786 2.5791807 12 0 0 0 41.798199
-19.188932 20.506683 2.9796088 69 0 0 0 12.49236
-18.40094 20.652458 2.9348748 69 0 0 0 12.88176
-17.655249 20.817019 2.896322 67 0 0 0 13.26811
-16.914505 20.959944 2.8580587 66 0 0 0 13.66311
13.888031 20.537132 2.6780391 85 0 0 0 33.976898
-15.519419 21.278357 2.7949426 30 0 0 0 14.44708
-14.823623 21.403097 2.7630775 47 0 0 0 14.83838
-14.146846 21.530842 2.734236 102 0 0 0 15.23475
-13.505157 21.690887 2.7118874 113 0 0 0 15.62897
-7.9381442 22.6647 2.5493114 133 0 0 0 19.13356
-7.3589611 22.782885 2.541573 145 0 0 0 19.534559
-6.2102246 23.022266 2.5313356 166 0 0 0 20.30678
-5.636611 23.133436 2.5276263 165 0 0 0 20.702681
-5.0671754 23.257589 2.5275099 179 0 0 0 21.09244
-4.4980936 23.384249 2.5295262 135 0 0 0 21.4844
-3.9232228 23.481295 2.5298986 135 0 0 0 21.874331
-3.3531947 23.614481 2.5356228 137 0 0 0 22.262461
-2.7774904 23.720984 2.5400171 192 0 0 0 22.652651
-2.2009816 23.841187 2.547365 171 0 0 0 23.03882
20.833786 23.86042 2.6515629 44 0 0 0 35.934261
0.74619859 24.451912 2.6079817 125 0 0 0 25.000139
1.3518935 24.542431 2.621474 133 0 0 0 25.38324
-25.787153 -54.265873 3.447438 9 0 0 0 81.706436
-26.591425 -52.597492 3.3808286 27 0 0 0 82.093742
-21.961782 -49.289688 3.101336 13 0 0 0 81.308144
-38.545948 -44.589733 3.3679817 14 0 0 0 86.014076
-28.498615 -31.389454 3.4869883 8 0 0 0 86.406578
2.16781 -30.807684 3.3127298 23 0 0 0 73.477242
1.3339211 -29.145498 3.1311803 26 0 0 0 73.867935
-31.516481 -28.532305 3.4943433 12 0 0 0 87.968269
-0.091720626 -28.452946 3.0540166 22 0 0 0 74.661514
-10.773244 -27.755707 3.1917098 18 0 0 0 80.528542
27.003933 -27.269423 3.1770346 21 0 0 0 62.1236
27.573853 -26.513483 3.1677084 42 0 0 0 61.727287
28.555561 -26.141411 3.2064557 46 0 0 0 61.333153
-12.228209 -25.729662 3.0533776 6 0 0 0 81.706436
15.360332 -25.896828 3.2282627 21 0 0 0 66.041557
-3.2032449 -25.39304 3.3788729 51 0 0 0 76.617104
-2.5713718 -25.367737 3.3664179 13 0 0 0 76.227005
1.7657315 -25.094246 3.3231299 16 0 0 0 73.477242
14.101643 -25.161362 3.0939612 48 0 0 0 66.436699
-4.3276567 -24.557156 3.2924497 23 0 0 0 77.391434
-6.0922995 -24.076412 3.2789223 69 0 0 0 78.564285
-5.5187049 -24.294405 3.2892642 12 0 0 0 78.178879
-4.8752179 -24.185642 3.2578709 12 0 0 0 77.786179
15.990171 -24.178898 3.1095748 34 0 0 0 65.258743
-7.945374 -23.877823 3.321667 39 0 0 0 79.749084
-7.2002168 -23.545164 3.2507429 119 0 0 0 79.352547
1.0889233 -23.795315 3.1482024 21 0 0 0 73.867935
-6.5089383 -23.308109 3.195756 108 0 0 0 78.956001
28.020769 -23.23612 3.0196979 20 0 0 0 60.556351
-8.5388756 -20.498272 3.4837115 101 0 0 0 80.915871
-9.7032995 -19.193083 3.3731661 16 0 0 0 82.093742
-34.01857 -18.18861 3.172529 14 0 0 0 91.867294
-8.5616245 -16.931692 3.4489734 124 0 0 0 82.093742
-8.739625 -16.28196 3.3595097 122 0 0 0 82.487984
-9.0636625 -15.937672 3.3329968 62 0 0 0 82.877533
-10.624375 -15.043924 3.3462124 18 0 0 0 84.427963
-10.228739 -15.26244 3.3386302 23 0 0 0 84.04213
-9.8161058 -15.450662 3.3268111 80 0 0 0 83.660484
-9.2554884 -15.386546 3.2643445 142 0 0 0 83.261589
-11.195867 -14.68054 3.3540735 29 0 0 0 85.024605
-11.68257 -14.205564 3.340728 39 0 0 0 85.617523
-10.019466 -13.47449 3.4660969 78 0 0 0 84.828156
8.0851259 -9.0336657 3.4163387 274 0 0 0 62.900009
8.4675589 -8.5761166 3.3974106 199 0 0 0 62.1236
-11.828609 -8.3319798 3.3432176 286 0 0 0 89.921875
7.7431011 -8.0358658 3.4233789 231 0 0 0 62.316101
-12.068045 -7.6462097 3.3016574 323 0 0 0 90.716812
-11.948285 -7.9863892 3.3210893 357 0 0 0 90.31694
5.8721347 -7.6277533 3.3138647 131.5 0 0 0 64.079437
15.124212 -7.7281747 3.1089971 169 0 0 0 57.03936
-12.210147 -7.3239832 3.2907212 133 0 0 0 91.104179
5.9048467 -7.2922945 3.3454325 282 0 0 0 63.697392
6.0466309 -7.1046357 3.3269095 170 0 0 0 63.299961
15.305583 -7.3530846 3.1092172 93 0 0 0 56.636112
9.8731861 -6.0073686 3.2665412 334 0 0 0 58.208527
10.040904 -5.7765899 3.2748268 132 0 0 0 57.813858
19.34276 -4.463408 3.1458001 85 0 0 0 53.132198
12.929136 -3.3237422 3.1162119 51 0 0 0 53.526848
15.322616 -1.984269 3.2255175 121 0 0 0 51.573128
8.8218222 -1.217535 3.3449504 297 0 0 0 51.701046
8.8355608 -0.87067688 3.2429247 375.75 0 0 0 51.076519
9.0411539 -0.72289944 3.1460614 277.5 0 0 0 50.78648
8.6900434 -0.47857255 3.1289895 43 0 0 0 50.397678
18.336815 -0.10679279 3.3718944 17 0 0 0 49.617554
18.64509 0.34956244 3.4290042 119 0 0 0 49.22303
14.670349 2.0931015 3.2825174 127.5 0 0 0 47.270561
-19.611061 3.1342707 3.0867538 28 0 0 0 1.95752
-17.440228 3.2212369 3.1944518 84 0 0 0 2.3501101
18.228827 4.9368219 3.005939 160 0 0 0 45.311913
19.233614 5.7190342 3.1912496 137 0 0 0 44.926193
6.8486624 7.9044518 3.3545194 267.5 0 0 0 35.934261
7.1032405 7.7999558 3.2532806 285 0 0 0 36.322689
8.2389612 8.1885939 3.0033612 259 0 0 0 37.114262
8.6155224 8.1501045 3.2144864 269.5 0 0 0 37.50951
23.245773 8.1712599 3.2979088 91 0 0 0 44.149399
1.8887517 8.9450407 3.3669469 147 0 0 0 27.924419
2.1612833 8.8691216 3.1952014 234.5 0 0 0 28.413723
8.2231998 8.5841732 3.0715904 449 0 0 0 36.722961
1.6444832 9.0497408 3.1227493 227.66667 0 0 0 27.466837
-19.929428 9.6599007 3.4438756 55 0 0 0 6.6433201
-21.032503 10.198603 3.0578518 35 0 0 0 6.6433201
-19.897753 10.252233 3.4805892 47 0 0 0 7.0288301
-21.105547 11.540491 3.1463199 46 0 0 0 7.4223299
26.626175 11.616831 3.164057 30 0 0 0 42.979752
8.8650036 12.484133 3.1839802 77 0 0 0 34.371601
15.579169 13.302248 3.2469077 189 0 0 0 38.290409
-15.694133 14.452289 3.318274 10 0 0 0 11.32018
-15.258568 14.755444 3.3015366 42 0 0 0 11.70963
-13.322766 14.91457 3.1119497 72 0 0 0 12.88176
-7.8952942 14.965997 3.4698968 116 0 0 0 16.7885
-13.016169 15.308811 3.1268146 86 0 0 0 13.26811
-7.4944143 15.08929 3.0418468 128 0 0 0 17.180941
-6.7467985 15.434763 3.4550095 160 0 0 0 17.962021
-6.2888594 15.400493 3.4124563 137 0 0 0 18.358641
-15.527905 15.772314 3.4418306 40 0 0 0 12.10549
-9.7852459 15.664657 3.3319175 73 0 0 0 15.62897
-9.2148256 15.583886 3.266582 70 0 0 0 16.009041
-6.0044742 15.803044 3.0527339 169 0 0 0 18.748791
-10.620354 16.118795 3.0047588 56 0 0 0 15.23475
-5.7667861 16.380358 3.1353762 105 0 0 0 19.13356
-5.3728471 16.543619 3.1406107 61 0 0 0 19.534559
-4.9817562 16.722929 3.1506453 81 0 0 0 19.91811
-4.692687 17.297264 3.2355757 83 0 0 0 20.30678
-3.8251534 17.43475 3.2233558 146 0 0 0 21.09244
-17.503437 17.793285 3.2628467 75 0 0 0 12.10549
-15.629623 17.517754 3.0702791 89 0 0 0 12.88176
-9.9180107 17.771938 3.1669044 116 0 0 0 16.403139
-9.4145603 17.882832 3.1449487 79 0 0 0 16.7885
11.978613 17.736713 3.3748021 71 0 0 0 33.976898
-4.445508 18.146698 3.3719478 69 0 0 0 20.702681
-3.1400824 18.65752 3.4170434 60 0 0 0 21.874331
-2.675751 18.681799 3.4095852 123 0 0 0 22.262461
15.79481 19.037678 3.2884324 16 0 0 0 35.549019
23.475327 19.036051 3.2790596 28 0 0 0 38.68364
-15.048236 19.59071 3.2292523 50 0 0 0 14.05866
-20.730209 20.092075 3.0624826 74 0 0 0 11.70963
-19.933325 20.28618 3.0172153 44 0 0 0 12.10549
-15.502528 21.246048 3.4364486 78 0 0 0 14.44708
-14.156758 21.536549 3.3677261 72 0 0 0 15.23475
-13.490691 21.657732 3.3342724 91 0 0 0 15.62897
-3.6075511 21.517179 3.3964584 80 0 0 0 21.874331
-8.5181303 22.523666 3.1475666 134 0 0 0 18.748791
-7.9389834 22.652155 3.1375029 109 0 0 0 19.13356
-7.3601665 22.770567 3.1280537 71 0 0 0 19.534559
-6.2108326 23.005495 3.1149333 143 0 0 0 20.30678
-5.6409016 23.130281 3.1122272 124 0 0 0 20.702681
-5.0707264 23.250664 3.1114764 126 0 0 0 21.09244
-4.497406 23.353968 3.110698 61 0 0 0 21.4844
1.8466812 23.282207 3.0681012 41 0 0 0 25.77405
2.4087522 23.156025 3.0597119 88 0 0 0 26.167049
16.5201 23.168575 3.0703452 34 0 0 0 34.371601
-3.3552363 23.592884 3.1189854 159 0 0 0 22.262461
-2.2065651 23.847057 3.1366398 128 0 0 0 23.03882
0.74123174 24.459774 3.2105093 112 0 0 0 25.000139
1.3435518 24.489666 3.2190094 45 0 0 0 25.38324
31.717564 25.701654 3.4227445 37 0 0 0 38.68364
-23.690454 -61.048809 3.758884 9 0 0 0 80.528542
22.089531 -57.932564 3.5627878 14 0 0 0 68.786224
-6.6603446 -33.044147 3.6102653 18 0 0 0 77.786179
-2.5356276 -33.06292 3.5529964 16 0 0 0 75.828911
28.483097 -33.332291 3.6220803 53 0 0 0 63.299961
29.728622 -33.111668 3.676362 33 0 0 0 62.900009
-5.7576718 -32.672947 3.5539563 19 0 0 0 77.391434
-4.9189105 -32.554947 3.5274119 9 0 0 0 77.006599
-34.10754 -32.432037 3.8653274 10 0 0 0 87.58075
-29.555811 -30.994959 3.5214949 12 0 0 0 86.800529
-34.925381 -30.096718 3.7861438 48 0 0 0 88.348717
2.8518586 -29.971186 3.9707439 18 0 0 0 73.094284
-35.45546 -29.072304 3.7651393 34 0 0 0 88.73764
0.60554945 -28.28817 3.7330761 24 0 0 0 74.26339
-4.0259061 -26.652714 3.5565917 17 0 0 0 77.006599
-1.3838005 -26.560522 3.5104289 95 0 0 0 75.437927
-10.510281 -25.238819 3.6053536 5 0 0 0 80.915871
-3.1908426 -25.291334 3.9961193 34 0 0 0 76.617104
-2.5727737 -25.378166 3.9988494 30 0 0 0 76.227005
14.273868 -25.45882 3.8483775 63 0 0 0 66.436699
-0.68169379 -24.642805 3.8663092 34 0 0 0 75.051033
-10.891522 -24.450722 3.5296881 20 0 0 0 81.308144
14.38871 -24.253784 3.7195396 81 0 0 0 66.041557
-6.6947212 -23.973587 3.9017718 56 0 0 0 78.956001
-3.5807464 -23.690508 3.7577207 24 0 0 0 77.006599
0.50099128 -23.582716 3.7012184 19 0 0 0 74.26339
14.91395 -23.791842 3.7038743 53 0 0 0 65.655258
16.456182 -23.59898 3.7944722 22 0 0 0 64.865486
26.991577 -23.52445 3.839586 42 0 0 0 60.94669
15.43068 -23.327042 3.689544 87 0 0 0 65.258743
-6.9867444 -22.844509 3.7459249 50 0 0 0 79.352547
27.231195 -22.58386 3.7957025 12 0 0 0 60.556351
-7.7537842 -21.524517 3.5886176 17 0 0 0 80.131317
-7.2771859 -21.865156 3.6145113 19 0 0 0 79.749084
-7.7581725 -19.986179 3.8951874 94 0 0 0 80.528542
-7.964304 -19.116137 3.763382 80 0 0 0 80.915871
-16.842655 -18.554104 3.919112 20 0 0 0 86.406578
-8.1853428 -18.367361 3.6546285 115 0 0 0 81.308144
-39.722542 -17.622885 3.5701239 23 0 0 0 93.040596
-32.987934 -17.637579 3.9859712 11 0 0 0 91.867294
-8.3876867 -17.647089 3.5514183 131 0 0 0 81.706436
-8.5710707 -16.949818 3.9196675 109 0 0 0 82.093742
-8.7649202 -16.328617 3.8247187 131 0 0 0 82.487984
-8.9423399 -15.723622 3.7334232 194 0 0 0 82.877533
-9.1591139 -15.225728 3.6674311 236 0 0 0 83.261589
-9.3684568 -14.745002 3.6058748 223 0 0 0 83.660484
-9.5793877 -14.294866 3.7625208 169.5 0 0 0 84.04213
-9.7874107 -13.859955 3.7099545 180.5 0 0 0 84.427963
-10.778584 -13.105463 3.5017409 24 0 0 0 85.617523
-10.488229 -13.4076 3.5130661 19 0 0 0 85.221054
-9.9742517 -13.418224 3.8602333 234 0 0 0 84.828156
-11.267405 -12.718399 3.5063319 38.5 0 0 0 86.210327
-10.253736 -12.788818 3.7850993 229 0 0 0 85.419289
-12.138751 -12.122019 3.5389812 39 0 0 0 87.188301
-11.809787 -12.384869 3.5305932 22 0 0 0 86.800529
-10.524706 -12.181 3.7171602 147 0 0 0 86.014076
-12.363216 -11.756594 3.5195491 51 0 0 0 87.58075
-10.704632 -11.793593 3.6778545 202 0 0 0 86.406578
-11.097864 -11.085777 3.8138375 108.5 0 0 0 87.188301
-10.875316 -11.408258 3.6396883 163 0 0 0 86.800529
17.606628 -11.291301 3.8154175 57 0 0 0 58.607647
-11.771274 -10.661208 3.6667957 34 0 0 0 87.968269
-11.206527 -10.659705 3.9513519 277 0 0 0 87.58075
-12.21656 -10.273849 3.6854353 58.5 0 0 0 88.543182
-11.381735 -10.308159 3.9231794 248 0 0 0 87.968269
9.4951124 -10.094102 3.9004683 12 0 0 0 62.508606
-12.786545 -9.7265205 3.7089732 63.5 0 0 0 89.334457
-11.621872 -9.7749987 3.8803492 190.5 0 0 0 88.543182
-11.861437 -9.2548351 3.8441923 256 0 0 0 89.141838
10.308232 -9.2274733 3.8963919 126.5 0 0 0 61.139923
-12.013102 -8.9092607 3.8217535 167 0 0 0 89.527069
7.67626 -8.7918777 3.5777688 184 0 0 0 63.099983
8.9244995 -8.6042881 3.6457419 94.5 0 0 0 61.727287
-12.01145 -8.0285683 3.6929238 205 0 0 0 90.31694
-11.887116 -8.3731403 3.7163041 227 0 0 0 89.921875
7.9499173 -8.0552454 3.7518177 166 0 0 0 62.1236
8.4860935 -8.1856918 3.9076531 195 0 0 0 61.727287
-12.116241 -7.6767163 3.6666157 154 0 0 0 90.716812
5.9032764 -7.8634109 3.7447629 157 0 0 0 64.278915
7.3947353 -7.87117 3.5813658 99 0 0 0 62.508606
8.7085409 -7.9976707 3.9191389 91 0 0 0 61.333153
-13.320577 -7.3388186 3.8863673 37.5 0 0 0 91.675644
-12.27842 -7.3649149 3.6602235 41 0 0 0 91.104179
5.9903922 -7.3977017 3.6268401 281 0 0 0 63.697392
6.1410775 -7.215342 3.6107097 153 0 0 0 63.299961
7.0468335 -7.1405754 3.8225791 221 0 0 0 62.1236
10.957418 -7.0353079 3.995506 34 0 0 0 58.607647
-13.701827 -6.906671 3.9207027 84 0 0 0 92.259453
9.7508049 -5.9327745 3.6490824 227 0 0 0 58.208527
19.328224 -4.4607306 3.635627 81 0 0 0 53.132198
12.749352 -3.6146863 3.7495635 133 0 0 0 53.920193
24.977716 -3.2266376 3.9859452 43 0 0 0 51.573128
-16.00725 -1.9987206 3.728905 112 0 0 0 97.737053
15.186689 -1.9647621 3.7617166 191.5 0 0 0 51.573128
18.337988 -0.55794418 3.8257158 12 0 0 0 50.004002
11.381198 -0.067494906 3.7982106 59 0 0 0 49.617554
11.016384 0.48102504 3.9540181 136 0 0 0 48.83218
18.646431 0.34917569 3.8894897 134 0 0 0 49.22303
11.032594 0.75434113 3.965579 108 0 0 0 48.44706
10.933163 1.0186162 3.9383712 128 0 0 0 48.048607
14.758977 1.370496 3.8306098 45 0 0 0 48.048607
15.276918 1.0404359 3.9553509 73 0 0 0 48.44706
11.429288 1.6318374 3.8545284 80 0 0 0 47.270561
15.018622 1.7680926 3.9075551 45 0 0 0 47.667461
14.541385 2.0757473 3.7970786 209 0 0 0 47.270561
-17.186371 3.173224 3.5752697 115 0 0 0 2.3501101
-16.714684 3.0816679 3.8903975 37 0 0 0 2.3501101
-25.249924 4.6774921 3.9879193 17 0 0 0 2.3501101
18.846869 5.1037498 3.591254 87 0 0 0 45.311913
13.711759 5.601615 3.8286967 32 0 0 0 43.3643
10.840453 6.4397516 3.8901441 26 0 0 0 41.024727
12.130314 6.4144864 3.8913832 49 0 0 0 41.798199
12.610458 6.2754412 3.9937289 14 0 0 0 42.193432
8.685463 6.7353916 3.8017168 50.5 0 0 0 39.069759
9.1066933 6.7054744 3.7725968 91 0 0 0 39.461479
11.018654 6.5422382 3.6361938 20 0 0 0 41.024727
10.560606 7.3787189 3.9717486 141 0 0 0 39.854778
11.257292 7.0631223 3.7687459 204 0 0 0 40.623528
6.8432083 7.7748146 3.8768327 304.66666 0 0 0 36.063736
7.0190835 7.7138891 3.7330935 325 0 0 0 36.322689
8.7258387 7.6678915 3.7264833 345 0 0 0 38.096584
9.2621984 7.9372134 3.7598562 428 0 0 0 38.290409
10.321398 7.596725 3.9504869 215 0 0 0 39.461479
11.560414 7.6546831 3.9292798 56 0 0 0 40.237728
8.6780319 8.2112341 3.8302002 230 0 0 0 37.50951
23.247166 8.1717949 3.909441 27 0 0 0 44.149399
12.509806 8.729351 3.9373271 28 0 0 0 39.854778
13.807522 8.6547565 3.8031049 49 0 0 0 40.623528
1.5693978 9.0726337 3.5016878 154 0 0 0 27.33717
14.248962 9.4215908 3.5642371 31 0 0 0 40.237728
-20.094791 10.983958 3.5606902 36 0 0 0 7.4223299
-1.06634 10.982735 3.6357939 155 0 0 0 23.03882
-0.66730553 11.064525 3.7892954 173.5 0 0 0 23.629986
15.054167 11.05073 3.8908319 79 0 0 0 39.461479
-19.933657 11.536966 3.5809512 89 0 0 0 7.8174
14.954724 11.55335 3.9357994 23 0 0 0 39.069759
15.210534 11.749633 3.5279508 37 0 0 0 39.069759
26.517529 11.575263 3.864604 83 0 0 0 42.979752
8.8017483 12.401288 3.5357966 131 0 0 0 34.371601
13.088152 12.345309 3.7448955 33 0 0 0 37.50951
5.7840867 12.944689 3.990329 89 0 0 0 31.245581
8.4528122 12.55287 3.5175297 122 0 0 0 33.976898
9.4062452 12.582722 3.6526458 102 0 0 0 34.760601
7.6286936 13.356876 3.7593961 70.5 0 0 0 32.805382
8.5975523 13.465281 3.709727 93 0 0 0 33.591881
15.420154 13.167708 3.7175548 154 0 0 0 38.290409
16.266178 13.211547 3.8417037 16 0 0 0 38.68364
-14.476691 13.993404 3.6292663 70 0 0 0 11.70963
-13.746387 13.949554 3.7699542 77 0 0 0 12.10549
11.024163 13.997782 3.7014811 36 0 0 0 35.1465
15.234912 13.670295 3.7511301 121 0 0 0 37.90276
-13.58079 14.473981 3.5781178 82 0 0 0 12.49236
-15.799442 14.549103 3.8701384 67 0 0 0 11.32018
-13.277316 14.862487 3.59287 76 0 0 0 12.88176
-10.973873 14.997568 3.8077524 61 0 0 0 14.44708
-9.2406969 14.783412 3.5738604 31 0 0 0 15.62897
-7.9000354 14.967718 3.883702 111 0 0 0 16.7885
-6.9558296 14.89568 3.7735229 96 0 0 0 17.575541
-12.792763 15.043188 3.5603163 64 0 0 0 13.26811
-7.640696 15.37856 3.9404199 70 0 0 0 17.180941
-6.619853 15.131909 3.7913256 117 0 0 0 17.962021
6.4640441 15.441484 3.8744912 10 0 0 0 30.848949
6.9205117 15.453546 3.9201055 69 0 0 0 31.245581
30.349358 15.050968 3.6820598 36 0 0 0 42.193432
-12.714002 15.715789 3.6442184 51 0 0 0 13.66311
-9.3149633 15.754018 3.750957 87 0 0 0 16.009041
-6.3510861 15.545987 3.8547184 78 0 0 0 18.358641
-8.1802483 16.486324 3.7723219 62 0 0 0 17.180941
-15.845059 16.906338 3.6022727 31 0 0 0 12.49236
-6.2883077 16.559977 3.6323888 96 0 0 0 18.748791
-5.513402 16.981915 3.6614766 58 0 0 0 19.534559
-8.0450344 17.268721 3.9042113 65 0 0 0 17.575541
-5.0952425 17.108803 3.6610844 137 0 0 0 19.91811
-9.9196091 17.77367 3.6698418 158 0 0 0 16.403139
-9.4182024 17.888601 3.6452181 110 0 0 0 16.7885
12.109986 17.931692 3.9480836 50 0 0 0 33.976898
-3.5872645 18.525686 3.8707399 105 0 0 0 21.4844
-3.1270347 18.573864 3.8647842 85 0 0 0 21.874331
-2.7093627 18.919294 3.9223309 85 0 0 0 22.262461
-2.2158344 18.721741 3.870497 88 0 0 0 22.652651
-1.7859309 19.099092 3.9388864 115 0 0 0 23.03882
-15.026094 19.560604 3.8332691 44 0 0 0 14.05866
-2.3309712 19.739092 3.5904942 122 0 0 0 22.652651
14.757007 19.679216 3.8765433 33 0 0 0 34.760601
-19.158998 20.466253 3.6620445 66 0 0 0 12.49236
38.62751 20.343578 3.670959 31 0 0 0 41.798199
-17.646564 20.798218 3.5633538 75 0 0 0 13.26811
-1.9314615 20.740107 3.7624969 93 0 0 0 23.03882
-13.498234 21.668608 3.9664216 82 0 0 0 15.62897
-12.843381 21.785709 3.9294355 61 0 0 0 16.009041
-9.6921415 22.269089 3.774416 111 0 0 0 17.962021
-9.1041098 22.399481 3.7577412 120 0 0 0 18.358641
-8.5154648 22.514519 3.7410965 132 0 0 0 18.748791
-7.9353428 22.63946 3.7285974 101 0 0 0 19.13356
-7.3623347 22.774965 3.7201879 67 0 0 0 19.534559
17.040564 22.709227 3.7648339 21 0 0 0 34.760601
-6.2144198 23.016056 3.7056284 94 0 0 0 20.30678
-5.6341057 23.098711 3.6957576 152 0 0 0 20.702681
1.8537621 23.379341 3.661191 101 0 0 0 25.77405
2.4228656 23.296413 3.6577823 92 0 0 0 26.167049
-3.3575773 23.603693 3.7099698 16 0 0 0 22.262461
-2.784384 23.729685 3.7190514 43 0 0 0 22.652651
-2.2075813 23.848644 3.7292295 19 0 0 0 23.03882
3.0340018 23.539635 3.707479 91 0 0 0 26.564541
16.879961 23.68191 3.8534164 27 0 0 0 34.371601
0.73913032 24.425947 3.8108006 105 0 0 0 25.000139
1.3463819 24.555323 3.8361316 111 0 0 0 25.38324
-21.232111 -47.671669 4.2995596 6 0 0 0 81.308144
-30.975748 -41.668232 4.2662826 7 0 0 0 84.828156
-31.422447 -40.176937 4.1907029 8 0 0 0 85.221054
31.130219 -40.259018 4.197165 9 0 0 0 64.079437
32.432831 -39.884892 4.2400246 7 0 0 0 63.697392
-32.013123 -38.930157 4.1406288 11 0 0 0 85.617523
-32.464062 -37.565651 4.0784574 29 0 0 0 86.014076
-8.5228176 -37.529568 4.1168947 14 0 0 0 78.178879
-0.9094525 -33.142788 4.3681588 22 0 0 0 75.051033
-0.095774487 -32.146221 4.2364841 15 0 0 0 74.661514
-24.734743 -30.076704 4.152535 3447 0 0 0 85.617523
-28.696354 -28.654993 4.3206306 8 0 0 0 87.188301
28.674015 -27.571552 4.2595048 46 0 0 0 61.727287
1.2481627 -27.214951 4.2699471 13 0 0 0 73.867935
27.19615 -27.46493 4.1388712 29 0 0 0 62.1236
28.515009 -26.106033 4.1417131 51 0 0 0 61.333153
-5.2065434 -25.833023 4.1294346 15 0 0 0 77.786179
-1.3368477 -25.63958 4.0250597 70 0 0 0 75.437927
-0.081569076 -25.922352 4.0640502 16 0 0 0 74.661514
-6.3789692 -25.210688 4.0751443 59 0 0 0 78.564285
-4.1218328 -23.380764 4.3110809 47 0 0 0 77.391434
-7.2525711 -21.789993 4.1704168 11 0 0 0 79.749084
-7.5207458 -20.875517 4.0303993 64 0 0 0 80.131317
-8.1858273 -18.367737 4.1492119 140 0 0 0 81.308144
-8.3901272 -17.651587 4.0329075 134 0 0 0 81.706436
-8.9514589 -15.745593 4.1812649 157 0 0 0 82.877533
-9.1671371 -15.244668 4.1066818 211 0 0 0 83.261589
-9.3898029 -14.783934 4.0432901 140 0 0 0 83.660484
-18.284533 -14.262684 4.2014675 30 0 0 0 89.141838
-10.175711 -13.011946 4.2191739 76 0 0 0 85.221054
-10.352841 -12.591463 4.1638236 260 0 0 0 85.617523
-10.537098 -12.195125 4.1168561 179 0 0 0 86.014076
-10.718003 -11.808129 4.0736012 255 0 0 0 86.406578
-10.883656 -11.416828 4.029387 255 0 0 0 86.800529
17.509184 -11.22982 4.3071494 34 0 0 0 58.607647
-11.645359 -9.5532398 4.2226028 5 0 0 0 88.73764
-11.864555 -9.2571821 4.2187452 195 0 0 0 89.141838
9.9861555 -9.1617546 4.1506739 206 0 0 0 61.333153
26.900444 -9.0547915 4.475059 41 0 0 0 54.700741
-12.086331 -8.7371387 4.181499 258.5 0 0 0 89.724472
10.186586 -8.7525063 4.2257609 179.33333 0 0 0 60.816574
-12.323724 -8.2372656 4.1560879 321 0 0 0 90.31694
9.2453623 -8.4830093 4.4648509 126 0 0 0 61.333153
9.9738522 -8.2927036 4.2973371 169 0 0 0 60.556351
10.388828 -8.2129412 4.2227945 105.5 0 0 0 60.168221
-12.639209 -7.5813017 4.1327338 319 0 0 0 91.104179
-12.480451 -7.9074497 4.1426587 295 0 0 0 90.716812
7.232296 -7.6947079 4.0211167 221 0 0 0 62.508606
9.0789375 -7.930469 4.2918482 162 0 0 0 60.94669
10.754883 -7.6782823 4.3799672 39 0 0 0 59.380169
-12.771913 -7.2421117 4.1171975 188 0 0 0 91.483994
10.462561 -7.0900249 4.1916814 41 0 0 0 58.996166
-13.061007 -6.5836983 4.1019983 168 0 0 0 92.259453
-12.935524 -6.9223299 4.1142797 289 0 0 0 91.867294
10.291866 -6.9701147 4.4286532 133 0 0 0 58.996166
