# .PCD v0.7 - Point Cloud Data file format
VERSION 0.7
FIELDS x y z intensity normal_x normal_y normal_z curvature
SIZE 4 4 4 4 4 4 4 4
TYPE F F F F F F F F
COUNT 1 1 1 1 1 1 1 1
WIDTH 952
HEIGHT 1
VIEWPOINT 0 0 0 1 0 0 0
POINTS 952
DATA ascii
-19.834988 -6.0228753 2.7309384 166 0 0 0 94.911194
-25.683496 -5.7706537 2.8128226 53 0 0 0 96.056435
-15.175801 -5.0177736 2.5084312 46 0 0 0 94.517357
-15.295701 -4.6444459 2.9042115 168 0 0 0 94.911194
-5.6701069 -3.9956219 2.6383607 115 0 0 0 89.830521
-5.3205543 -3.9475188 2.520983 793 0 0 0 89.431648
9.9835911 -2.7690258 2.6653202 423 0 0 0 53.859871
10.023463 -2.6044273 2.8367712 424 0 0 0 53.603252
13.003749 -2.5900114 2.7495117 245 0 0 0 52.685352
14.54748 -2.5254164 2.6936445 233 0 0 0 52.300098
16.248549 -2.4094467 2.7874498 159 0 0 0 51.91143
24.883682 -1.82976 2.6759446 130 0 0 0 50.735939
49.992485 -1.2144053 2.8649306 23 0 0 0 49.965019
-35.962521 0.87851882 2.9608319 20 0 0 0 0
14.568993 6.9212475 2.754806 504.5 0 0 0 42.541031
14.282427 7.2215319 2.7343688 489 0 0 0 42.15461
-26.487022 7.9847164 2.9588339 90 0 0 0 4.2982502
13.841874 7.652503 2.9002354 504.5 0 0 0 41.567108
14.008282 7.5221295 2.5203035 541 0 0 0 41.763992
13.28572 8.2244759 2.8670225 554.5 0 0 0 40.786598
-25.935951 8.51614 2.9218366 128 0 0 0 4.6796198
12.739822 8.7827902 2.8408728 536.5 0 0 0 40.006626
-25.401123 9.0347738 2.8877466 95 0 0 0 5.0738602
8.0475006 9.4020309 2.7417383 281 0 0 0 35.901031
12.203876 9.3325996 2.8220608 549.5 0 0 0 39.227036
-24.879816 9.5413065 2.8562438 118 0 0 0 5.4663901
7.7132092 9.7166882 2.7489762 772.5 0 0 0 35.311741
11.810621 9.7442198 2.8133099 511 0 0 0 38.642288
-24.378496 10.039938 2.8280671 135 0 0 0 5.8496099
6.9478874 10.494741 2.7890749 806 0 0 0 33.949741
7.2773142 10.157227 2.7690082 792.25 0 0 0 34.530052
11.283693 10.284082 2.8063552 543 0 0 0 37.85519
11.549541 10.016948 2.80966 546 0 0 0 38.244968
-28.272892 10.848637 2.508425 58 0 0 0 5.4663901
-23.876884 10.523821 2.8009055 144 0 0 0 6.2393298
6.4999781 10.951644 2.6658463 865 0 0 0 33.158669
6.6500511 10.800122 2.862792 819.33331 0 0 0 33.42165
10.753311 10.816749 2.8047054 613 0 0 0 37.074966
11.01886 10.551021 2.8048217 578 0 0 0 37.469994
-23.395088 11.002799 2.7770841 118 0 0 0 6.6340899
-22.919352 11.472142 2.7550189 137 0 0 0 7.0283098
6.1941609 11.264783 2.7959414 827 0 0 0 32.643726
10.365594 11.227341 2.8107529 511 0 0 0 36.485703
-29.032959 11.965151 2.601964 45 0 0 0 5.8496099
-22.443535 11.929524 2.7339659 112 0 0 0 7.4097099
5.682189 11.778568 2.7372935 865.5 0 0 0 31.794395
-21.984226 12.384738 2.715951 36 0 0 0 7.80793
-18.485079 12.271111 2.9398549 136 0 0 0 8.9793396
-14.996196 12.218349 2.5715375 207 0 0 0 10.53044
-11.683347 12.167295 2.6674452 181 0 0 0 12.48033
-11.280421 12.338055 2.6448727 280 0 0 0 12.87352
-8.272625 12.245534 2.7108936 369 0 0 0 15.22443
-7.8541861 12.262021 2.6724195 346 0 0 0 15.60476
-7.2362981 12.262627 2.7899022 358.5 0 0 0 16.18988
-6.6357403 12.252663 2.7317057 386 0 0 0 16.771
-6.2522945 12.251062 2.6974115 440.5 0 0 0 17.16054
-5.6947289 12.246305 2.8162076 422.5 0 0 0 17.751606
-5.1466804 12.224332 2.7670352 406 0 0 0 18.34046
-4.7856278 12.192741 2.7335448 125 0 0 0 18.725309
-4.3218384 12.327736 2.7274337 440 0 0 0 19.312809
5.3184628 12.148082 2.7752035 851 0 0 0 31.218559
19.505531 12.394169 2.504941 156 0 0 0 40.588921
20.228075 12.164768 2.5566213 105 0 0 0 40.98428
21.321959 12.117653 2.653707 64 0 0 0 41.37022
-29.302483 12.925286 2.6551239 81 0 0 0 6.2393298
-18.174604 12.716885 2.9405453 164 0 0 0 9.3633604
-14.696581 12.585361 2.5734427 223 0 0 0 10.92924
-3.7891216 12.793074 2.7861843 395 0 0 0 20.094925
-21.860043 13.030409 2.7405832 104 0 0 0 8.1918497
-11.316795 13.006268 2.727679 72 0 0 0 13.2663
-3.2452769 13.336281 2.6977239 377 0 0 0 20.870195
0.24661568 13.030305 2.7269809 65 0 0 0 24.972919
-28.76775 13.540281 2.6381474 61 0 0 0 6.6340899
-2.8151398 13.756395 2.7596972 364 0 0 0 21.458401
3.7462668 13.789034 2.8115983 320 0 0 0 28.87192
-19.661501 14.499717 2.6380227 81 0 0 0 9.7559404
-16.105583 14.498681 2.8800538 175 0 0 0 11.31006
-11.937872 14.426964 2.7297509 87.5 0 0 0 13.65454
-11.370599 14.445846 2.9086714 41 0 0 0 14.04714
-10.792921 14.423798 2.8517475 26 0 0 0 14.43684
-10.260296 14.434763 2.8048375 30 0 0 0 14.83029
-2.515835 14.046989 2.8045242 379.5 0 0 0 21.83976
-2.2049105 14.338362 2.672395 368 0 0 0 22.229719
-18.703115 14.511533 2.5586009 53 0 0 0 10.14442
-15.352693 14.515525 2.8099978 82 0 0 0 11.69625
-14.646761 14.542215 2.7469192 17 0 0 0 12.09233
-1.8850793 14.65406 2.7215176 324 0 0 0 22.62388
-1.5548346 15.000763 2.7775862 290 0 0 0 23.01906
-1.2067546 15.31441 2.8289826 267 0 0 0 23.401211
-0.84684241 15.674375 2.6959724 291.5 0 0 0 23.798849
2.2623734 15.744445 2.9296939 329 0 0 0 26.927259
2.6751921 15.836841 2.957947 196 0 0 0 27.309931
-0.33904222 16.161356 2.7082007 252 0 0 0 24.315262
-28.75448 18.127653 2.8286254 10 0 0 0 8.5819197
81.798279 27.069111 2.842366 14 0 0 0 44.49577
-9.3872547 -54.005684 3.0926924 12 0 0 0 77.322083
-22.366621 -53.960712 3.2955742 9 0 0 0 80.82991
-14.869705 -53.674843 3.1425917 5 0 0 0 78.879883
-13.4797 -53.750114 3.1266418 16 0 0 0 78.486305
-12.097835 -53.802307 3.1114445 24 0 0 0 78.099907
-10.706948 -53.745739 3.0920894 14 0 0 0 77.710251
-5.2827148 -53.465557 3.031595 21 0 0 0 76.146675
2.6056952 -53.3988 3.0168703 11 0 0 0 73.797348
5.2192826 -53.17371 3.0152254 16 0 0 0 73.018188
4.1342473 -42.095371 3.4474704 18 0 0 0 73.018188
-9.1118393 -36.337021 3.0575898 9 0 0 0 78.486305
10.061843 -36.408581 3.0815716 33 0 0 0 70.27433
12.884416 -36.048271 3.1222243 16 0 0 0 69.104919
10.304254 -31.239498 3.487045 8 0 0 0 69.497635
14.022664 -29.683279 3.4800744 16 0 0 0 67.54673
14.693861 -29.224686 3.4677405 11 0 0 0 67.149117
0.68999386 -28.70598 3.0488381 9 0 0 0 74.187859
16.41588 -27.416731 3.3888791 10 0 0 0 65.983482
-58.224339 -16.109324 3.4381671 15 0 0 0 95.296112
4.6468587 -13.036137 3.1919422 95 0 0 0 69.104919
4.3191867 -12.605261 3.4016962 31.5 0 0 0 69.301277
5.0334568 -12.196619 3.20667 54 0 0 0 68.324722
4.5073318 -11.733449 3.2108278 21 0 0 0 68.709885
5.261889 -11.913031 3.0061831 114 0 0 0 67.93557
5.8780065 -11.715804 3.0257385 45 0 0 0 67.149117
18.439369 -11.687132 3.410311 21 0 0 0 58.542809
-0.015203847 -11.011791 3.0886266 17 0 0 0 74.573845
4.5538001 -11.04114 3.3494005 45 0 0 0 68.324722
-0.27811515 -10.793066 3.2939169 9 0 0 0 74.9758
9.3363161 -10.846973 3.3027325 38 0 0 0 63.245327
18.106329 -10.86265 3.3002274 20 0 0 0 58.15588
-3.1813648 -10.457958 3.3334873 67 0 0 0 79.273994
-2.8370028 -10.216899 3.2345238 79 0 0 0 78.879883
4.6691623 -10.35064 3.2804101 105 0 0 0 67.805962
5.5175838 -10.361163 3.0018587 69 0 0 0 66.756958
11.353675 -10.311608 3.1626592 39 0 0 0 61.287621
18.490898 -10.484237 3.3226311 19 0 0 0 57.765926
19.897816 -10.02289 3.4818914 17 0 0 0 56.985554
-3.1983268 -9.6480789 3.3527179 17 0 0 0 79.656464
-2.7868149 -9.5684109 3.2881842 62 0 0 0 79.076935
-2.3586264 -9.8762808 3.3497949 15 0 0 0 78.293106
2.3915746 -9.6167679 3.0276437 153 0 0 0 70.673203
5.2785892 -9.6211338 3.3514557 76.5 0 0 0 66.564468
10.477583 -9.5153875 3.2681904 121 0 0 0 61.287621
11.303003 -9.7691402 3.2645624 36.5 0 0 0 60.89476
18.332455 -9.8076305 3.2513294 53 0 0 0 57.372887
1.1179141 -9.184062 3.2833943 43 0 0 0 72.622437
4.7080631 -9.3941174 3.3401954 22 0 0 0 67.149117
5.7595425 -9.1271944 3.2970145 61 0 0 0 65.586243
-4.7716026 -8.6553421 3.1386142 1076 0 0 0 82.594284
-0.6725601 -8.9506483 3.4043467 236 0 0 0 75.748367
0.40393394 -8.5172882 3.2365391 169 0 0 0 73.797348
1.2548784 -8.5613403 3.1795497 151 0 0 0 72.234955
5.155807 -8.6381035 3.2012346 103.5 0 0 0 65.983482
5.8172283 -8.7388592 3.3377829 97 0 0 0 65.192062
6.7468238 -8.67206 3.3570933 26 0 0 0 64.01635
10.58042 -8.7008457 3.1650736 91 0 0 0 60.500591
21.640131 -8.9669113 3.0806026 36 0 0 0 55.813568
0.70812535 -8.3977623 3.1997979 256 0 0 0 73.21051
1.2114048 -8.2738295 3.0720439 48 0 0 0 72.232338
1.8459953 -8.3065987 3.2319453 105 0 0 0 71.063881
6.2806334 -8.4968452 3.2295003 276 0 0 0 64.418091
6.8065796 -8.321106 3.1540523 73 0 0 0 63.6283
8.0026693 -8.0265083 3.1846249 187 0 0 0 62.068527
8.6981306 -8.1005039 3.1896019 105.5 0 0 0 61.481377
9.2689991 -8.0155449 3.1362715 212 0 0 0 60.89476
-39.764977 -7.914794 3.3296986 50 0 0 0 96.458
4.4895592 -7.9658113 3.0246575 81 0 0 0 66.371979
5.7896595 -7.8336167 3.4601562 27 0 0 0 64.418091
6.3814306 -7.8056164 3.3334584 207 0 0 0 63.6283
6.6065569 -7.6859384 3.2259789 186.5 0 0 0 63.245327
8.2280664 -7.8543158 3.4762008 30 0 0 0 61.675129
8.7217531 -7.9266248 3.3105423 221 0 0 0 61.287621
9.5598373 -7.8651218 3.4761112 129 0 0 0 60.500591
18.654806 -7.7328982 3.1615331 100 0 0 0 55.813568
5.297811 -7.360363 3.112596 45.5 0 0 0 64.609955
6.9314299 -7.3053064 3.205091 221 0 0 0 62.4548
7.2082562 -7.2336354 3.3772724 67 0 0 0 62.068527
19.020195 -7.3418112 3.1921761 66 0 0 0 55.418861
22.298162 -7.3670974 3.0905745 24 0 0 0 54.646511
-27.362486 -6.8573527 3.011431 43 0 0 0 95.673157
-24.17363 -6.6972375 3.2979116 22 0 0 0 95.296112
-10.541112 -6.6785102 3.189431 160 0 0 0 90.608795
-5.9788623 -6.9307594 3.4707201 22 0 0 0 85.910767
19.529236 -6.9915843 3.2477698 21 0 0 0 55.0396
-31.438885 -6.257618 3.418205 24 0 0 0 96.458
-24.465981 -6.1360111 3.3163846 112 0 0 0 95.673157
-11.001262 -6.2362671 3.2322414 73 0 0 0 91.38694
-10.242908 -6.4895091 3.4008405 66 0 0 0 90.608795
19.29562 -6.3776932 3.1834221 23 0 0 0 54.646511
21.111465 -6.4056964 3.4532421 28 0 0 0 54.248688
-19.512236 -5.9249191 3.1913452 82 0 0 0 94.911194
-24.03126 -5.4038677 3.2396071 50 0 0 0 96.056435
-13.268798 -5.1245894 3.2844799 45 0 0 0 93.734154
-15.138131 -4.5966392 3.2635264 221 0 0 0 94.911194
11.127408 -4.6191368 3.3896334 226 0 0 0 55.813568
-11.349204 -4.0661263 3.3835466 155 0 0 0 94.129395
-9.6389427 -4.2776513 3.3522997 534.5 0 0 0 92.94577
-25.84762 -3.8421299 3.4357953 22 0 0 0 97.23439
8.9878349 -3.7315094 3.4663219 191 0 0 0 55.813568
10.457148 -3.7488372 3.4034841 449 0 0 0 55.0396
-9.0389051 -3.4906206 3.2025032 38 0 0 0 93.734154
10.307181 -3.3201339 3.1422017 349 0 0 0 54.513905
9.9902163 -2.5079441 3.2887218 388.5 0 0 0 53.474941
10.029976 -2.7819948 3.3223617 242 0 0 0 53.859871
12.893373 -2.5663226 3.0489025 233 0 0 0 52.685352
14.370125 -2.4953513 3.020879 210 0 0 0 52.300098
24.866163 -1.825191 3.2880139 146 0 0 0 50.735939
16.715664 -1.230315 3.4680035 52 0 0 0 50.735939
-10.419774 -0.77386308 3.4536128 190 0 0 0 98.410522
19.204838 -0.93801284 3.4990501 171 0 0 0 50.35228
21.708883 -0.52445579 3.4087894 45 0 0 0 49.965019
18.458065 -0.44697025 3.3623869 51 0 0 0 49.965019
21.857029 0.0095686121 3.4316306 21 0 0 0 49.567162
25.595938 0.012429165 3.3772566 96 0 0 0 49.567162
25.637007 0.64287394 3.3846374 58 0 0 0 49.174641
31.846556 0.79429984 3.4101861 26 0 0 0 49.174641
14.919241 1.1107551 3.470876 223 0 0 0 48.404179
25.992344 1.2917306 3.4350955 11 0 0 0 48.786499
-32.509792 2.3638802 3.4618399 119 0 0 0 0.78523999
14.566778 6.919054 3.3520505 424 0 0 0 42.541031
-35.91185 7.0963521 3.0094569 23 0 0 0 2.7355299
14.269588 7.2139215 3.3246148 444 0 0 0 42.15461
-35.832378 7.9972177 3.0205669 15 0 0 0 3.1247001
13.846184 7.6539822 3.2912874 482.5 0 0 0 41.567108
13.289415 8.2258396 3.2532401 510 0 0 0 40.786598
12.742561 8.7841949 3.2231889 490 0 0 0 40.006626
8.0406704 9.3948307 3.1958106 186 0 0 0 35.901031
12.197334 9.3268108 3.1992266 567.5 0 0 0 39.227036
7.7026625 9.7043324 3.2025394 701.5 0 0 0 35.311741
11.802915 9.7371397 3.1888025 583 0 0 0 38.642288
-24.399059 10.041969 3.4770908 121 0 0 0 5.8496099
6.9465923 10.493814 3.2528653 720 0 0 0 33.949741
7.2722015 10.151031 3.227881 637.5 0 0 0 34.530052
11.278637 10.278742 3.1813793 581 0 0 0 37.85519
11.539108 10.007187 3.1837869 556 0 0 0 38.244968
-23.887157 10.521909 3.4418206 138 0 0 0 6.2393298
6.4983306 10.951908 3.2915156 636 0 0 0 33.158669
6.7216392 10.718161 3.2700915 765 0 0 0 33.553139
10.75269 10.81537 3.1805656 524 0 0 0 37.074966
11.016083 10.54762 3.1801705 542 0 0 0 37.469994
-23.412235 11.004436 3.4131269 161 0 0 0 6.6340899
-22.91304 11.462513 3.382185 131 0 0 0 7.0283098
6.1119709 11.336796 3.2230251 765.33331 0 0 0 32.516052
10.353939 11.213974 3.1839616 535 0 0 0 36.485703
-35.743183 11.749089 3.1043341 39 0 0 0 4.6796198
-22.44931 11.926129 3.3576889 129 0 0 0 7.4097099
5.7193952 11.736652 3.1597147 726 0 0 0 31.859175
-21.982712 12.377386 3.3340719 66 0 0 0 7.80793
-18.459515 12.252771 3.4823942 155 0 0 0 8.9793396
-15.004443 12.223964 3.0502863 206 0 0 0 10.53044
-11.665039 12.146608 3.2852168 203 0 0 0 12.48033
-11.286642 12.343414 3.2641206 210 0 0 0 12.87352
-8.285718 12.261466 3.2583652 266.5 0 0 0 15.22443
-7.862411 12.271325 3.2101991 301 0 0 0 15.60476
-7.2401295 12.262689 3.3126838 322 0 0 0 16.18988
-6.6346145 12.2442 3.2410982 346 0 0 0 16.771
-6.25563 12.251144 3.2025535 362 0 0 0 17.16054
-5.699491 12.249685 3.3127942 389.25 0 0 0 17.751606
-5.1551428 12.237506 3.2574391 337 0 0 0 18.34046
-4.8053956 12.236337 3.2257886 155 0 0 0 18.725309
-4.3281336 12.33783 3.2096975 340.75 0 0 0 19.312809
5.1913309 12.273453 3.1156435 507.5 0 0 0 31.021395
19.487764 12.386576 3.0717173 94 0 0 0 40.588921
20.204647 12.154391 3.1347206 85 0 0 0 40.98428
21.231262 12.069967 3.2443619 56 0 0 0 41.37022
27.096909 12.044918 3.1952136 41 0 0 0 42.941738
-35.710129 12.715888 3.1297696 29 0 0 0 5.0738602
-18.200405 12.733714 3.4927015 146 0 0 0 9.3633604
-14.684422 12.573754 3.0481908 201 0 0 0 10.92924
-3.7961423 12.80734 3.2798464 353.75 0 0 0 20.094925
4.820972 12.678534 3.1704614 191 0 0 0 30.431669
19.099108 12.809942 3.0603414 115 0 0 0 40.199753
-21.901562 13.048605 3.370611 86 0 0 0 8.1918497
-3.2507668 13.347621 3.2048419 357.5 0 0 0 20.870195
-2.8203084 13.768509 3.2785459 310 0 0 0 21.458401
-11.943635 14.432301 3.4250391 65 0 0 0 13.65454
-10.808012 14.443028 3.3010716 195 0 0 0 14.43684
-10.243246 14.409553 3.2366927 150 0 0 0 14.83029
-2.5219297 14.066162 3.3335872 338 0 0 0 21.83976
-2.2103274 14.36478 3.2124486 315 0 0 0 22.229719
17.71533 14.235014 3.0281389 113 0 0 0 38.839741
-19.705488 14.525557 3.2439051 88 0 0 0 9.7559404
-18.773066 14.559402 3.1503482 104 0 0 0 10.14442
-16.114859 14.50579 3.4167764 159 0 0 0 11.31006
-15.385311 14.545266 3.3384242 43 0 0 0 11.69625
-14.672104 14.566281 3.261858 103 0 0 0 12.09233
-11.420431 14.50847 3.3771827 12 0 0 0 14.04714
-1.8888212 14.672388 3.2697139 288 0 0 0 22.62388
17.133116 14.840504 3.0214489 120 0 0 0 38.244968
-1.5555333 15.006866 3.1498287 280 0 0 0 23.01906
-1.2081343 15.331928 3.210542 321 0 0 0 23.401211
-0.84779572 15.691863 3.2801325 253 0 0 0 23.798849
2.2631106 15.748634 3.3222394 259 0 0 0 26.927259
2.6732643 15.824862 3.3509614 178 0 0 0 27.309931
-0.20790958 16.306786 3.2687633 238.66667 0 0 0 24.445908
0.7719146 17.260292 3.1786811 191 0 0 0 25.35812
1.2328113 17.74193 3.2710891 167 0 0 0 25.75267
1.7159175 18.191471 3.3598869 148 0 0 0 26.141109
2.231303 18.704866 3.4627881 136 0 0 0 26.52651
-15.208214 19.354622 3.2766116 27 0 0 0 14.04714
4.2495341 19.256748 3.1346948 193 0 0 0 28.09236
4.7129517 19.111652 3.1289403 113 0 0 0 28.48185
-14.739347 19.735371 3.2799866 20 0 0 0 14.43684
-42.096836 -53.924934 3.8620133 10 0 0 0 85.127151
7.8063436 -45.053761 3.7235911 7 0 0 0 71.847473
-14.526152 -43.948837 3.7701631 15 0 0 0 79.656464
2.7489913 -37.444889 3.9758482 12 0 0 0 73.40284
-9.1162968 -36.35429 3.969075 15 0 0 0 78.486305
11.492416 -32.162868 3.6191034 5 0 0 0 69.104919
15.862815 -29.707848 3.5692482 11 0 0 0 66.756958
18.473444 -29.198296 3.6613362 10 0 0 0 65.586243
-3.5287118 -28.543289 3.7604508 20 0 0 0 76.538147
-6.2130437 -27.635965 3.7042463 11 0 0 0 78.099907
19.601456 -27.85516 3.6102602 16 0 0 0 64.801811
20.675398 -27.899218 3.6802385 21 0 0 0 64.418091
-5.4667878 -27.445086 3.6599507 10 0 0 0 77.710251
-4.7595596 -27.383915 3.6353261 8 0 0 0 77.322083
4.8940291 -12.734861 3.8208067 18 0 0 0 68.709885
-0.60888904 -12.152689 3.7080779 36 0 0 0 75.360916
-0.012499125 -12.275107 3.7407608 16 0 0 0 74.573845
0.29050064 -12.354457 3.7659333 14 0 0 0 74.187859
4.0547194 -12.328779 3.6361296 12 0 0 0 69.497635
-0.60208005 -11.967272 3.948071 15 0 0 0 75.360916
-0.30225569 -11.715682 3.8623192 57 0 0 0 74.9758
4.6764598 -11.736329 3.8517289 12.5 0 0 0 68.517303
5.2858768 -11.213484 3.7804143 67 0 0 0 67.54673
4.4881678 -10.883858 3.8826456 16 0 0 0 68.324722
-2.256402 -10.008536 3.8861563 17 0 0 0 78.099907
-0.51169604 -10.178488 3.861414 59 0 0 0 75.360916
5.0297556 -10.026376 3.9766929 29 0 0 0 67.149117
-2.8642519 -9.851593 3.6352382 14 0 0 0 79.076935
-2.4335141 -9.6803293 3.5373783 31 0 0 0 78.486305
-0.012504341 -9.9669333 3.5336008 51 0 0 0 74.573845
5.1465402 -9.6691151 3.6157892 48 0 0 0 66.756958
8.6805162 -9.6021366 3.6307735 93 0 0 0 62.848049
11.756793 -9.66574 3.8862085 23 0 0 0 60.500591
17.085085 -9.6894655 3.5598285 27 0 0 0 57.765926
-2.5922773 -9.3361912 3.6715698 23 0 0 0 78.879883
4.9959717 -9.3802872 3.7698658 116 0 0 0 66.756958
5.307219 -9.1395769 3.7498441 42 0 0 0 66.177734
5.6579847 -8.9708958 3.5031016 61 0 0 0 65.586243
8.8460312 -8.8663654 3.8231628 119 0 0 0 62.068527
6.0593486 -8.1969967 3.8689625 151 0 0 0 64.418091
8.8042612 -8.0021887 3.9289885 30 0 0 0 61.287621
9.0935631 -8.2608223 3.7516716 32 0 0 0 61.287621
18.311571 -8.1244822 3.6324036 92 0 0 0 56.198566
-11.576864 -7.7394705 3.9009168 54 0 0 0 90.22097
6.2476859 -7.8329253 3.680985 147.25 0 0 0 63.822327
6.6098814 -7.6864376 3.7247705 93 0 0 0 63.245327
7.8404055 -7.6702452 3.8941092 225.5 0 0 0 61.871826
8.0312576 -7.670258 3.6697383 123 0 0 0 61.675129
8.9522009 -7.7438564 3.9095449 160 0 0 0 60.89476
9.0204363 -7.7994804 3.6430509 232 0 0 0 60.89476
-19.769329 -7.0795612 3.8041296 15 0 0 0 94.129395
-11.855224 -7.1103058 3.5302217 18 0 0 0 91.008766
6.7545061 -7.4755058 3.8259969 38 0 0 0 62.848049
18.24085 -7.0423923 3.5476689 30 0 0 0 55.418861
-20.318953 -6.7187128 3.876694 95 0 0 0 94.517357
-11.519556 -6.5302877 3.7116163 286 0 0 0 91.38694
-9.8228045 -6.5686383 3.6048915 45 0 0 0 90.22097
6.4549522 -6.8026915 3.5642757 19 0 0 0 62.4548
10.896887 -6.5458169 3.5709622 29 0 0 0 58.15588
11.017586 -6.6159573 3.9261854 29 0 0 0 58.15588
18.93977 -6.7818027 3.6495762 23 0 0 0 55.0396
-24.408434 -6.1216412 3.9311125 23 0 0 0 95.673157
-10.867022 -6.3381176 3.6829357 66.5 0 0 0 91.197853
-10.005068 -6.0002065 3.8480701 186 0 0 0 91.008766
-9.7123175 -6.1532264 3.7925289 74 0 0 0 90.608795
-9.334177 -6.2417364 3.8424921 103.5 0 0 0 90.22097
19.286047 -6.3753796 3.6853094 26 0 0 0 54.646511
20.066431 -6.0900912 3.8040891 13 0 0 0 54.248688
-20.085613 -5.5646825 3.7769489 48 0 0 0 95.296112
-14.049755 -5.8262277 3.5096636 43 0 0 0 93.341446
-9.9954844 -5.9967732 3.5568659 58 0 0 0 91.008766
11.541416 -5.819418 3.9501648 34 0 0 0 56.985554
-26.652737 -5.3098531 3.5711985 26 0 0 0 96.458
-13.528561 -5.2249908 3.7038672 125 0 0 0 93.734154
-10.066185 -5.075316 3.9961176 232 0 0 0 92.159401
-8.2120295 -5.4929109 3.7461998 76 0 0 0 90.22097
-25.001406 -4.9809151 3.9826319 52 0 0 0 96.458
-14.899614 -4.5270839 3.5935817 163 0 0 0 94.911194
-12.479392 -4.819716 3.7509954 42 0 0 0 93.734154
-11.734308 -4.5342607 3.8381102 45 0 0 0 93.734154
-10.280727 -4.8666983 3.7534931 112 0 0 0 92.548325
-8.9820986 -4.5284767 3.8148725 44 0 0 0 92.159401
9.6669073 -4.8798184 3.5845575 62 0 0 0 56.985554
10.396063 -4.6203232 3.7648025 323 0 0 0 56.198566
11.104852 -4.9313774 3.7169142 30 0 0 0 56.198566
-15.040625 -4.1697426 3.6020072 101 0 0 0 95.296112
-14.805047 -4.2995443 3.9366333 176.5 0 0 0 95.103653
-11.191198 -4.0117393 3.629081 60 0 0 0 94.129395
-9.8359413 -4.1741366 3.7020085 301.33334 0 0 0 93.209557
-9.0743437 -4.1652594 3.6640639 310 0 0 0 92.747047
11.123663 -4.3011003 3.9457798 48 0 0 0 55.418861
-21.001255 -3.6506622 3.8632438 24 0 0 0 96.843399
-11.497425 -3.8037944 3.9957118 204 0 0 0 94.517357
-10.612818 -3.802294 3.7213974 115 0 0 0 94.129395
-9.5767469 -3.702312 3.894316 173 0 0 0 93.734154
-8.937129 -3.7093291 3.6715124 205 0 0 0 93.341446
8.6108217 -3.5760219 3.5518591 47 0 0 0 55.813568
9.2641315 -3.5816667 3.7813575 60 0 0 0 55.418861
9.7453136 -3.7665026 3.7187583 337 0 0 0 55.418861
10.547902 -3.783792 3.7106919 285 0 0 0 55.0396
12.028238 -3.6534393 3.8469331 112 0 0 0 54.248688
-25.221514 -3.1185894 3.9712634 20 0 0 0 97.627365
-18.495531 -3.2151253 3.8678501 26 0 0 0 96.843399
-17.28046 -3.4427459 3.6320865 19 0 0 0 96.458
-16.694595 -3.3290827 3.9265339 70 0 0 0 96.458
-15.285831 -3.0481827 3.980303 91 0 0 0 96.458
9.1134272 -3.2683105 3.6876161 106 0 0 0 55.0396
11.036397 -3.3557737 3.8196175 48 0 0 0 54.248688
-12.30593 -2.7718024 3.8499732 127 0 0 0 96.056435
-10.281942 -2.8543062 3.7860365 254 0 0 0 95.296112
9.9303036 -2.752522 3.7967775 257 0 0 0 53.859871
14.400074 -2.6817441 3.7531672 193 0 0 0 52.492725
18.942165 -2.8090484 3.953788 24 0 0 0 51.91143
23.099409 -2.8437676 3.6468873 56 0 0 0 51.523098
-20.101374 -2.4855604 3.6729667 20 0 0 0 97.627365
-16.95702 -2.0998347 3.941726 20 0 0 0 97.627365
-15.967409 -2.3764718 3.7256813 55 0 0 0 97.23439
-15.138204 -2.253089 3.9093719 133 0 0 0 97.23439
9.9186087 -2.4881449 3.7690201 312 0 0 0 53.474941
10.04598 -2.2589009 3.9220474 145 0 0 0 53.080448
19.269712 -2.3740611 3.5304677 52 0 0 0 51.523098
44.959126 -2.1924596 3.7026403 21 0 0 0 50.35228
-15.482951 -1.917334 3.9846606 31 0 0 0 97.627365
-12.907692 -1.5984753 3.6500115 33 0 0 0 97.627365
16.000658 -1.9708058 3.7313426 92 0 0 0 51.523098
16.935383 -1.6661562 3.519671 28 0 0 0 51.126511
19.42454 -1.9095262 3.5497084 60 0 0 0 51.126511
24.841221 -1.8244543 3.9019864 63 0 0 0 50.735939
-21.227438 -1.0493474 3.8531709 21 0 0 0 98.793877
-14.564178 -1.4416682 3.7401562 99 0 0 0 98.023438
-10.693921 -1.0624402 3.8142877 91 0 0 0 98.023438
11.11067 -1.36869 3.9875107 32 0 0 0 51.523098
44.030392 -1.0640173 3.6253519 22 0 0 0 49.965019
-9.4534588 -0.93923944 3.6078296 58 0 0 0 98.023438
10.658706 -0.51941049 3.8049796 71 0 0 0 50.35228
11.406335 -0.84116691 3.7929404 53 0 0 0 50.735939
13.146505 -0.642923 3.7077682 29 0 0 0 50.35228
13.534612 -0.99626142 3.8209717 58 0 0 0 50.735939
18.144608 -0.88716441 3.7559769 102 0 0 0 50.35228
17.752975 -0.43073291 3.6732962 72 0 0 0 49.965019
10.036986 0.0053936071 3.8293655 25 0 0 0 49.567162
18.3475 0.0063294997 3.7945287 70 0 0 0 49.567162
17.693907 0.87746799 3.6667912 196 0 0 0 48.786499
23.313751 0.58362973 3.6596136 69 0 0 0 49.174641
11.751027 1.3112735 3.924268 44.5 0 0 0 47.808365
15.451542 1.1496098 3.9744458 94 0 0 0 48.404179
24.889801 1.2359006 3.9087172 36 0 0 0 48.786499
-36.042255 1.7359037 3.8270609 54 0 0 0 0.40274999
24.776583 1.8418572 3.8979695 25 0 0 0 48.404179
13.775038 2.0552719 3.9257836 73 0 0 0 47.231808
-28.804035 5.6798434 3.8504694 27 0 0 0 2.7355299
-27.592827 6.8586411 3.7335794 101 0 0 0 3.5218699
14.560522 6.9184546 3.7463896 420 0 0 0 42.541031
-35.854084 7.0829129 3.8903 28 0 0 0 2.7355299
-27.056194 7.4326472 3.6866834 92 0 0 0 3.90923
14.268314 7.2156563 3.7168736 397 0 0 0 42.15461
-35.81834 7.9920645 3.9087524 28 0 0 0 3.1247001
-26.504383 7.9833827 3.6392193 105 0 0 0 4.2982502
13.842134 7.6542187 3.6787424 409.5 0 0 0 41.567108
13.289043 8.2281971 3.6370001 426.5 0 0 0 40.786598
-35.751705 8.901804 3.9263844 30 0 0 0 3.5218699
-25.960857 8.5178013 3.5942879 96 0 0 0 4.6796198
12.731292 8.7784748 3.7904699 441.75 0 0 0 40.006626
-25.438036 9.0414324 3.5535872 133 0 0 0 5.0738602
8.0767365 9.4374142 3.6727312 225 0 0 0 35.901031
12.200927 9.3318272 3.7663999 457.5 0 0 0 39.227036
-24.908993 9.5460482 3.5133557 126 0 0 0 5.4663901
7.6992311 9.7008228 3.662508 590 0 0 0 35.311741
11.804182 9.7405243 3.7533298 451 0 0 0 38.642288
6.9389067 10.483301 3.717654 623.5 0 0 0 33.949741
7.263577 10.140009 3.6887734 619 0 0 0 34.530048
11.266977 10.27064 3.7402096 499.5 0 0 0 37.85519
11.53491 10.00597 3.7456203 508.5 0 0 0 38.244968
6.4886608 10.936921 3.7604885 692 0 0 0 33.158669
6.7125816 10.704916 3.7363946 646 0 0 0 33.553139
10.742813 10.808123 3.7395475 463 0 0 0 37.074966
11.003605 10.53828 3.7382889 487.5 0 0 0 37.469994
6.1832862 11.247795 3.742425 617.33331 0 0 0 32.643726
10.353842 11.216607 3.7467422 444.25 0 0 0 36.485703
-22.462091 11.931473 3.9871738 119 0 0 0 7.4097099
-21.989012 12.37948 3.9576912 42 0 0 0 7.80793
-15.010023 12.227392 3.5290608 187 0 0 0 10.53044
-11.703999 12.181695 3.9148715 159 0 0 0 12.48033
-11.286248 12.33718 3.8763559 222 0 0 0 12.87352
-8.278965 12.247768 3.7976496 257 0 0 0 15.22443
-7.863668 12.269651 3.7449396 304 0 0 0 15.60476
-7.1725755 12.261429 3.7694499 295.66666 0 0 0 16.256104
-6.6418667 12.256489 3.7587163 293 0 0 0 16.771
-6.2577696 12.25416 3.7110243 316.5 0 0 0 17.16054
-5.6978126 12.245068 3.8121381 320.5 0 0 0 17.751606
-5.1543913 12.234513 3.74861 321 0 0 0 18.34046
-4.8023291 12.227242 3.7102726 188 0 0 0 18.725309
-4.3298984 12.341957 3.6956477 325.5 0 0 0 19.312809
-14.706354 12.591489 3.5304103 180 0 0 0 10.92924
-3.7974408 12.81093 3.7762611 321 0 0 0 20.094925
-21.894258 13.042752 3.9984038 113 0 0 0 8.1918497
-3.2516437 13.350046 3.7131886 325.25 0 0 0 20.870195
-2.8208852 13.770133 3.7984629 299 0 0 0 21.458401
-12.583235 14.469707 3.739357 90.5 0 0 0 13.2663
-11.968787 14.461773 3.8928883 112 0 0 0 13.65454
-11.366528 14.438459 3.8122571 12 0 0 0 14.04714
-2.520421 14.056667 3.6818674 292 0 0 0 21.83976
-2.2120776 14.366614 3.7475939 301 0 0 0 22.229719
-19.882511 14.655115 3.8824692 12 0 0 0 9.7559404
-18.79365 14.574033 3.7407358 103 0 0 0 10.14442
-16.119829 14.509002 3.9532044 133 0 0 0 11.31006
-15.340283 14.501233 3.8498106 121 0 0 0 11.69625
-14.629547 14.52259 3.7613194 15 0 0 0 12.09233
-1.7235258 14.832391 3.6648495 257.5 0 0 0 22.82147
-1.559149 15.014772 3.8916273 233 0 0 0 23.01906
-1.2117796 15.343244 3.7786279 238.5 0 0 0 23.401211
-0.8504777 15.689559 3.6643312 266 0 0 0 23.798849
2.2618585 15.758377 3.7142091 222 0 0 0 26.927259
2.6812441 15.886743 3.7585773 109 0 0 0 27.309931
-0.27638042 16.243507 3.7883415 201 0 0 0 24.380585
0.3339588 16.826073 3.9233317 210 0 0 0 24.972919
0.77398032 17.302267 3.6126702 196 0 0 0 25.35812
1.2326238 17.738533 3.7082248 169 0 0 0 25.75267
1.7175503 18.207287 3.8130527 135 0 0 0 26.141109
2.2323198 18.712219 3.9281616 147 0 0 0 26.52651
3.7505391 19.231556 3.6003911 167 0 0 0 27.69548
4.2442474 19.232101 3.6186993 172 0 0 0 28.09236
4.687572 19.009007 3.5974455 99 0 0 0 28.48185
5.7530084 19.207092 3.6829278 163 0 0 0 29.26372
7.4519577 19.507055 3.8334131 17 0 0 0 30.431669
5.1593685 -41.931442 4.4695921 20 0 0 0 72.622437
33.612 -40.964497 4.3096657 7 0 0 0 63.6283
9.3162909 -37.248455 4.0644636 13 0 0 0 70.673203
-10.800489 -32.682655 4.49441 9 0 0 0 79.656464
7.9112797 -31.623798 4.2576818 9 0 0 0 70.673203
12.156021 -31.539412 4.4131317 20 0 0 0 68.709885
10.201148 -30.910986 4.251297 12 0 0 0 69.497635
14.96552 -29.752304 4.3489861 11 0 0 0 67.149117
24.339085 -29.674809 4.0642343 9 0 0 0 63.6283
15.646453 -29.29229 4.3367944 12 0 0 0 66.756958
17.763891 -28.068922 4.3383861 10 0 0 0 65.586243
-0.010686756 -26.618612 4.1415248 16 0 0 0 74.573845
17.80863 -26.669189 4.1897821 27 0 0 0 65.192062
-2.4972458 -12.496346 4.1961298 63 0 0 0 77.710251
-0.6006183 -12.021914 4.2606254 54 0 0 0 75.360916
-0.014760756 -12.219035 4.0257468 12 0 0 0 74.573845
0.29043746 -12.35824 4.2232904 12.5 0 0 0 74.187859
0.58959919 -12.315083 4.0621238 30 0 0 0 73.797348
0.70998096 -11.764631 4.1736379 23 0 0 0 73.600098
4.4981923 -11.711322 4.1349111 23 0 0 0 68.709885
-16.590342 -11.088737 4.1039109 68 0 0 0 90.22097
-0.29199436 -11.451536 4.0564079 25 0 0 0 74.9758
3.3563004 -11.113276 4.1127491 26 0 0 0 69.884407
3.6321907 -11.041127 4.4025388 15 0 0 0 69.497635
4.38344 -11.402947 4.3267703 26 0 0 0 68.709885
5.1487722 -11.285398 4.0896711 41 0 0 0 67.74115
-16.931587 -10.725594 4.1222034 31 0 0 0 90.608795
4.1124415 -10.702614 4.3437157 63 0 0 0 68.709885
7.0001869 -10.501795 4.4713812 26 0 0 0 65.192062
-15.166179 -10.140345 4.2008619 21 0 0 0 90.22097
4.3009868 -10.423217 4.2726307 44 0 0 0 68.324722
6.5143099 -10.314213 4.3228359 21 0 0 0 65.586243
3.5413637 -9.9436245 4.00143 15 0 0 0 69.104919
4.3753605 -9.9092712 4.1062112 10 0 0 0 67.93557
5.1085219 -9.5908356 4.1199327 45 0 0 0 66.756958
6.0627651 -9.6028366 4.3050618 40 0 0 0 65.586243
11.304516 -9.7700729 4.1868558 25 0 0 0 60.89476
5.2749767 -9.343873 4.0689402 59 0 0 0 66.371979
-22.661343 -8.7484312 4.3951187 19 0 0 0 93.734154
7.7947755 -8.2073956 4.0164652 61 0 0 0 62.4548
10.421242 -8.1485672 4.0379224 111 0 0 0 60.110752
13.110325 -8.3157158 4.3516626 14 0 0 0 58.542809
16.745041 -8.4362631 4.3224177 10 0 0 0 56.985554
17.710926 -8.3859425 4.0360579 27 0 0 0 56.588421
18.313206 -8.1260023 4.1262536 40 0 0 0 56.198566
19.685467 -8.1609745 4.3869476 16 0 0 0 55.813568
7.7614999 -7.7817245 4.1709652 117 0 0 0 62.068527
8.9301834 -7.7200756 4.3330712 107.5 0 0 0 60.89476
9.4047432 -7.733798 4.3197565 52 0 0 0 60.500591
9.7072506 -7.7873325 4.1092653 74 0 0 0 60.305672
8.0914526 -7.3523517 4.1500649 85 0 0 0 61.287621
11.484189 -7.2847605 4.1519055 26 0 0 0 58.542809
-39.971775 -6.9409051 4.3174477 50 0 0 0 96.843399
-20.452721 -6.7630177 4.4316983 35 0 0 0 94.517357
-18.428785 -6.5994844 4.0296655 31 0 0 0 94.129395
10.910589 -6.7411413 4.2359972 81.5 0 0 0 58.349342
19.325844 -6.9205971 4.228827 14 0 0 0 55.0396
-11.758081 -6.2897863 4.394721 44 0 0 0 91.766861
-9.8276386 -6.2311873 4.1229439 25 0 0 0 90.608795
10.170334 -6.2770414 4.2437215 45 0 0 0 58.349342
10.887375 -6.1823688 4.1367574 21 0 0 0 57.765926
20.00404 -6.0720649 4.3074288 24 0 0 0 54.248688
-25.629826 -5.7634106 4.1026773 30 0 0 0 96.056435
-19.86409 -5.5033593 4.2424941 131 0 0 0 95.296112
-14.42945 -5.9838395 4.3745313 99 0 0 0 93.341446
-10.939303 -5.8565378 4.3952937 33 0 0 0 91.766861
-10.143764 -5.7547784 4.1325669 23 0 0 0 91.38694
9.8198261 -5.7380457 4.3201079 46 0 0 0 57.960903
10.416193 -5.5780768 4.4869776 23 0 0 0 57.372887
11.033673 -5.9115825 4.1364031 19 0 0 0 57.372887
-23.012878 -5.174964 4.2707615 23 0 0 0 96.056435
-9.1552868 -5.4946809 4.0469522 95 0 0 0 91.008766
10.215075 -5.4703035 4.1168003 36 0 0 0 57.372887
10.971762 -5.2018008 4.0147963 49 0 0 0 56.588421
-26.542095 -4.6137786 4.2071748 39 0 0 0 96.843399
-15.112482 -4.9999518 4.0629282 183 0 0 0 94.517357
-14.345573 -4.7462187 4.2333717 143 0 0 0 94.517357
-10.3426 -4.9005008 4.3367743 162 0 0 0 92.548325
10.13129 -4.8012295 4.2607937 106 0 0 0 56.588421
10.616797 -4.714088 4.1285768 56 0 0 0 56.198566
16.46904 -4.999485 4.3987145 35 0 0 0 54.248688
-19.982347 -4.4934959 4.2163196 59 0 0 0 96.056435
-14.725283 -4.2761989 4.2962074 102 0 0 0 95.103653
12.249939 -4.0550613 4.26684 21 0 0 0 54.646511
-24.089472 -3.5808756 4.4094243 30 0 0 0 97.23439
-15.326377 -3.8467095 4.0342469 64 0 0 0 95.673157
-14.182872 -3.5597129 4.0985475 11 0 0 0 95.673157
-11.66609 -3.5468388 4.1731911 141 0 0 0 94.911194
-11.064474 -3.9685502 4.1668406 54 0 0 0 94.129395
-10.179662 -3.651129 4.1005726 298 0 0 0 94.129395
10.634802 -3.811116 4.0180387 551 0 0 0 55.0396
11.453912 -3.7884617 4.2885051 40 0 0 0 54.646511
16.539932 -3.7154558 4.3353701 62 0 0 0 53.080448
17.021088 -3.8225205 4.0311604 102 0 0 0 53.080448
-15.528289 -3.0965664 4.4360075 58 0 0 0 96.458
-14.918833 -3.3576219 4.2849588 93 0 0 0 96.056435
-11.780291 -3.265883 4.0336456 289 0 0 0 95.296112
-11.273508 -3.1296554 4.4346604 59 0 0 0 95.296112
10.927162 -3.3189826 4.0625291 43 0 0 0 54.248688
14.373446 -3.2306566 4.139915 286 0 0 0 53.080448
-15.46168 -2.6905794 4.0077119 154 0 0 0 96.843399
-13.92321 -2.7790315 4.3297195 21 0 0 0 96.458
-11.751655 -2.8505375 4.1881309 94.333336 0 0 0 95.800911
14.010349 -2.7891543 4.0163841 263 0 0 0 52.685352
14.793676 -2.5679719 4.219964 172 0 0 0 52.300098
26.147635 -2.5677066 4.1125984 25 0 0 0 51.126511
-21.288013 -2.1033294 4.403666 17 0 0 0 98.023438
-13.005308 -2.2655163 4.028162 66 0 0 0 96.843399
-12.352963 -2.2575057 4.3481655 47.666668 0 0 0 96.714928
-10.436921 -2.0851061 4.0374775 115 0 0 0 96.458
13.257927 -2.3018198 4.282197 114 0 0 0 52.300098
15.159579 -2.2486935 4.3070354 65 0 0 0 51.91143
16.149286 -2.394362 4.1789618 21 0 0 0 51.91143
16.894463 -2.0813243 4.3560991 49 0 0 0 51.523098
19.375406 -2.3878996 4.0307064 44 0 0 0 51.523098
-15.601202 -1.5443194 4.3934174 23 0 0 0 98.023438
-10.496312 -1.5660706 4.0263886 109 0 0 0 97.23439
11.226567 -1.948251 4.1942134 111 0 0 0 52.300098
14.383523 -1.7734469 4.0759897 214 0 0 0 51.523098
40.688019 -1.9861757 4.3450632 14 0 0 0 50.35228
-20.999853 -1.0381126 4.3293099 8 0 0 0 98.793877
-16.019735 -1.1895614 4.1023154 71 0 0 0 98.410522
11.162568 -1.0972714 4.2713475 44 0 0 0 51.126511
14.228401 -1.222405 4.1944308 215.5 0 0 0 50.931225
-21.337942 -0.53030431 4.3947225 9 0 0 0 99.183876
10.886935 -0.53095067 4.1533337 89 0 0 0 50.35228
14.351482 -0.69972497 4.3976951 237 0 0 0 50.35228
18.030504 -0.87922609 4.1752586 75 0 0 0 50.35228
39.944569 -0.96715105 4.26408 16 0 0 0 49.965019
13.275859 -0.32309252 4.3978992 23 0 0 0 49.965019
14.561872 -0.35104772 4.4582238 48 0 0 0 49.965019
17.724562 -0.42771685 4.1022573 41 0 0 0 49.965019
-70.674561 0.0042625638 4.0237145 24 0 0 0 99.57608
11.985137 0.0070729111 4.2689266 56 0 0 0 49.567162
13.569098 0.003928531 4.4933648 62 0 0 0 49.567162
14.424633 0.36252353 4.4180856 38 0 0 0 49.174641
14.500093 0.36251715 4.0833526 218 0 0 0 49.174641
18.73225 0.0089321816 4.332551 22 0 0 0 49.567162
23.598577 0.0093368078 4.2867613 57 0 0 0 49.567162
10.57876 0.52753222 4.0395813 97 0 0 0 48.786499
11.211216 0.83655071 4.1448975 65 0 0 0 48.404179
13.219316 0.65535176 4.3853159 40 0 0 0 48.786499
14.545427 0.72317922 4.2795367 74.5 0 0 0 48.786499
17.871902 0.88862807 4.1421199 19 0 0 0 48.786499
24.290274 0.6069833 4.4134965 75 0 0 0 49.174641
10.81192 1.0750866 4.1437116 36 0 0 0 48.002079
11.237838 1.2573155 4.0332136 30.5 0 0 0 47.808365
14.295682 1.0631688 4.0374594 64 0 0 0 48.404179
10.998683 1.6441867 4.24119 105 0 0 0 47.231808
15.536908 1.9277891 4.4067073 24 0 0 0 47.614647
17.40424 1.7260662 4.4813108 11 0 0 0 48.002079
17.73394 1.7594815 4.1269002 70 0 0 0 48.002079
-32.354668 2.3451524 4.2408566 61 0 0 0 0.78523999
25.768715 2.5538673 4.0619507 8 0 0 0 48.002079
-31.589981 3.0683289 4.1518402 73 0 0 0 1.17246
11.147593 6.3480196 4.2623768 506 0 0 0 41.37022
11.746422 6.122323 4.3991766 386.5 0 0 0 41.959301
12.624079 6.0020213 4.2915921 283 0 0 0 42.541031
-27.668802 6.8759885 4.4472036 76 0 0 0 3.5218699
10.3503 6.9595723 4.4537659 568 0 0 0 40.199753
10.764688 6.6695433 4.3636012 380 0 0 0 40.786598
14.328013 6.8068285 4.472754 169 0 0 0 42.541031
14.553534 6.9143863 4.1411595 390 0 0 0 42.541031
-27.115767 7.4474831 4.3885207 121 0 0 0 3.90923
9.9194613 7.4052386 4.4215045 492 0 0 0 39.416882
10.135744 7.1844316 4.4369731 559 0 0 0 39.813499
14.26899 7.2152405 4.1105685 367 0 0 0 42.15461
-26.549641 7.9954925 4.3294797 77 0 0 0 4.2982502
9.4941702 7.8453708 4.4002032 516 0 0 0 38.642288
9.7007408 7.6215391 4.4070253 482 0 0 0 39.037193
11.043821 7.8198209 4.4957504 240 0 0 0 39.813499
12.298735 7.8297186 4.4773035 212 0 0 0 40.588921
12.530396 7.549932 4.4917908 175 0 0 0 40.98428
13.842729 7.6533933 4.26512 391.75 0 0 0 41.567108
9.1727142 8.1688347 4.3892884 560.5 0 0 0 38.050079
10.729461 8.2089405 4.4894199 253.5 0 0 0 39.227036
11.830523 8.3781776 4.4532442 236 0 0 0 39.813499
12.068902 8.1080399 4.4657154 215 0 0 0 40.199753
13.281088 8.2221947 4.2138839 409.5 0 0 0 40.786598
-25.976891 8.5215302 4.2709937 105 0 0 0 4.6796198
8.4312592 8.9252872 4.3883128 533 0 0 0 36.679527
8.7535782 8.6056414 4.3872643 541 0 0 0 37.27248
10.300249 8.717495 4.4852242 266.5 0 0 0 38.443626
11.379107 8.9315672 4.4448595 276 0 0 0 39.037193
11.611546 8.6603622 4.4503665 266 0 0 0 39.416882
12.7342 8.7794533 4.3669243 385 0 0 0 40.006626
-25.439157 9.0403004 4.21983 109 0 0 0 5.0738602
8.1199617 9.2557011 4.2498174 545.5 0 0 0 36.096458
8.5228271 9.0159378 4.1286807 361 0 0 0 36.679527
9.8369675 9.194519 4.4764652 225 0 0 0 37.66259
10.90929 9.467226 4.4393544 245 0 0 0 38.244968
11.161077 9.2136173 4.447495 232 0 0 0 38.642288
12.188018 9.320919 4.3335052 430.5 0 0 0 39.227036
-24.900988 9.5414495 4.1701522 97 0 0 0 5.4663901
7.691452 9.6916523 4.2709074 509.5 0 0 0 35.311741
9.4724808 9.5338984 4.4683504 246 0 0 0 37.074966
10.426263 9.9896431 4.4387622 228 0 0 0 37.469994
10.67875 9.738493 4.4422646 236 0 0 0 37.85519
11.653219 9.8584614 4.3122892 452 0 0 0 38.443626
-24.403011 10.042091 4.1287184 114 0 0 0 5.8496099
6.9290266 10.469174 4.3331833 542 0 0 0 33.949741
7.258008 10.132916 4.3024383 511.25 0 0 0 34.530052
9.2144775 10.239677 4.2377229 216 0 0 0 36.291882
9.8920002 10.459825 4.4264879 168 0 0 0 36.679527
10.15777 10.224136 4.4308834 201 0 0 0 37.074966
11.263438 10.266295 4.3060789 421 0 0 0 37.85519
-23.916355 10.533315 4.0907798 141 0 0 0 6.2393298
6.7083826 10.695229 4.2022915 612 0 0 0 33.553139
9.8404236 10.9282 4.158349 175 0 0 0 36.291882
10.73677 10.800929 4.3040462 412 0 0 0 37.074966
11.001249 10.534898 4.3042583 416 0 0 0 37.469994
-23.432888 11.012688 4.054955 135 0 0 0 6.6340899
-22.928026 11.468556 4.016933 108 0 0 0 7.0283098
10.467882 11.06244 4.3046327 361 0 0 0 36.679527
-18.49057 12.272177 4.0358534 133 0 0 0 8.9793396
-15.018768 12.230674 4.2422605 167 0 0 0 10.53044
-11.667331 12.142291 4.3147793 171 0 0 0 12.48033
-11.298747 12.349948 4.2903528 193 0 0 0 12.87352
-8.2843351 12.254899 4.1665602 189 0 0 0 15.22443
-7.8663073 12.270142 4.2854681 241.5 0 0 0 15.60476
-7.3053384 12.253544 4.2543664 276.33334 0 0 0 16.123657
-6.6437049 12.253544 4.2732549 292 0 0 0 16.771
-6.2640572 12.260071 4.2219958 307 0 0 0 17.16054
-5.6975617 12.240361 4.3092003 289.75 0 0 0 17.751606
-5.1503277 12.220549 4.233983 277 0 0 0 18.34046
-4.7983823 12.212713 4.1903925 250 0 0 0 18.725309
-4.3290806 12.334768 4.176321 306.5 0 0 0 19.312809
-18.18244 12.71979 4.0368867 137 0 0 0 9.3633604
-14.713502 12.593717 4.2431169 165.5 0 0 0 10.92924
-3.8014507 12.819187 4.2727299 285.75 0 0 0 20.094925
-3.3912992 13.19771 4.1860929 308 0 0 0 20.673401
-21.619621 13.607457 4.0095448 39 0 0 0 8.5819197
-3.1193376 13.512308 4.2603731 332 0 0 0 21.06699
-2.8246977 13.775434 4.3203363 298 0 0 0 21.458401
-12.599901 14.482181 4.4479322 52 0 0 0 13.2663
-2.5214243 14.053885 4.2113924 268.5 0 0 0 21.83976
-2.2133527 14.365257 4.287015 233 0 0 0 22.229719
-18.9142 14.666499 4.3554912 8 0 0 0 10.14442
-16.137112 14.523354 4.4901638 109 0 0 0 11.31006
-12.040106 14.542202 4.3761187 11 0 0 0 13.65454
-11.476028 14.572132 4.3008876 13 0 0 0 14.04714
-10.878867 14.530925 4.2105522 17 0 0 0 14.43684
-1.8902906 14.671499 4.1812778 229 0 0 0 22.62388
-1.5578959 15.001236 4.2628965 229 0 0 0 23.01906
-1.208536 15.298378 4.3374743 222 0 0 0 23.401211
-0.85056829 15.689764 4.2454758 215 0 0 0 23.798849
2.2608004 15.74999 4.3011947 205.5 0 0 0 26.927259
2.6801264 15.879445 4.1527276 113 0 0 0 27.309931
-0.27639532 16.251873 4.1895885 173 0 0 0 24.380585
0.33374706 16.816616 4.3343964 240 0 0 0 24.972919
0.77073365 17.296587 4.2483587 136.5 0 0 0 25.35812
1.2317065 17.767824 4.1504931 161 0 0 0 25.75267
-28.827332 18.162762 4.4976177 14 0 0 0 8.5819197
1.7132536 18.195234 4.2581739 149 0 0 0 26.141109
2.2308657 18.726473 4.3930583 104 0 0 0 26.52651
3.7532115 19.244032 4.0855956 148 0 0 0 27.69548
4.2486477 19.25074 4.1077423 125 0 0 0 28.09236
4.7053976 19.079353 4.0946803 66 0 0 0 28.48185
5.7512832 19.200342 4.1754212 161 0 0 0 29.26372
8.0004663 19.488708 4.3857985 10 0 0 0 30.82423
6.3699999 19.503092 4.2730465 16 0 0 0 29.651369
6.9249902 19.557133 4.3202987 37 0 0 0 30.042521
7.4502153 19.501434 4.3467002 15 0 0 0 30.431669
17.247522 -56.882019 4.8280473 12 0 0 0 69.884407
6.5531816 -44.257908 4.7310705 12 0 0 0 72.232338
7.6162519 -43.962669 4.717917 6 0 0 0 71.847473
10.80505 -35.646606 4.8596792 11 0 0 0 69.884407
9.7751293 -35.3531 4.7861371 7 0 0 0 70.27433
12.388794 -34.648369 4.8010788 6 0 0 0 69.104919
-14.776249 -33.331417 4.7593112 10 0 0 0 81.219444
-10.023877 -33.031475 4.5069699 11 0 0 0 79.273994
21.143154 -30.032904 4.7935061 15 0 0 0 64.801811
22.871561 -29.317196 4.8529758 12 0 0 0 64.01635
-4.0721469 -27.394007 4.9925394 6 0 0 0 76.931091
-0.010731166 -27.041626 4.8758254 17 0 0 0 74.573845
-0.010793445 -12.093337 4.5767503 29 0 0 0 74.573845
0.28451154 -12.045465 4.5602236 50 0 0 0 74.187859
-0.30505899 -11.999172 4.5426183 25 0 0 0 74.9758
4.8620205 -11.774049 4.5103841 31 0 0 0 68.324722
5.2341714 -11.841968 4.5839539 23 0 0 0 67.93557
9.8930225 -10.939589 4.8597035 27 0 0 0 62.848049
-16.809128 -10.082982 4.5118041 25 0 0 0 91.008766
-15.48219 -10.351815 4.7446189 7 0 0 0 90.22097
6.2612724 -10.474889 4.6230655 35 0 0 0 65.983482
6.7970905 -10.198811 4.643549 52 0 0 0 65.192062
6.9931321 -9.9548044 4.6098309 19 0 0 0 64.801811
17.040428 -9.1169596 4.928277 41 0 0 0 57.372887
17.736597 -9.4878464 4.6334 9 0 0 0 57.372887
15.594442 -8.8443289 4.5741324 15 0 0 0 57.765926
22.201672 -8.5693007 4.8951421 26 0 0 0 55.418861
8.7509098 -8.3498325 4.5866227 48 0 0 0 61.675129
9.9004259 -8.1404305 4.8593988 83 0 0 0 60.500591
17.562683 -8.3136721 4.9561367 37 0 0 0 56.588421
-20.39395 -7.3074331 4.9861422 29 0 0 0 94.129395
19.184126 -7.4036107 4.7392254 43 0 0 0 55.418861
-10.81039 -6.8547821 4.8456755 30 0 0 0 90.608795
10.60709 -6.728929 4.7657204 56 0 0 0 58.542809
15.340504 -6.808465 4.7046099 29 0 0 0 56.198566
-25.028276 -6.2771726 4.6685333 21 0 0 0 95.673157
-19.533007 -6.4626975 4.737371 76 0 0 0 94.517357
-14.5424 -6.03372 4.7957129 68 0 0 0 93.341446
-10.788661 -6.1209111 4.697031 74 0 0 0 91.38694
13.570625 -6.4262552 4.5825849 32 0 0 0 56.588421
-10.84945 -5.8084593 4.6605635 30 0 0 0 91.766861
14.543683 -5.615346 4.7583299 27 0 0 0 55.418861
16.319954 -5.8452773 4.8599334 24 0 0 0 55.0396
-19.977093 -5.0140448 4.743433 68 0 0 0 95.673157
11.904352 -5.2842731 4.9434266 43 0 0 0 56.198566
-14.495973 -4.7988386 4.6528835 125 0 0 0 94.517357
-15.22508 -4.2238731 4.8140564 103 0 0 0 95.296112
-14.31231 -4.3514624 4.5591836 78 0 0 0 94.911194
-12.309968 -4.0775232 4.9115105 30 0 0 0 94.517357
-20.53656 -3.5736501 4.8011651 38 0 0 0 96.843399
-14.535704 -3.6510091 4.5682044 136 0 0 0 95.673157
-11.614479 -3.5333967 4.6001534 71 0 0 0 94.911194
-13.601881 -3.0612719 4.5966597 54 0 0 0 96.056435
-12.233288 -3.0749967 4.7790842 41 0 0 0 95.673157
14.433449 -3.2420881 4.5213995 184 0 0 0 53.080448
-21.999485 -2.7202761 4.5618286 20 0 0 0 97.627365
-16.320593 -2.8400748 4.6398549 49 0 0 0 96.843399
-12.545712 -2.828202 4.8722515 36 0 0 0 96.056435
14.710241 -2.9277031 4.7703819 169 0 0 0 52.685352
-16.627998 -2.474839 4.7083564 33 0 0 0 97.23439
-14.045716 -2.0905647 4.6820431 64 0 0 0 97.23439
-12.124684 -2.114357 4.6645632 43 0 0 0 96.843399
12.03394 -2.3946402 4.6655083 24 0 0 0 52.685352
14.954095 -2.2162855 4.6217227 135 0 0 0 51.91143
-15.249479 -1.8911659 4.6842766 53 0 0 0 97.627365
13.36644 -1.982574 4.635664 100 0 0 0 51.91143
13.550851 -1.6722915 4.5177455 53 0 0 0 51.523098
15.352099 -1.8904436 4.7286024 102 0 0 0 51.523098
19.35358 -1.9012589 4.7309237 57.5 0 0 0 51.126511
25.064053 -1.8418882 4.5595503 58 0 0 0 50.735939
34.836227 -1.6963161 4.5844913 14 0 0 0 50.35228
-15.007282 -1.4855717 4.9708667 44 0 0 0 98.023438
15.224748 -1.4956093 4.6778326 37 0 0 0 51.126511
20.187515 -1.4824355 4.6756802 54 0 0 0 50.735939
-20.058777 -0.5020411 4.624167 15 0 0 0 99.183876
-19.967758 -0.99061054 4.6073022 36 0 0 0 98.793877
12.662133 -0.93003041 4.829402 66 0 0 0 50.735939
14.261031 -0.69845724 4.7243776 29 0 0 0 50.35228
12.634374 -0.30423692 4.8087974 43 0 0 0 49.965019
17.708776 -0.42810994 4.534421 27 0 0 0 49.965019
13.513951 0.34084219 4.8096833 22 0 0 0 49.174641
14.653995 0.36506894 4.8511238 37 0 0 0 49.174641
17.681805 0.0072388696 4.7453914 16.5 0 0 0 49.567162
18.542673 0.46427619 4.7475576 24 0 0 0 49.174641
22.950455 0.57252151 4.7381268 24 0 0 0 49.174641
11.77909 1.464769 4.5229912 119 0 0 0 47.614647
14.707698 1.4604928 4.5264277 18 0 0 0 48.002079
15.217759 1.1335777 4.6712179 33 0 0 0 48.404179
25.563124 1.2681602 4.6477866 29 0 0 0 48.786499
-36.033382 1.7272508 4.7109332 71 0 0 0 0.40274999
15.628017 1.9411408 4.8206053 10 0 0 0 47.614647
22.288857 1.6552069 4.6157222 27 0 0 0 48.404179
25.76326 1.9139552 4.6919398 10 0 0 0 48.404179
14.034695 2.0926323 4.7007937 10 0 0 0 47.231808
-31.625166 3.0700223 4.9404693 74 0 0 0 1.17246
-30.805941 3.7532978 4.8279948 19 0 0 0 1.56791
-29.513241 5.0714092 4.6635652 84 0 0 0 2.3512099
-28.877737 5.6927857 4.5864668 86 0 0 0 2.7355299
12.582071 5.9811363 4.7945995 235 0 0 0 42.541031
-28.282188 6.2979617 4.5173225 79 0 0 0 3.1247001
11.150757 6.3540597 4.7376008 363.5 0 0 0 41.37022
11.651246 6.1386261 4.8050008 357.66666 0 0 0 41.894199
10.355015 6.9621272 4.7624488 474 0 0 0 40.199753
10.756213 6.6063066 4.7130046 451.33334 0 0 0 40.852493
13.267012 6.7117496 4.562521 174 0 0 0 42.15461
9.9223585 7.4067907 4.7270947 534 0 0 0 39.416882
10.132287 7.1813927 4.7407107 477 0 0 0 39.813499
11.473864 7.303185 4.5173864 174 0 0 0 40.588921
12.772371 7.2729411 4.512084 234 0 0 0 41.37022
13.036983 7.003974 4.5422497 209 0 0 0 41.763992
14.25671 7.2082877 4.5049095 359 0 0 0 42.15461
9.491559 7.8426256 4.7016029 454 0 0 0 38.642288
9.7031088 7.6227903 4.7113466 505 0 0 0 39.037193
11.274015 7.5726771 4.5114141 218 0 0 0 40.199753
79.397499 7.8472853 4.5621562 11 0 0 0 48.002079
8.8585901 8.4961929 4.6882358 455 0 0 0 37.469994
9.1759958 8.1711082 4.6928062 470 0 0 0 38.050079
8.4459076 8.9400873 4.6980367 398 0 0 0 36.679527
8.6481361 8.7136164 4.689425 436 0 0 0 37.074966
8.1153812 9.2528591 4.7020936 452 0 0 0 36.096458
7.6862473 9.6874189 4.7247601 458.5 0 0 0 35.311741
7.2635164 10.143727 4.7666912 298.5 0 0 0 34.530052
-23.451351 11.019901 4.6976385 49 0 0 0 6.6340899
-22.955973 11.481102 4.6552906 101 0 0 0 7.0283098
-22.467813 11.933049 4.6160917 116 0 0 0 7.4097099
-21.96879 12.36659 4.5763259 53 0 0 0 7.80793
-18.479572 12.263557 4.5774865 141 0 0 0 8.9793396
-15.03903 12.243382 4.958806 153 0 0 0 10.53044
-11.727834 12.204658 4.7563138 124 0 0 0 12.48033
-11.300438 12.35081 4.7056155 170 0 0 0 12.87352
-8.2899036 12.259586 4.714644 213.5 0 0 0 15.22443
-7.8706508 12.278048 4.8272262 192 0 0 0 15.60476
-7.2446246 12.26701 4.7178411 206.5 0 0 0 16.18988
-6.6443238 12.253462 4.7880764 262 0 0 0 16.771
-6.263762 12.258265 4.7298832 273.5 0 0 0 17.16054
-5.7019968 12.240465 4.8072863 251.5 0 0 0 17.751606
-5.1507988 12.211491 4.7197294 250 0 0 0 18.34046
-4.8006315 12.207484 4.832963 245 0 0 0 18.725309
-4.3320007 12.331364 4.8174295 258 0 0 0 19.312809
-18.190863 12.724414 4.5833259 119 0 0 0 9.3633604
-14.746605 12.618268 4.9642448 144 0 0 0 10.92924
-3.8049252 12.817854 4.7655478 265 0 0 0 20.094925
-21.907236 13.049028 4.6302047 76 0 0 0 8.1918497
-3.3031845 13.307556 4.776216 236 0 0 0 20.804598
-21.636351 13.616533 4.6437321 28 0 0 0 8.5819197
-3.1163652 13.509286 4.6021748 205 0 0 0 21.06699
-2.8255739 13.791464 4.67343 256 0 0 0 21.458401
-12.611902 14.494923 4.9227304 51 0 0 0 13.2663
-2.523726 14.073016 4.7465482 212 0 0 0 21.83976
-2.2150161 14.383643 4.831553 204 0 0 0 22.229719
7.4911165 14.148936 4.9211535 336 0 0 0 32.388378
-19.019627 14.747176 4.9703035 11 0 0 0 10.14442
-12.071348 14.579052 4.851048 7 0 0 0 13.65454
-11.451924 14.540235 4.7452021 11 0 0 0 14.04714
-10.863778 14.509563 4.6486974 14 0 0 0 14.43684
-10.339474 14.537348 4.576623 18 0 0 0 14.83029
-1.8933609 14.684381 4.7324924 219.5 0 0 0 22.62388
-1.5620975 15.015935 4.6385226 204 0 0 0 23.01906
-1.2162741 15.36483 4.735456 203 0 0 0 23.401211
-0.853903 15.699898 4.8306141 185 0 0 0 23.798849
2.2580407 15.749104 4.8905501 197 0 0 0 26.927259
2.6773357 15.870292 4.7487416 64 0 0 0 27.309931
-0.34341636 16.199549 4.7113109 188.33333 0 0 0 24.315262
-17.016613 16.903105 4.9612274 9 0 0 0 12.09233
0.33438858 16.8433 4.7600694 167 0 0 0 24.972919
