# .PCD v0.7 - Point Cloud Data file format
VERSION 0.7
FIELDS x y z intensity normal_x normal_y normal_z curvature
SIZE 4 4 4 4 4 4 4 4
TYPE F F F F F F F F
COUNT 1 1 1 1 1 1 1 1
WIDTH 899
HEIGHT 1
VIEWPOINT 0 0 0 1 0 0 0
POINTS 899
DATA ascii
2.2123029 -4.2014818 -0.74476779 100.2 0 0 0 66.736778
2.7022285 -4.0838375 -0.64579159 174.5 0 0 0 65.17305
3.1699035 -4.0979376 -0.66031557 321.5 0 0 0 64.003113
3.6261415 -4.4558806 -0.62830245 212 0 0 0 63.616154
4.8254175 -4.2956648 -0.71237838 166.5 0 0 0 61.065895
6.6271501 -4.2201791 -0.68115455 298.33334 0 0 0 58.530201
9.3622646 -4.4468184 -0.65381426 227 0 0 0 56.575031
9.5266027 -4.2406001 -0.6583249 280 0 0 0 56.17662
14.265656 -4.3405242 -0.59245962 100 0 0 0 54.232712
-6.6516414 -3.9832673 -0.85750461 437 0 0 0 90.978096
-6.4814215 -3.6670177 -0.73048925 302.5 0 0 0 91.361069
-5.1088815 -3.6857922 -0.84507 244.5 0 0 0 89.597885
-4.9035835 -3.9157064 -0.84142631 240.5 0 0 0 88.814903
-3.6737099 -3.7177372 -0.82002258 171.33333 0 0 0 86.930786
-3.4216976 -3.948709 -0.81883031 131 0 0 0 85.883644
-2.7224336 -3.6483912 -0.82277995 107.6 0 0 0 84.707535
-2.2525573 -3.8358092 -0.80280215 120.25 0 0 0 82.951859
-1.6724809 -3.6113682 -0.71363568 71.833336 0 0 0 81.389824
-1.0873199 -3.8548141 -0.76671726 35.5 0 0 0 78.847343
-0.84547293 -3.887815 -0.81127518 48.25 0 0 0 77.873657
1.438705 -3.9484901 -0.75943828 30 0 0 0 68.888573
1.7547743 -3.7737851 -0.7528559 23.4 0 0 0 67.519302
2.0706291 -3.6061068 -0.75250793 34 0 0 0 66.149002
2.7096858 -3.7989643 -0.73221576 130 0 0 0 64.587555
3.3472443 -3.609834 -0.61604118 338.33334 0 0 0 62.56049
3.9798799 -3.6378129 -0.72289586 323 0 0 0 61.257008
5.1895123 -3.6785393 -0.70201296 234 0 0 0 59.312603
6.8713779 -3.8031681 -0.68142366 242.5 0 0 0 57.546841
7.0009704 -3.5434759 -0.68112481 221 0 0 0 56.959831
8.4780416 -3.5280774 -0.5758813 344 0 0 0 55.791649
14.304958 -3.9707234 -0.59014922 66 0 0 0 53.842701
-5.5919495 -3.0734296 -0.85704887 146.5 0 0 0 91.553055
-5.3347306 -3.3721092 -0.84707278 187.33333 0 0 0 90.584999
-4.2389178 -3.2144387 -0.83540708 161 0 0 0 89.206398
-3.9986813 -3.4374309 -0.82715791 184 0 0 0 88.221085
-3.2081401 -3.2473621 -0.82567102 109.66666 0 0 0 86.930786
-2.7172832 -3.1830289 -0.81809187 53.333332 0 0 0 85.754066
-2.2843902 -3.3049037 -0.81960386 43.666668 0 0 0 84.120972
-1.9568611 -3.4233227 -0.80289388 86 0 0 0 82.759102
2.3045082 -3.4061446 -0.74471205 35.75 0 0 0 64.978256
2.7804868 -3.2802896 -0.69789326 102.5 0 0 0 63.267456
3.2772484 -3.3107166 -0.61382943 379.33334 0 0 0 62.047443
3.5238578 -3.2804785 -0.60120988 241.66667 0 0 0 61.387859
4.16155 -3.1516924 -0.6665929 210 0 0 0 59.797611
5.4059033 -3.2602603 -0.69715899 229 0 0 0 58.137421
7.1237631 -3.2808523 -0.68124342 234.5 0 0 0 56.375824
8.3439198 -3.2338426 -0.56059867 701 0 0 0 55.405201
8.5106134 -3.0593531 -0.56721467 631 0 0 0 55.01358
9.4619474 -3.1391919 -0.62909907 177 0 0 0 54.630322
10.071409 -3.0676031 -0.66665256 181 0 0 0 54.232712
13.291513 -3.1663828 -0.54103112 225 0 0 0 53.257568
-4.6465311 -2.7013688 -0.84494358 112.25 0 0 0 91.167633
-4.2422304 -2.7569537 -0.85220456 135.5 0 0 0 90.388458
-3.7259674 -2.7548604 -0.83900726 67.599998 0 0 0 89.403236
-3.1699324 -2.7235599 -0.82605767 40 0 0 0 88.225342
-2.7525692 -2.9470787 -0.82232976 43 0 0 0 86.477524
2.854461 -2.8191407 -0.72782755 43 0 0 0 61.845753
3.2634602 -2.8231294 -0.69354534 113.33334 0 0 0 60.804317
3.597146 -2.7429907 -0.67434365 63.333332 0 0 0 59.831554
4.4179473 -2.8204794 -0.70351392 155.33333 0 0 0 58.530201
4.5471277 -2.596091 -0.70306391 172 0 0 0 57.745529
5.7017221 -2.7982116 -0.70259273 219.25 0 0 0 56.764908
7.3078895 -2.8332522 -0.68155009 192.66667 0 0 0 55.403477
7.5571432 -2.509691 -0.69337577 197 0 0 0 54.630322
10.190159 -2.6968627 -0.66806698 131 0 0 0 53.649689
14.479808 -2.8890016 -0.58807623 192 0 0 0 52.676281
-4.111002 -2.257653 -0.8497752 85 0 0 0 91.553055
-3.9944379 -2.3882551 -0.84268957 79 0 0 0 90.978096
-3.3408699 -2.2844799 -0.82680178 37.666668 0 0 0 89.993111
3.2927365 -2.225219 -0.72225308 28.799999 0 0 0 58.92091
3.8264835 -2.2514689 -0.69911575 58.666668 0 0 0 57.940689
4.7458043 -2.260613 -0.70713449 123.2 0 0 0 56.570259
5.9169831 -2.2950976 -0.70276767 184.66667 0 0 0 55.403473
6.0909157 -2.0227182 -0.71141136 162 0 0 0 54.630322
7.6045647 -2.2168312 -0.69002485 211.5 0 0 0 54.037704
10.345641 -2.1990201 -0.6711216 124.5 0 0 0 52.867371
13.690607 -2.3829873 -0.5518437 157 0 0 0 52.281158
14.457177 -2.1509364 -0.58268976 93 0 0 0 51.88636
-3.5630622 -1.9551139 -0.83012903 36.5 0 0 0 91.553055
3.444968 -1.9165968 -0.71664071 28.5 0 0 0 57.546841
3.56776 -1.6514161 -0.71553487 24 0 0 0 56.375782
4.1462831 -1.7328186 -0.70911855 56 0 0 0 55.792419
4.9645267 -1.859149 -0.71383297 88.5 0 0 0 55.209389
5.0988393 -1.6262424 -0.72144771 109 0 0 0 54.431519
6.2353978 -1.7341614 -0.71834397 129.33333 0 0 0 53.844028
7.7932868 -1.7582284 -0.69703203 139.66667 0 0 0 53.063808
10.434508 -1.6852995 -0.6713196 141 0 0 0 52.083759
14.475537 -1.7906162 -0.58184391 89 0 0 0 51.495319
-23.898218 -1.1685572 -0.96548837 16 0 0 0 98.759392
-13.908319 -1.194628 -0.88945431 68.5 0 0 0 98.174088
-3.925828 -1.4012506 -0.85312659 44 0 0 0 94.096657
3.7625344 -1.2553183 -0.72342145 18.4 0 0 0 54.624901
4.3974481 -1.2272364 -0.72210646 40.200001 0 0 0 53.844177
5.2329245 -1.2500103 -0.7263599 84.25 0 0 0 53.25853
6.3300729 -1.2643981 -0.71710706 137.66667 0 0 0 52.671967
7.9632649 -1.2874982 -0.70470887 164.5 0 0 0 52.083759
10.556522 -1.1745504 -0.67546117 120.5 0 0 0 51.303398
14.654091 -1.2638513 -0.58773518 57.5 0 0 0 50.914215
-20.994757 -0.51062125 -0.84315294 16 0 0 0 99.152931
-13.947359 -0.68207902 -0.88994426 89 0 0 0 98.759392
-9.9574699 -0.85556483 -0.87328148 145 0 0 0 98.174088
-7.7776227 -0.76734161 -0.86734289 171.66667 0 0 0 97.980614
-6.3240337 -0.77988166 -0.85785085 148.66667 0 0 0 97.593811
-5.3431478 -0.65656108 -0.8481701 95.333336 0 0 0 97.593811
-4.5668077 -0.61850595 -0.83603549 29.5 0 0 0 97.399979
-4.0039248 -0.59216046 -0.8281638 15 0 0 0 97.206314
-3.9269011 -0.67951143 -0.81469434 7 0 0 0 96.807747
3.9384191 -0.75659466 -0.7331779 15.333333 0 0 0 52.541401
4.5333576 -0.736148 -0.72739339 40.5 0 0 0 52.084782
5.3349152 -0.72886664 -0.72785443 90.5 0 0 0 51.693577
6.4176621 -0.79345113 -0.71915215 151.66667 0 0 0 51.497723
8.0327644 -0.79446346 -0.70596915 190 0 0 0 51.107914
10.779938 -0.66464072 -0.68806875 180.5 0 0 0 50.520161
14.865338 -0.73195887 -0.59574038 67 0 0 0 50.323368
-13.917632 -0.33858162 -0.88730502 99 0 0 0 99.152931
-9.961853 -0.36488467 -0.87122297 129.5 0 0 0 98.956161
-7.7195663 -0.19121885 -0.85688329 173.33333 0 0 0 99.148094
-6.2949433 -0.30948749 -0.84844255 157.66667 0 0 0 98.759666
-5.2927227 -0.25924364 -0.83462757 75.666664 0 0 0 98.759666
-4.5689421 -0.28083754 -0.83076924 43.25 0 0 0 98.565125
-4.0251441 -0.3454175 -0.82717216 19.75 0 0 0 98.175308
-3.9936666 -0.096641734 -0.81746817 11 0 0 0 99.152931
3.9580512 -0.29372916 -0.72599351 12.2 0 0 0 50.716988
4.552671 -0.2813372 -0.72301716 43 0 0 0 50.5224
5.3745117 -0.26337814 -0.72796327 113 0 0 0 50.326038
6.4707751 -0.31637999 -0.72123575 187.33333 0 0 0 50.326038
8.0625114 -0.29733729 -0.70616686 169.5 0 0 0 50.130585
10.764001 -0.26431105 -0.68628174 108 0 0 0 49.937801
14.873502 -0.36556453 -0.59594125 91 0 0 0 49.937801
-13.823982 0.17136285 -0.88110262 110.5 0 0 0 49.765976
-9.8381529 0.2443914 -0.85812992 146.33333 0 0 0 33.306042
-7.654603 0.28215417 -0.84533894 154 0 0 0 0.193085
-6.2489996 0.231113 -0.83612692 132.5 0 0 0 25.173252
-5.256084 0.19672336 -0.82140529 61.5 0 0 0 25.173252
-4.5309043 0.33339867 -0.80751675 23.666666 0 0 0 0.77701664
-4.2590017 0.20051564 -0.81143868 20.25 0 0 0 25.369207
-3.9700074 0.24388425 -0.80598485 12.5 0 0 0 50.545845
3.9695446 0.29859528 -0.72924531 17.6 0 0 0 48.378922
4.0044489 0.0018636734 -0.732831 31 0 0 0 49.547901
4.5737858 0.22769916 -0.72697389 53.400002 0 0 0 48.767864
5.3592091 0.20197888 -0.72622865 117.25 0 0 0 48.962307
6.4148135 0.24175858 -0.71522337 177.75 0 0 0 48.962307
8.048069 0.20016885 -0.70528078 164.33333 0 0 0 49.157917
10.770098 0.13394022 -0.68705434 143 0 0 0 49.354469
14.828298 0.18325143 -0.59455621 71 0 0 0 49.354469
-13.795277 0.68483597 -0.87897664 93 0 0 0 0.38617
-9.8033714 0.84519351 -0.85488546 165.5 0 0 0 0.97244
-7.6151757 0.74584389 -0.84078914 159.33333 0 0 0 1.1682066
-6.2112522 0.76026994 -0.83153242 112.33334 0 0 0 1.5595065
-5.2132826 0.70213169 -0.81515801 56.5 0 0 0 1.7528626
-4.5065618 0.60551393 -0.80880439 26 0 0 0 1.754265
-4.4219298 0.86713409 -0.80179137 26.333334 0 0 0 2.7264535
3.9508278 0.79835343 -0.73939764 17.799999 0 0 0 46.422234
4.5259418 0.73765707 -0.72848499 39.25 0 0 0 47.009975
5.3488545 0.73628241 -0.73202312 104.75 0 0 0 47.402267
6.4170589 0.80209351 -0.72130847 172.66667 0 0 0 47.599289
8.0292358 0.79751706 -0.7076475 186.66667 0 0 0 47.989578
10.691103 0.66095507 -0.68368119 147 0 0 0 48.570145
14.74025 0.72751427 -0.59209549 67 0 0 0 48.764832
-13.736048 1.1860785 -0.8781507 90 0 0 0 0.97244
-9.7240572 1.3169014 -0.85319579 152.5 0 0 0 1.754265
-7.5400395 1.1097274 -0.83773762 172 0 0 0 1.94879
-7.4590745 1.3763809 -0.83406949 188 0 0 0 2.5299301
-6.0796275 1.1963104 -0.82371998 143 0 0 0 2.7264535
-5.9551067 1.4743569 -0.81547242 136 0 0 0 3.5035801
-5.0794582 1.1274436 -0.80650997 85 0 0 0 3.1166699
-4.9599943 1.4189613 -0.79989731 92.5 0 0 0 4.0905552
-4.2960839 1.2815399 -0.79899114 38 0 0 0 4.284698
3.829988 1.2857175 -0.74160314 37.799999 0 0 0 44.474281
4.4351282 1.2430713 -0.73253644 63.799999 0 0 0 45.253311
5.2738266 1.2684082 -0.73610735 121.5 0 0 0 45.836296
6.3655438 1.2808495 -0.72486776 190.66667 0 0 0 46.42313
7.972559 1.393886 -0.71041495 215 0 0 0 46.811207
8.0184689 1.1985681 -0.71149814 218 0 0 0 47.204594
10.635653 1.1863949 -0.68359923 154.5 0 0 0 47.796638
14.674496 1.2689245 -0.59150678 73 0 0 0 48.182785
-37.389019 1.8525914 -0.63133955 31 0 0 0 0.38617
-13.632783 1.6811973 -0.87542838 90 0 0 0 1.5597399
-9.6033325 1.7793679 -0.84973705 158 0 0 0 2.5299301
-7.3081346 1.8121179 -0.82843369 194.33333 0 0 0 3.5053866
-5.8476048 1.7515186 -0.81199408 183.66667 0 0 0 4.2866864
-4.8258061 1.7669454 -0.79784328 85.25 0 0 0 5.258595
-4.1224127 1.7346247 -0.79826778 36.5 0 0 0 6.0376701
-3.995923 1.9726715 -0.79571462 50 0 0 0 7.0086899
3.6489956 1.7537712 -0.74337232 52.200001 0 0 0 42.52483
4.3371677 1.7575629 -0.74491602 116.25 0 0 0 43.501419
5.1416726 1.7904416 -0.73941916 163.75 0 0 0 44.280388
6.2811127 1.7569827 -0.72871381 196.66667 0 0 0 45.251663
7.8948197 1.7863058 -0.71104306 219 0 0 0 46.031788
10.550627 1.7071444 -0.68322945 156 0 0 0 47.0079
14.627844 1.8115189 -0.59247857 72 0 0 0 47.603161
-32.678638 2.4217362 -0.54889137 35 0 0 0 0.77489001
-13.555632 2.0081034 -0.87375361 75 0 0 0 1.94879
-13.475527 2.3331113 -0.87240428 81 0 0 0 2.3329301
-9.4077482 2.2206764 -0.84107983 165.5 0 0 0 3.3115401
-7.1393366 2.2374334 -0.82368374 186 0 0 0 4.48349
-6.9929552 2.4743226 -0.81669492 165 0 0 0 5.0598502
-5.6423039 2.2251151 -0.80777842 158.75 0 0 0 5.6464424
-4.6241784 2.2208419 -0.79761612 89.25 0 0 0 6.8164625
-4.4284253 2.4660299 -0.7879861 87 0 0 0 7.7920499
-3.7969491 2.2908916 -0.79346317 52.666668 0 0 0 8.3743248
3.3128824 2.3132837 -0.74176526 35.333332 0 0 0 39.981503
3.7572525 2.2284348 -0.74477452 71.5 0 0 0 41.14822
4.2397265 2.1611354 -0.69745094 116.83334 0 0 0 42.131989
4.7465177 2.1707966 -0.64398384 180.25 0 0 0 42.819279
5.0011101 2.0970769 -0.73629457 189 0 0 0 43.307312
5.7338114 2.1566694 -0.60870332 154 0 0 0 43.889626
6.1479416 2.1378109 -0.72740519 244 0 0 0 44.27832
7.788043 2.27563 -0.713184 227 0 0 0 45.058899
10.409522 2.2160397 -0.68073046 186.5 0 0 0 46.229088
14.59741 2.1740417 -0.59365624 89 0 0 0 47.204594
-23.418314 2.8936799 -0.96032828 61 0 0 0 1.5597399
-13.38925 2.8258133 -0.87357676 74.5 0 0 0 2.9232149
-9.1461868 2.7540348 -0.8317278 180.33333 0 0 0 4.2866864
-6.7912869 2.7796896 -0.80824608 210 0 0 0 5.8419738
-5.3366652 2.7277358 -0.79888976 167 0 0 0 7.2068896
-4.2380862 2.7806716 -0.78946191 126.6 0 0 0 8.958396
-3.5429575 2.6361516 -0.79065257 67.5 0 0 0 9.9344807
-3.327518 2.8727815 -0.78809506 73.25 0 0 0 11.105548
2.8459907 2.8373718 -0.73637021 54.5 0 0 0 37.247555
3.0700359 2.6352134 -0.74174893 32.5 0 0 0 38.421925
3.7830238 2.7058704 -0.74019468 76.800003 0 0 0 39.786911
4.7079773 2.7796507 -0.74295735 219.5 0 0 0 41.151897
5.8034463 2.9536576 -0.72811794 250 0 0 0 42.131561
7.6953001 2.5616155 -0.71308321 254 0 0 0 44.474327
10.210438 2.7060628 -0.67586017 189.5 0 0 0 45.443504
14.448913 2.8856237 -0.59335661 87 0 0 0 46.42094
14.530454 2.5313969 -0.59363735 67 0 0 0 46.811207
-23.513981 3.4908254 -0.96859598 63 0 0 0 1.94879
-13.184273 3.2899437 -0.86773396 81 0 0 0 3.5035801
-8.8794775 3.2749913 -0.82455337 198.5 0 0 0 5.2577701
-6.5903521 3.1778979 -0.80644232 171 0 0 0 6.8167248
-6.4837437 3.4226363 -0.80862242 141 0 0 0 7.40206
-5.1071682 3.098366 -0.79676038 180 0 0 0 8.3748646
-4.879251 3.3801868 -0.79225212 182 0 0 0 9.3474159
-4.0018897 3.0634034 -0.78509182 132 0 0 0 10.12882
-3.798466 3.2912776 -0.78388876 117.75 0 0 0 11.105548
-3.0844705 3.0810864 -0.78192508 103.5 0 0 0 12.267995
-2.7266443 3.3091564 -0.7702651 48.833332 0 0 0 13.828008
-2.4045045 3.4836068 -0.76031864 33 0 0 0 15.19822
1.7959435 3.4830787 -0.71429855 37 0 0 0 32.35437
2.433239 3.2869854 -0.69518262 64 0 0 0 34.893288
2.7109294 3.1933455 -0.69125378 71.714287 0 0 0 35.930157
3.3300991 3.2032564 -0.69525963 118.16666 0 0 0 37.506958
3.682344 3.1331246 -0.67563045 125.8 0 0 0 38.460491
4.3092957 3.2454967 -0.68549234 199.66667 0 0 0 39.396778
4.6289368 3.2017479 -0.65245348 190.39999 0 0 0 40.020374
5.2955523 3.1219552 -0.68562293 294 0 0 0 41.14822
5.8433266 3.2190974 -0.63548803 242 0 0 0 41.607346
9.3020763 3.092432 -0.62524068 246 0 0 0 44.474327
10.021894 3.0578728 -0.67044806 155 0 0 0 44.867981
14.381205 3.2424214 -0.59404987 116 0 0 0 46.037239
-13.078216 3.6042566 -0.86675501 107 0 0 0 3.89308
-12.867246 3.8857884 -0.85891205 80 0 0 0 4.2880301
-8.6920395 3.5712833 -0.81887895 173 0 0 0 5.83989
-8.23839 3.6201479 -0.7825405 239 0 0 0 6.23034
-7.670373 3.7074323 -0.73893309 201 0 0 0 6.8167248
-7.4207358 3.9269245 -0.72794813 164 0 0 0 7.40206
-6.2366018 3.5862131 -0.79306781 212 0 0 0 7.9838896
-5.7708468 3.6032388 -0.74774784 327 0 0 0 8.5740004
-5.2501407 3.6382 -0.69980264 240.33333 0 0 0 9.3474159
-4.77914 3.8099742 -0.70403677 125.75 0 0 0 10.423193
-4.2438531 3.5890052 -0.73980165 243.66667 0 0 0 10.911229
-3.7070742 3.5686054 -0.72168058 244 0 0 0 11.94452
-3.2476342 3.6317592 -0.69510853 181.77777 0 0 0 13.15517
-2.7474518 3.7660787 -0.66140449 147.71428 0 0 0 14.7512
-2.302896 3.6947098 -0.6625123 116.2 0 0 0 15.938199
-1.7864513 3.6160326 -0.65785527 53 0 0 0 17.532204
-1.3501024 3.8695297 -0.58618927 85.5 0 0 0 19.483944
0.77144372 3.9720011 -0.53645629 76.75 0 0 0 27.872433
1.2595665 3.8604288 -0.53988498 41.166668 0 0 0 29.817423
1.7681682 3.5985999 -0.60132897 43.200001 0 0 0 32.046436
2.2557197 3.6437445 -0.58138329 81.555557 0 0 0 33.571728
2.7156732 3.6791031 -0.54253757 103.375 0 0 0 34.844936
3.2012858 3.5493922 -0.57593948 185.71428 0 0 0 36.378963
3.7637079 3.5554729 -0.57187587 241.5 0 0 0 37.639065
4.1645603 3.5571899 -0.60704023 275.5 0 0 0 38.421925
4.8573017 3.5533707 -0.52111775 276 0 0 0 39.592262
5.2556396 3.5522594 -0.55107987 300 0 0 0 40.1731
5.6771193 3.5341506 -0.58281147 300 0 0 0 40.762787
14.302759 3.5971682 -0.59464943 101 0 0 0 45.637192
-23.494871 4.0771117 -0.97256964 62 0 0 0 2.3329301
-12.392694 4.073967 -0.83279675 132 0 0 0 4.6789498
-11.388938 4.0522304 -0.76892513 178 0 0 0 5.0598502
-10.596166 4.0618844 -0.71953887 185 0 0 0 5.4556899
-9.8553095 4.0539875 -0.67339009 211 0 0 0 5.83989
-9.1826515 4.0394683 -0.63168657 304 0 0 0 6.23034
-8.6242437 4.0453453 -0.59793329 273 0 0 0 6.6247602
-8.30511 4.2707195 -0.58583921 132 0 0 0 7.2053747
-7.7684917 4.4820023 -0.5614481 271.5 0 0 0 7.9838896
-7.1831522 4.2633328 -0.62135237 230 0 0 0 8.1830254
-6.8116388 4.2680979 -0.59666139 305.5 0 0 0 8.5671501
-6.2853928 4.0376844 -0.64365745 310.5 0 0 0 8.7662849
-5.6806602 4.0488572 -0.59851038 367 0 0 0 9.5418396
-5.2255802 4.0182071 -0.56336558 432 0 0 0 10.12882
-4.6830792 4.01823 -0.56188089 321.75 0 0 0 11.008063
-4.221406 4.1770196 -0.55180156 218.66667 0 0 0 12.140311
-3.7786465 4.1330938 -0.57389069 308 0 0 0 12.949038
-3.2220974 4.0246029 -0.55853009 358 0 0 0 14.02309
-2.7629116 4.0151353 -0.52625042 183.33333 0 0 0 15.198723
-2.1603224 4.0150738 -0.60223043 137.5 0 0 0 16.947266
-1.7409735 4.0141044 -0.57731187 111.6 0 0 0 18.312975
-1.220208 4.006146 -0.55171961 88.666664 0 0 0 20.13658
-0.77019995 4.0092721 -0.53782886 58.400002 0 0 0 21.82172
-0.26972577 4.007009 -0.52963054 74 0 0 0 23.772186
0.22491853 4.0125122 -0.53135484 46.599998 0 0 0 25.724558
0.52323097 4.0011482 -0.53408808 56 0 0 0 26.90185
-23.486519 4.6696386 -0.97762197 57 0 0 0 2.7269299
-12.294246 4.7181497 -0.5217452 25 0 0 0 5.4556899
-11.913413 4.9078145 -0.51002479 131 0 0 0 5.83989
-23.305798 5.2284837 -0.97515422 65 0 0 0 3.1194999
-23.224567 5.8099461 -0.97844273 78 0 0 0 3.5035801
-31.575811 9.5651665 -0.56221044 16 0 0 0 4.2880301
-29.129108 9.6064053 -0.52093238 26 0 0 0 4.6789498
-29.138649 10.406796 -0.52684933 26 0 0 0 5.0598502
-29.229776 11.253345 -0.53474885 93 0 0 0 5.4556899
-33.801266 13.977523 -0.63213211 121 0 0 0 5.83989
-33.762436 14.939651 -0.63943744 114 0 0 0 6.23034
6.0503812 -30.540327 -0.48844394 32 0 0 0 71.43203
5.2657323 -30.486208 -0.48489341 27 0 0 0 71.820892
-18.12739 -10.263612 -0.32149866 17 0 0 0 91.361069
-5.2724648 -9.2749252 -0.40437773 317 0 0 0 82.759102
-2.33799 -9.2485828 -0.35694799 142 0 0 0 78.457672
-1.2946075 -9.3622665 -0.35327971 250 0 0 0 76.710686
-0.94517004 -9.3612394 -0.35150635 534 0 0 0 76.119949
-2.480217 -8.8865662 -0.34404492 242 0 0 0 78.847343
-0.13041499 -8.7098465 -0.32283211 332 0 0 0 74.754852
16.922726 -8.5353193 -0.29474151 41 0 0 0 56.959831
0.39105618 -8.4501228 -0.20925353 589.5 0 0 0 73.772545
0.59957325 -8.4587946 -0.20983389 531.5 0 0 0 73.373672
1.8282313 -8.2589722 -0.2095947 1350 0 0 0 71.03791
2.2413507 -8.1953545 -0.21109752 580.75 0 0 0 70.25827
2.6611691 -8.1393194 -0.21313348 367.5 0 0 0 69.475685
5.2974968 -8.4164267 -0.37641555 5 0 0 0 65.56646
5.6953101 -8.1315699 -0.25435701 515 0 0 0 64.77964
9.773139 -8.051054 -0.49231264 152 0 0 0 60.480728
16.885441 -8.002306 -0.29056475 41 0 0 0 56.575031
-4.6453562 -7.7226052 -0.22609375 165.5 0 0 0 83.150391
-3.9357672 -7.7824516 -0.32363424 415 0 0 0 81.979553
-2.3045554 -7.5296507 -0.48074123 89 0 0 0 79.241287
5.8410215 -7.9186869 -0.25189468 549.5 0 0 0 64.389023
6.2059808 -7.9918485 -0.13672176 312 0 0 0 64.003639
14.318823 -7.6717567 -0.24708588 123 0 0 0 57.348152
18.080118 -7.5030446 -0.30714729 25 0 0 0 55.791649
16.826864 -7.4738851 -0.28627416 164 0 0 0 56.17662
-4.6645288 -6.9572325 -0.20756638 71 0 0 0 83.921028
-3.7902417 -6.8567495 -0.096038252 113 0 0 0 82.562187
-3.3974125 -6.9263353 -0.093865603 150.5 0 0 0 81.784348
-4.2953157 -6.4035411 -0.47058606 219 0 0 0 83.921028
-3.3288939 -6.314867 -0.37393007 132.66667 0 0 0 82.236702
-2.9524627 -6.2036862 -0.41487849 419 0 0 0 81.589149
-1.7755191 -5.3184361 -0.058036566 1020 0 0 0 79.63913
16.492447 -5.45927 -0.27002433 38 0 0 0 54.630322
-6.5668035 -4.8610253 -0.30257955 139 0 0 0 89.396393
-5.5899415 -4.5771351 -0.43955943 143 0 0 0 88.62188
6.348731 -4.6149545 -0.29219007 148 0 0 0 59.506966
15.486366 -4.7075992 -0.24960931 65 0 0 0 54.232712
-6.6083665 -4.0658302 -0.096686654 890.5 0 0 0 90.782211
-6.2307453 -4.1562595 -0.17982851 545.5 0 0 0 90.190598
-5.6467819 -4.1763501 -0.36766705 326 0 0 0 89.401237
2.9209466 -4.1512423 -0.34957352 171.39999 0 0 0 64.703049
3.2766881 -4.1310024 -0.37546116 167 0 0 0 63.809898
3.7308588 -4.3628297 -0.39121386 154.33333 0 0 0 63.218002
6.5889983 -4.4270988 -0.29620931 295 0 0 0 58.92387
-6.2769318 -3.7532673 -0.26746163 120 0 0 0 90.975159
-5.7263002 -3.7175062 -0.41392878 224.75 0 0 0 90.388596
2.9817698 -3.8622842 -0.28652754 121 0 0 0 64.003639
3.0650072 -3.6518891 -0.16379662 90.5 0 0 0 63.3503
13.139663 -3.6450422 -0.20505691 85 0 0 0 53.842701
-6.02387 -3.4064424 -0.42018744 247 0 0 0 91.361069
2.8805857 -3.3765514 -0.42279792 43.5 0 0 0 63.217621
3.2446644 -3.2777531 -0.15710065 85.571426 0 0 0 62.040661
3.58127 -3.1980901 -0.25267267 120.25 0 0 0 61.067184
4.1769638 -3.2874649 -0.44881508 232 0 0 0 60.088261
8.4015226 -3.1749718 -0.19524634 737 0 0 0 55.274658
8.5079308 -3.0580838 -0.3448503 527 0 0 0 55.01358
12.800032 -3.2139988 -0.19770609 361 0 0 0 53.45668
3.3060579 -2.8098769 -0.25205228 32.75 0 0 0 60.675194
3.5584328 -2.8511629 -0.3797932 81.666664 0 0 0 60.221416
12.822166 -2.7203693 -0.19670452 166 0 0 0 52.867371
18.658737 -2.7710826 -0.30011216 85 0 0 0 51.88636
23.973175 -2.958868 -0.39502302 44 0 0 0 51.495319
13.050979 -2.2690792 -0.19973069 95 0 0 0 52.281158
23.744728 -2.3394887 -0.39044908 105 0 0 0 51.111473
23.988111 -1.7690607 -0.39459541 99 0 0 0 50.716953
-20.835962 -0.51039261 -0.32715154 98 0 0 0 99.152931
-20.06498 0.0010485105 -0.31379062 8 0 0 0 99.531952
-30.472136 0.74965549 -0.49559823 2614 0 0 0 0
27.251024 0.67464685 -0.45498708 18 0 0 0 49.161034
4.6196065 1.9388586 -0.26082084 72.333336 0 0 0 43.307312
5.2596793 1.9751844 -0.27251047 339 0 0 0 43.889626
-25.008476 2.4687643 -0.41261876 42 0 0 0 1.1699899
4.4467392 2.1595709 -0.20045376 128.39999 0 0 0 42.447208
4.6355433 2.1409862 -0.27506289 77.428574 0 0 0 42.749561
5.2750711 2.0587766 -0.13905685 602.5 0 0 0 43.696941
5.5661812 2.0138497 -0.21867417 316.5 0 0 0 44.082314
-25.024523 3.0895736 -0.41501209 62 0 0 0 1.5597399
11.138585 3.2470648 -0.46078926 120 0 0 0 45.058899
-24.986488 3.7069292 -0.41668785 76 0 0 0 1.94879
-2.3436351 3.9997396 -0.49892476 215 0 0 0 16.35976
-1.7324365 3.995609 -0.46718869 109.66666 0 0 0 18.311987
-1.2845924 3.9853759 -0.44822925 94 0 0 0 19.87138
-0.26947936 3.9929259 -0.42855528 78 0 0 0 23.77124
0.22234724 3.9872167 -0.4285737 74 0 0 0 25.72715
0.72524303 3.9936562 -0.43764496 59.666668 0 0 0 27.679291
1.1944666 3.985678 -0.45018071 99 0 0 0 29.427265
1.7007594 3.9889202 -0.47135052 91.333336 0 0 0 31.187265
2.2419362 3.9799206 -0.43072039 123.6 0 0 0 32.902332
2.7407081 3.9811089 -0.4108642 181.66667 0 0 0 34.306778
3.2035134 3.9784822 -0.4365418 260.66666 0 0 0 35.480331
3.7937136 3.9500008 -0.42535701 326 0 0 0 36.856232
4.1875968 3.7788548 -0.42861915 277.60001 0 0 0 37.990841
4.6077614 3.8352137 -0.41740692 357.33334 0 0 0 38.61655
5.1847057 3.9896884 -0.40668559 344.5 0 0 0 39.201843
5.7638063 3.7885585 -0.43077445 222 0 0 0 40.37133
6.1786757 3.7427602 -0.36246336 385 0 0 0 40.956558
6.6714263 3.8148296 -0.35593995 377.33334 0 0 0 41.34549
7.3514881 3.9616604 -0.32300916 305 0 0 0 41.740021
7.7778935 3.9452944 -0.33880433 294 0 0 0 42.131561
10.585804 3.5166481 -0.44199362 152 0 0 0 44.474327
-24.921324 4.322238 -0.41813681 60 0 0 0 2.3329301
-6.2623343 4.4696131 -0.47636294 381.5 0 0 0 9.5418396
-5.6525965 4.4612694 -0.44348508 341 0 0 0 10.325545
-5.242877 4.4565306 -0.4221082 279 0 0 0 10.91286
-4.7411056 4.4370904 -0.39634618 505.66666 0 0 0 11.68653
-4.1992359 4.4365025 -0.37068063 550.5 0 0 0 12.659904
-3.6884315 4.4426775 -0.4048996 442.79999 0 0 0 13.709427
-3.2514582 4.4467998 -0.43160456 373.75 0 0 0 14.708015
-2.743963 4.4485474 -0.44038072 356.66666 0 0 0 15.977577
-2.2155902 4.2960205 -0.44168761 218.33333 0 0 0 17.207224
-1.7319442 4.2970881 -0.42259562 140 0 0 0 18.703413
-1.2356931 4.2573428 -0.41308543 111.71429 0 0 0 20.321566
-0.75632465 4.2529173 -0.40987769 70.800003 0 0 0 22.016487
-0.24773358 4.2945151 -0.39137599 108.33334 0 0 0 23.903229
0.27355075 4.2912245 -0.3647624 77.916664 0 0 0 25.822561
0.74839413 4.3346262 -0.34447369 104 0 0 0 27.52232
1.2562473 4.333724 -0.34530336 84.699997 0 0 0 29.271778
1.7572705 4.2311382 -0.35107082 111.2 0 0 0 31.030725
2.1949346 4.3302393 -0.31417602 151.60001 0 0 0 32.201523
2.7738035 4.4195399 -0.28366762 204.25 0 0 0 33.625965
3.2228646 4.3655796 -0.2737844 284.28571 0 0 0 34.8097
3.6602626 4.2738752 -0.25975531 312.20001 0 0 0 35.950829
4.2334661 4.4019971 -0.22690021 450.5 0 0 0 36.856045
4.6686611 4.393559 -0.23999718 512.5 0 0 0 37.639065
5.1636591 4.3953624 -0.25592387 430 0 0 0 38.421925
5.7870173 4.3354273 -0.2752676 347.33334 0 0 0 39.396778
6.0007973 4.0504103 -0.27554619 263 0 0 0 40.1731
6.6994934 4.3983765 -0.11204961 366.5 0 0 0 40.372116
7.212965 4.3615251 -0.11960024 501 0 0 0 40.954449
7.6660714 4.3789701 -0.12689015 364 0 0 0 41.341991
8.1259794 4.3776374 -0.13420331 331 0 0 0 41.740021
-25.033119 4.9748764 -0.42310497 50 0 0 0 2.7269299
-11.141731 4.9091134 -0.48003352 190 0 0 0 6.23034
-10.45786 4.9137368 -0.45379651 210 0 0 0 6.6247602
-9.8164492 4.9059234 -0.42923194 216 0 0 0 7.0086899
-9.2268972 4.8938007 -0.40680581 266 0 0 0 7.40206
-8.7092648 4.8928261 -0.38756049 275 0 0 0 7.7920499
-8.2479734 4.8998699 -0.37081739 298 0 0 0 8.1757298
-7.8026905 4.8943133 -0.35459664 317 0 0 0 8.5740004
-7.2123942 4.8946576 -0.33370346 351.5 0 0 0 9.1510544
-6.6653929 4.8876314 -0.31456542 340 0 0 0 9.74014
-6.1832666 4.8863792 -0.298305 314.5 0 0 0 10.325545
-5.7360497 4.8823943 -0.28351671 306 0 0 0 10.91286
-5.3319397 4.8807836 -0.27065387 314 0 0 0 11.49353
-4.8370013 4.8774347 -0.25542188 259 0 0 0 12.267995
-4.2655387 4.8528619 -0.23820205 590 0 0 0 13.240204
-3.7734985 4.8582225 -0.22514091 912 0 0 0 14.22159
-3.2595992 4.7138219 -0.26099738 479.20001 0 0 0 15.11973
-2.7555532 4.729002 -0.26179683 311.875 0 0 0 16.364374
-2.2282326 4.7650366 -0.25991169 261.42856 0 0 0 17.810564
-1.7218711 4.7851691 -0.2414934 203.125 0 0 0 19.288296
-1.2095428 4.7818427 -0.23315445 99.375 0 0 0 20.851452
-0.72105277 4.7661076 -0.22693525 98 0 0 0 22.405079
-0.24640018 4.7349601 -0.22275709 134.375 0 0 0 23.96804
0.18281049 4.7259231 -0.20270437 150.83333 0 0 0 25.397337
0.7069025 4.822937 -0.17252406 175.75 0 0 0 27.094929
1.2050464 4.8278461 -0.17717755 223.75 0 0 0 28.649168
1.7723669 4.834909 -0.15912674 264.60001 0 0 0 30.324207
2.2103295 4.8129983 -0.12656941 245.83333 0 0 0 31.580359
2.7122929 4.7654266 -0.13167937 259.125 0 0 0 32.941833
3.2390676 4.8166399 -0.07113196 352.5 0 0 0 34.111008
3.6909297 4.8106375 -0.076042004 448.66666 0 0 0 35.089581
4.1968384 4.8188105 -0.082150653 499.5 0 0 0 36.068947
4.7536521 4.8144937 -0.089159846 474.33334 0 0 0 37.052658
5.2480621 4.8149652 -0.095734455 508 0 0 0 37.832241
5.6551356 4.8106766 -0.10132115 507 0 0 0 38.421925
6.3258367 4.7367764 -0.11011658 317.66666 0 0 0 39.396778
1.7393606 5.2642517 -0.066096909 43.5 0 0 0 29.816349
-25.124372 5.6344647 -0.42730677 35 0 0 0 3.1194999
1.3300557 5.8980904 -0.075275078 32 0 0 0 28.26054
1.5013621 5.6761727 -0.072067767 45 0 0 0 28.847059
-24.030897 6.00916 -0.41054001 113 0 0 0 3.5035801
0.89258164 6.4950962 -0.084598027 46 0 0 0 26.90185
1.0905638 6.2402039 -0.08055976 40 0 0 0 27.484325
0.44349015 6.9849939 -0.092672497 83 0 0 0 25.72715
0.67318225 6.7118993 -0.088054866 73.5 0 0 0 26.31259
-26.257936 7.2543902 -0.45641008 9 0 0 0 3.89308
0.19428889 7.2569351 -0.097429641 48 0 0 0 25.135225
-1.4310942 7.8188114 -0.10997223 595 0 0 0 21.81843
-0.16970879 7.7440338 -0.10632057 79 0 0 0 24.3582
-5.5504737 8.191 -0.14629909 223 0 0 0 15.19822
-5.2122731 8.1090355 -0.14160451 414 0 0 0 15.59369
-4.7918348 8.0879478 -0.13723516 500 0 0 0 16.169519
-4.2759867 8.0920258 -0.13265973 522.5 0 0 0 16.947266
-3.7783651 8.0810375 -0.12836662 562.5 0 0 0 17.727146
-3.3092504 8.0834274 -0.12489211 667.5 0 0 0 18.507034
-2.7469225 8.0822363 -0.12117136 731 0 0 0 19.482958
-2.2057531 8.0823431 -0.11811934 771 0 0 0 20.464375
-1.7827618 8.066618 -0.11586197 639.5 0 0 0 21.238529
-1.1700072 8.0669031 -0.11364774 658.5 0 0 0 22.406559
-0.76825428 8.0651112 -0.11269762 555.5 0 0 0 23.18598
-0.46728534 8.0199528 -0.11153737 302 0 0 0 23.77257
25.65044 8.4974804 -0.45869306 51 0 0 0 44.474327
26.85235 8.1676941 -0.4772068 14 0 0 0 44.867981
-6.2653403 8.7859135 -0.16295013 203 0 0 0 14.80426
-7.1267385 9.5044394 -0.1831599 164 0 0 0 14.41479
-12.02151 10.303276 -0.25555509 96 0 0 0 10.91286
-8.2002001 10.407744 -0.20859967 119 0 0 0 14.02839
-11.755323 10.584245 -0.25545979 71 0 0 0 11.29856
-11.487607 10.863199 -0.25547028 140 0 0 0 11.6885
-23.578907 11.12074 -0.44069535 18 0 0 0 6.6247602
-11.149608 11.071781 -0.25379238 220 0 0 0 12.07253
-10.606958 11.05893 -0.24665366 238 0 0 0 12.46346
-10.096585 11.053748 -0.24022099 219 0 0 0 12.85635
-9.9867229 11.486876 -0.24505647 226 0 0 0 13.23817
-23.419378 11.754285 -0.443818 12 0 0 0 7.0086899
-9.5405693 11.530102 -0.24044701 90 0 0 0 13.62609
-23.17758 12.351778 -0.44553053 62 0 0 0 7.40206
-22.129768 12.496404 -0.43042442 47 0 0 0 7.7920499
-19.729658 12.44742 -0.39282155 166 0 0 0 8.5740004
-16.559454 12.225308 -0.34306371 159 0 0 0 9.74014
-14.961164 12.215458 -0.32004622 115 0 0 0 10.52227
-20.954575 12.516616 -0.41235352 37 0 0 0 8.1757298
-19.257753 12.818264 -0.3896476 127 0 0 0 8.9585695
-18.278511 12.820573 -0.37507156 120 0 0 0 9.3435402
-16.137735 12.534662 -0.34058133 191 0 0 0 10.12882
-35.343456 -45.28421 0.46456683 9 0 0 0 85.095375
-36.917633 -44.981014 0.46947664 9 0 0 0 85.494911
-22.415838 -44.516972 0.41177657 14 0 0 0 81.979553
1.0799179 -44.53756 0.37564579 21 0 0 0 74.163918
-38.308556 -44.407848 0.47221082 11 0 0 0 85.883644
-4.3763247 -44.306896 0.3756364 27 0 0 0 76.119949
-3.2709019 -44.170033 0.37389147 18 0 0 0 75.733505
-2.1898322 -44.312344 0.37446252 17 0 0 0 75.341934
-12.125312 -43.776474 0.38141772 23 0 0 0 78.847343
-0.013374784 -43.933273 0.37104499 19 0 0 0 74.557854
-13.138651 -43.277653 0.37963852 17 0 0 0 79.241287
-10.87781 -43.382332 0.37634361 23 0 0 0 78.457672
-9.6706209 -43.014217 0.37169537 11 0 0 0 78.07444
-8.6623755 -43.49017 0.3738507 9 0 0 0 77.675087
-5.3356876 -43.159477 0.36767715 24 0 0 0 76.514244
-1.0776263 -43.355484 0.36680976 20 0 0 0 74.951843
4.2018862 -42.808083 0.36341429 12 0 0 0 72.987518
6.1881156 -41.819122 0.35723752 33 0 0 0 72.205673
12.675775 -41.841148 0.36616424 25 0 0 0 69.863342
11.333976 -41.015694 0.35772601 15 0 0 0 70.254547
15.947341 -41.386532 0.36968648 21 0 0 0 68.697609
13.526109 -40.995537 0.36161822 20 0 0 0 69.475685
14.619773 -40.907558 0.36326855 24 0 0 0 69.079536
22.99334 -40.620491 0.38404 18 0 0 0 66.342209
16.589905 -40.094242 0.36201346 17 0 0 0 68.302841
18.956553 -40.118076 0.36842564 21 0 0 0 67.51667
21.402298 -40.074585 0.37530971 11 0 0 0 66.736847
25.612038 -40.474049 0.39189267 19 0 0 0 65.56646
20.069977 -39.907963 0.37014866 19 0 0 0 67.132385
-5.8027077 -39.030678 0.33685747 30 0 0 0 76.907127
23.475349 -39.196762 0.37609053 16 0 0 0 65.955803
26.24103 -39.299644 0.38648066 8 0 0 0 65.17791
4.6914926 -38.165005 0.3284381 96 0 0 0 72.604118
29.688528 -36.198235 0.38047099 10 0 0 0 63.616154
-5.7849188 -33.258957 0.29329017 30 0 0 0 77.287422
14.709012 -33.227196 0.30864185 47 0 0 0 67.907753
5.3877487 -31.153648 0.27601609 41 0 0 0 71.820892
-39.247574 -30.62969 0.40116397 11 0 0 0 89.007927
-16.841948 -29.712612 0.29275283 25 0 0 0 82.759102
-39.887554 -28.093287 0.39247632 12 0 0 0 89.799377
0.6073752 -8.5496244 0.31493109 232 0 0 0 73.373672
0.32319757 -8.4517412 0.24103801 436.33334 0 0 0 73.903008
0.60416698 -8.4879904 0.10075409 423 0 0 0 73.373672
1.7331049 -8.2970028 0.10024963 496.5 0 0 0 71.23497
2.0480845 -8.2728672 0.10050194 832 0 0 0 70.653191
5.7608829 -8.2207966 0.2363029 323.5 0 0 0 64.77964
16.740833 -8.4394445 0.16748071 67 0 0 0 56.959831
17.038422 -8.0703659 0.16773988 78 0 0 0 56.575031
-4.6185093 -7.6810017 0.21464184 200 0 0 0 83.150391
-2.4990168 -7.5090089 0.4863534 245 0 0 0 79.63913
5.8173099 -7.7513204 0.2679373 549.33331 0 0 0 64.260559
6.0901604 -7.8402157 0.10928158 427 0 0 0 64.003639
16.879942 -7.4932489 0.16458465 143 0 0 0 56.17662
-4.7547951 -6.7318535 0.20018026 50.5 0 0 0 84.314728
31.050535 -6.1753426 0.24827997 42 0 0 0 52.676281
-1.8620987 -5.3612609 0.21942738 993.75 0 0 0 79.832993
15.928852 -5.2694235 0.15103933 31 0 0 0 54.630322
15.938212 -4.8410611 0.14975224 84 0 0 0 54.232712
26.20982 -4.54672 0.21365161 20 0 0 0 52.281158
-6.6380882 -4.1338196 0.25868419 945.85712 0 0 0 90.697701
15.91215 -4.4087558 0.14829445 105 0 0 0 53.842701
3.2380857 -3.6066644 0.25191891 239.75 0 0 0 62.82024
3.3278584 -3.4141107 0.24184677 361.33334 0 0 0 62.172958
3.5192916 -3.3803036 0.27350101 171 0 0 0 61.644398
8.3716745 -3.1227021 0.20946509 698 0 0 0 55.209389
13.171778 -2.9626312 0.29524851 368.5 0 0 0 53.05846
18.603495 -2.758954 0.16116972 238 0 0 0 51.88636
23.612144 -2.3215115 0.1924412 85 0 0 0 51.111473
28.668076 -2.1082232 0.22463757 49 0 0 0 50.716953
33.359219 -1.630016 0.25417146 14 0 0 0 50.323368
-20.706575 -0.5108338 0.18085933 105 0 0 0 99.152931
-20.770527 -0.0025276886 0.18106584 82 0 0 0 99.531952
-37.002052 0.90392447 0.29447404 18 0 0 0 0
-37.410412 1.8492804 0.28091317 32 0 0 0 0.38617
4.1928959 1.8847651 0.29381561 19.555555 0 0 0 42.917522
5.1056738 1.9577732 0.27314678 628.75 0 0 0 43.793285
-33.644833 2.4894247 0.25547069 65 0 0 0 0.77489001
-25.203342 2.4850411 0.20008282 47 0 0 0 1.1699899
3.9939361 2.2983291 0.29359108 31 0 0 0 41.341991
4.1423082 2.1616802 0.23102428 31.818182 0 0 0 41.988686
4.8889947 2.0524695 0.068737045 812 0 0 0 43.307312
5.1338449 2.0051885 0.20853055 446 0 0 0 43.696941
5.6128154 2.0321245 0.22103523 26 0 0 0 44.082314
-27.047026 3.3365273 0.21157093 92 0 0 0 1.5597399
-27.023125 4.0064874 0.21108557 99 0 0 0 1.94879
-27.007172 4.6815748 0.21076828 61 0 0 0 2.3329301
8.8908348 4.7888498 0.097319365 286 0 0 0 41.740021
66.160431 4.904398 0.45992398 78 0 0 0 48.375462
-27.001703 5.3637538 0.21065909 90 0 0 0 2.7269299
8.8246174 5.1824532 0.097978517 112.5 0 0 0 41.14822
9.0784302 5.7922049 0.10102812 100 0 0 0 40.571129
-26.815556 6.0113525 0.21026956 76 0 0 0 3.1194999
-24.788774 6.1960177 0.19712497 101 0 0 0 3.5035801
8.9126205 6.1627493 0.10130319 87.5 0 0 0 39.979874
9.0361376 6.7525702 0.10383353 52 0 0 0 39.397881
9.3252487 7.3313541 0.10722945 64 0 0 0 39.00581
-28.556301 7.8873229 0.22163011 74 0 0 0 3.89308
-1.4305458 7.8138566 0.27973771 653 0 0 0 21.81843
9.1418629 7.7528839 0.10788585 59.5 0 0 0 38.421925
12.664168 7.6306872 0.49511322 217 0 0 0 40.954449
-4.5976553 8.4545679 0.092357643 465 0 0 0 16.748699
-4.1988926 8.4412403 0.091271341 752.5 0 0 0 17.339115
-3.6926689 8.4310341 0.090056866 715 0 0 0 18.115829
-3.2127247 8.4333382 0.089130357 532.5 0 0 0 18.900406
-2.7509789 8.4388008 0.088405535 418 0 0 0 19.676186
-2.3004503 8.4356384 0.087805599 534.5 0 0 0 20.464375
-1.8634354 8.4407625 0.087409571 418 0 0 0 21.238529
-1.2201091 8.4251375 0.086960599 492.5 0 0 0 22.406559
-0.80144888 8.4318209 0.086831406 586 0 0 0 23.18598
-0.28145766 8.4249468 0.086526148 605.33331 0 0 0 24.162989
0.23614526 8.4171886 0.086413987 648.5 0 0 0 25.135225
0.75567263 8.4134712 0.086551905 594.33331 0 0 0 26.117441
1.2815058 8.4155712 0.08692497 580.5 0 0 0 27.09565
1.7756343 8.2397394 0.086454302 372.66666 0 0 0 28.066759
2.2575345 8.0299406 0.085968167 551 0 0 0 29.037794
2.7288079 8.1347561 0.087428533 470.5 0 0 0 29.816734
3.1498785 8.3498707 0.089505658 465 0 0 0 30.4034
9.1676388 8.3720436 0.11035585 42 0 0 0 37.832241
29.483692 8.1863289 0.2257456 61 0 0 0 45.249821
-5.0214186 8.7248154 0.094905108 276 0 0 0 16.35976
-1.8262873 8.8062162 0.31319696 420 0 0 0 21.435961
-1.2684273 8.7923775 0.31021398 537.5 0 0 0 22.406559
-0.72228271 8.7884274 0.30846086 654 0 0 0 23.38151
-0.18095556 8.7940369 0.30777955 473 0 0 0 24.3582
0.25148511 8.7963142 0.30794966 623.5 0 0 0 25.135225
0.68515372 8.7903156 0.3085371 695.5 0 0 0 25.921555
1.2323694 8.7864904 0.31038043 602 0 0 0 26.900171
1.7879092 8.7789822 0.31313604 591 0 0 0 27.871731
2.249058 8.7980843 0.31700295 460 0 0 0 28.651939
2.6467354 8.9563961 0.32504466 350 0 0 0 29.228529
3.451946 8.505003 0.091049619 471 0 0 0 30.79208
3.7898245 8.7096453 0.092984967 295 0 0 0 31.18652
4.1402164 8.9035711 0.094933011 282 0 0 0 31.5832
8.9909315 8.6263399 0.11058307 27 0 0 0 37.445889
11.249933 8.8316736 0.47953749 893 0 0 0 39.00581
-5.5618272 9.1472301 0.098600544 193 0 0 0 15.97928
-4.8503728 9.1995363 0.35515493 420 0 0 0 16.947266
-4.2899799 9.1981239 0.34761241 505.5 0 0 0 17.727146
-3.7521222 9.1908989 0.34097973 573.5 0 0 0 18.507034
-3.237628 9.1895256 0.33554643 510 0 0 0 19.28875
-2.7430449 9.1977339 0.33133936 527.5 0 0 0 20.06971
-2.2531166 9.1696796 0.32683194 491.5 0 0 0 20.850904
2.9364579 9.1006718 0.33200708 324 0 0 0 29.61611
3.2463064 9.2680111 0.34002471 339 0 0 0 30.017361
3.5700643 9.4357538 0.34838751 324 0 0 0 30.4034
4.7043519 9.1987114 0.098062679 287 0 0 0 32.162861
5.3036814 9.4874516 0.10134491 352 0 0 0 32.74432
6.5690813 9.4255714 0.24844477 1255.5 0 0 0 34.304409
11.004752 9.0862608 0.47847441 921 0 0 0 38.62056
-31.611286 9.5716629 0.24173877 85 0 0 0 4.2880301
-6.2076254 9.677309 0.10319008 171 0 0 0 15.59369
-5.4880166 9.5523214 0.37399799 256 0 0 0 16.35976
3.9009361 9.5856638 0.35650954 307 0 0 0 30.79208
4.2781372 9.8080502 0.36744839 309 0 0 0 31.18652
5.777153 9.7568512 0.10408353 346 0 0 0 33.139809
6.2587061 9.7279673 0.25001633 1354 0 0 0 33.723221
-31.186407 10.282282 0.23947823 95 0 0 0 4.6789498
-6.9730716 10.316331 0.10873112 153 0 0 0 15.19822
4.6617236 10.003061 0.3779006 397 0 0 0 31.5832
5.0726743 10.215345 0.38941091 324 0 0 0 31.97135
5.7360024 10.249546 0.40014505 1017.3333 0 0 0 32.746166
10.263308 10.334198 0.12304891 94 0 0 0 37.047218
-12.19807 10.982405 0.13259615 125 0 0 0 11.29856
9.3557005 10.748565 0.24023624 366 0 0 0 36.002819
9.5330353 10.592896 0.47750542 863 0 0 0 36.267326
10.364664 10.961209 0.12611273 46 0 0 0 36.664871
-29.249548 11.256717 0.22831863 86 0 0 0 5.4556899
-13.020624 11.161991 0.13704807 263 0 0 0 10.91286
-11.677815 11.04113 0.13047993 141 0 0 0 11.6885
-11.170609 11.089585 0.12845232 111 0 0 0 12.07253
-10.616411 11.065644 0.12601733 193 0 0 0 12.46346
-10.119854 11.078432 0.31043997 143.5 0 0 0 12.85635
-9.9964933 11.494784 0.12520109 165 0 0 0 13.23817
-7.8809466 11.076023 0.11537309 141 0 0 0 14.80426
-6.7220469 11.086777 0.43388754 153 0 0 0 15.97928
8.7884407 11.350985 0.30135977 447.5 0 0 0 35.09206
9.0402603 11.100586 0.30057296 420.5 0 0 0 35.478367
-8.9662981 11.980736 0.12336729 142 0 0 0 14.41479
-7.4848008 11.698215 0.46221858 122 0 0 0 15.59369
8.4944868 11.550074 0.121719 50 0 0 0 34.698311
8.541873 11.610004 0.48249343 877 0 0 0 34.698311
-33.92799 12.116878 0.25802404 56 0 0 0 5.0598502
-24.674929 12.382492 0.20261414 115 0 0 0 7.0086899
-23.214474 12.367574 0.19419539 113 0 0 0 7.40206
-19.730135 12.443997 0.17501873 154 0 0 0 8.5740004
-16.56048 12.222536 0.1578092 190 0 0 0 9.74014
-14.974463 12.222877 0.14998719 272 0 0 0 10.52227
-9.6516256 12.26361 0.12716538 309 0 0 0 14.02839
-8.7224112 12.275426 0.49819946 409 0 0 0 14.80426
-8.2718191 12.264324 0.49003658 441 0 0 0 15.19822
-26.702538 12.594549 0.21483865 66 0 0 0 6.6247602
-22.204405 12.534805 0.18884318 102 0 0 0 7.7920499
-16.138029 12.53129 0.15666947 193 0 0 0 10.12882
-10.482226 12.673592 0.13213116 188 0 0 0 13.62609
-19.748867 13.142609 0.17696501 77 0 0 0 8.9585695
-33.810886 13.976443 0.25933468 135 0 0 0 5.83989
-33.788631 14.946059 0.2605432 112 0 0 0 6.23034
-26.887993 16.069099 0.22298077 140 0 0 0 8.1757298
-25.143555 17.651236 0.21786869 69 0 0 0 9.3435402
62.234615 -41.587833 0.56913942 8 0 0 0 58.92387
62.855099 -39.805859 0.5642069 8 0 0 0 58.530899
-18.215496 -10.313445 0.70985091 154 0 0 0 91.361069
-7.1764941 -8.7295437 0.81827199 1003.5 0 0 0 85.494911
-6.697618 -8.783783 0.80092067 871 0 0 0 84.903503
0.2877402 -8.4026079 0.72209662 632.16669 0 0 0 73.968231
6.3190413 -8.1320868 0.87825811 263 0 0 0 64.003639
-4.6144109 -7.674839 0.76577234 80 0 0 0 83.150391
-2.5099518 -7.5467224 0.68615013 198 0 0 0 79.63913
5.7148018 -7.6131587 0.65625983 607 0 0 0 64.260567
16.952003 -7.5280681 0.6288355 107 0 0 0 56.17662
-4.7677922 -6.7508292 0.70947772 187 0 0 0 84.314728
-2.5331957 -6.5246534 0.77737641 46 0 0 0 80.410645
-2.1062005 -5.4169641 0.51054257 164 0 0 0 80.410645
-1.9047794 -5.4155126 0.59778404 489.66666 0 0 0 79.897614
-6.7223692 -4.1386242 0.77460063 919.5 0 0 0 90.782211
-1.6359353 -3.6563461 0.75407624 54.666668 0 0 0 81.196564
3.2197435 -3.5843055 0.66652828 200.33333 0 0 0 62.82024
-2.097302 -3.4777381 0.96246243 49 0 0 0 83.150391
-1.952757 -3.4226768 0.83824229 132.66667 0 0 0 82.759102
3.3394465 -3.3675346 0.73768562 419.30768 0 0 0 62.041328
8.3194628 -3.1422794 0.61277986 621 0 0 0 55.274658
8.3650217 -2.9241295 0.90185791 758.33331 0 0 0 54.88583
8.6044378 -2.8504758 0.77411884 10 0 0 0 54.630322
12.99018 -2.9223986 0.78564686 507 0 0 0 53.05846
18.587297 -2.7592504 0.63097203 108 0 0 0 51.88636
23.531939 -2.3170133 0.78305948 174 0 0 0 51.111473
28.707973 -2.115274 0.94439805 84 0 0 0 50.716953
4.0772457 1.8978714 0.51049626 26.5 0 0 0 42.722618
4.0348549 2.192148 0.5202437 22.333334 0 0 0 41.737858
4.9433985 2.1488662 0.67114449 960.5 0 0 0 43.113216
5.079555 2.1332362 0.7528491 11 0 0 0 43.307312
-26.89773 2.6586478 0.88319796 45 0 0 0 1.1699899
-29.196957 3.6090734 0.95729697 74 0 0 0 1.5597399
-29.17363 4.332859 0.95866251 42 0 0 0 1.94879
-29.147038 5.0602551 0.96050751 52 0 0 0 2.3329301
-29.183552 5.8051667 0.96498209 85 0 0 0 2.7269299
-26.977179 6.0541382 0.89900768 94 0 0 0 3.1194999
-28.757399 7.197721 0.96035725 102 0 0 0 3.5035801
-28.573006 7.8989058 0.95931983 75 0 0 0 3.89308
-1.4321414 7.8185492 0.67198557 606 0 0 0 21.81843
12.654896 7.6254663 0.85721797 271 0 0 0 40.954449
-1.4636391 8.0001469 0.88354236 159 0 0 0 21.81843
29.422028 8.1645546 0.98853457 71 0 0 0 45.249821
11.237887 8.8225594 0.82950222 822 0 0 0 39.00581
1.8026974 9.4203072 0.56724542 328 0 0 0 27.679199
2.1141961 9.2006092 0.55906916 311 0 0 0 28.26054
6.5594707 9.4122353 0.81582648 1185.5 0 0 0 34.304409
11.003771 9.0857401 0.8284325 882 0 0 0 38.62056
-4.7902784 9.9671383 0.64493471 290 0 0 0 17.5324
-4.3424721 9.9515514 0.63410223 392.5 0 0 0 18.115829
-3.7708364 9.9391155 0.62186021 422 0 0 0 18.900406
-3.3231642 9.8308058 0.6080845 335 0 0 0 19.480989
-2.8455083 9.5510235 0.58566028 637 0 0 0 20.06971
-2.3389735 9.5321465 0.57769853 601.5 0 0 0 20.850904
-1.9723361 9.5402422 0.57392848 532 0 0 0 21.435961
-1.2527827 9.5525541 0.56871319 428.33334 0 0 0 22.60063
-0.6604917 9.5511093 0.56557947 512.5 0 0 0 23.577881
-0.19028497 9.5490112 0.56441921 538.5 0 0 0 24.3582
0.27931964 9.5538244 0.56493461 574.5 0 0 0 25.135225
0.800735 9.6665306 0.65548843 510.33334 0 0 0 25.986357
1.2475882 9.7188511 0.70273364 554.75 0 0 0 26.705536
1.7069278 9.7722235 0.75230384 485.33334 0 0 0 27.419367
2.1679254 9.9787321 0.85579771 323 0 0 0 28.06426
2.788641 9.8540173 0.60358512 301 0 0 0 29.037794
6.2541385 9.7212515 0.82170904 1330 0 0 0 33.723217
-5.2679801 10.314089 0.67369896 306 0 0 0 17.14583
-3.2151999 10.344433 0.90210867 316 0 0 0 19.87138
-2.7886496 10.286754 0.88854623 588 0 0 0 20.464375
-2.2579718 10.302656 0.8801589 445 0 0 0 21.238529
-1.6029972 10.2927 0.87029696 467 0 0 0 22.20957
-1.2180753 10.296563 0.86687666 425 0 0 0 22.79616
-0.70845711 10.301018 0.86368787 470.5 0 0 0 23.577881
-0.20145826 10.300405 0.8620404 458.5 0 0 0 24.3582
0.3044295 10.290901 0.86169171 414 0 0 0 25.135225
0.66734111 10.051692 0.8440128 346 0 0 0 25.72715
2.5543108 10.488508 0.90276372 196 0 0 0 28.45682
3.2744074 10.124605 0.62583452 356 0 0 0 29.61611
3.7941761 10.390705 0.64934325 282.5 0 0 0 30.210381
5.7380943 10.256016 0.83488065 1220.8334 0 0 0 32.746166
-4.5107903 10.701711 0.96382177 306 0 0 0 18.309771
-4.208632 10.708667 0.95541739 298 0 0 0 18.7043
-3.7557528 10.689846 0.94174415 391.5 0 0 0 19.28875
2.9117613 10.78516 0.93309605 271 0 0 0 28.847059
3.2586989 10.982613 0.95607424 260 0 0 0 29.228529
4.3473182 10.66423 0.67463416 295 0 0 0 30.79208
4.7519069 10.87774 0.69436133 263 0 0 0 31.18652
5.239161 10.767901 0.79960012 1146 0 0 0 31.841967
9.2651348 10.819934 0.8265276 499 0 0 0 35.870567
9.5194712 10.57816 0.82580262 748 0 0 0 36.267326
73.894188 10.99252 0.50754821 8 0 0 0 47.204594
-12.275114 11.057177 0.74546957 105 0 0 0 11.29856
-11.669413 11.038031 0.72519386 135 0 0 0 11.6885
-11.119487 11.043341 0.70861185 133 0 0 0 12.07253
-10.621918 11.076277 0.69400573 205 0 0 0 12.46346
-10.133084 11.095922 0.86350757 156 0 0 0 12.85635
3.6045859 11.131519 0.97585857 260 0 0 0 29.61611
8.4572086 11.495993 0.82792556 279 0 0 0 34.698311
8.832653 11.121486 0.824175 303 0 0 0 35.285213
12.954248 11.233232 0.77744675 551.5 0 0 0 38.223289
-10.029311 11.537851 0.69164896 174.5 0 0 0 13.23817
-6.3627524 11.760763 0.77245283 163 0 0 0 16.748699
12.364311 11.836931 0.77604842 548 0 0 0 37.445889
12.655827 11.532465 0.7762838 536.5 0 0 0 37.832241
-24.666241 12.384854 0.88931018 145 0 0 0 7.0086899
-23.433823 12.491353 0.8563605 70 0 0 0 7.40206
-19.742937 12.458009 0.75572753 172 0 0 0 8.5740004
-16.557581 12.22578 0.66952968 218 0 0 0 9.74014
-9.6574574 12.27647 0.705854 320.5 0 0 0 14.02839
-9.1987476 12.299459 0.69473386 315 0 0 0 14.41479
-8.7234058 12.277454 0.86536866 387 0 0 0 14.80426
-8.263504 12.252483 0.84982353 451 0 0 0 15.19822
-7.8384328 12.257203 0.83721989 433 0 0 0 15.59369
-7.2204514 12.255056 0.81943595 473.5 0 0 0 16.169519
11.775111 12.439947 0.77641296 474 0 0 0 36.664871
12.067974 12.136528 0.77594006 532.5 0 0 0 37.047218
18.208496 12.212925 0.71575552 185 0 0 0 40.1731
19.096628 12.136967 0.73768622 88 0 0 0 40.571129
-26.692905 12.597144 0.94931912 51 0 0 0 6.6247602
-16.16193 12.555378 0.66572011 236 0 0 0 10.12882
17.458942 12.999884 0.71051955 125 0 0 0 39.397881
17.830225 12.606327 0.7128337 197 0 0 0 39.786648
-23.282816 13.152361 0.86158162 120 0 0 0 7.7920499
-19.789396 13.175769 0.76862943 66 0 0 0 8.9585695
-22.82703 13.641754 0.8565045 116 0 0 0 8.1757298
-17.727804 14.488242 0.74042875 132 0 0 0 10.52227
-20.773987 14.580735 0.81786156 99 0 0 0 9.3435402
-16.91436 14.526148 0.72177827 122 0 0 0 10.91286
-12.279542 14.868873 0.62830603 35 0 0 0 13.62609
-8.727562 -43.780628 1.4903525 16 0 0 0 77.675087
4.1074648 -41.918964 1.4080282 56 0 0 0 72.987518
5.1378083 -41.830704 1.4085941 73 0 0 0 72.604118
-5.7683358 -38.755085 1.312662 36 0 0 0 76.907127
-0.9765361 -38.945213 1.3055344 17 0 0 0 74.951843
8.4246407 -37.619381 1.2904965 34 0 0 0 71.03791
19.018927 -33.62001 1.2885487 29 0 0 0 66.342209
-16.879 -29.766237 1.1471025 26 0 0 0 82.759102
-18.289165 -27.348133 1.1033456 43 0 0 0 83.921028
-18.017673 -10.201356 1.2089294 171 0 0 0 91.361069
-7.1843238 -8.7406836 1.2341259 1239 0 0 0 85.494911
-6.7045803 -8.7959528 1.3431993 932 0 0 0 84.903503
-6.2120895 -8.8064222 1.4420334 190 0 0 0 84.314728
0.3988654 -8.5125608 1.3603513 69 0 0 0 73.772545
-0.018952103 -8.4614983 1.1416731 105 0 0 0 74.557854
0.25457492 -8.3573761 1.1974016 583 0 0 0 74.033455
6.4334898 -8.2765036 1.2784185 157 0 0 0 64.003639
6.6394801 -8.1215401 1.2781117 492 0 0 0 63.616154
-4.6286459 -7.7028217 1.3192793 92.5 0 0 0 83.150391
-2.5051403 -7.5371432 1.2685552 153.66667 0 0 0 79.63913
5.3836231 -7.6787963 1.4942571 208 0 0 0 64.77964
5.6103349 -7.5996695 1.15413 615.5 0 0 0 64.389023
5.5300889 -7.4896021 1.4836788 576 0 0 0 64.389023
41.040485 -7.1228604 1.3547162 27 0 0 0 52.281158
-2.3628604 -6.5611873 1.2894248 188.66667 0 0 0 80.026863
23.089565 -6.3961606 1.3849201 109 0 0 0 53.842701
-6.7899675 -4.1251054 1.2168787 899.75 0 0 0 90.88015
-1.8548052 -3.5493379 1.2948508 89 0 0 0 82.172409
-2.079222 -3.3770158 1.2690656 161 0 0 0 83.293747
-1.8847201 -3.4205201 1.1763574 169.10001 0 0 0 82.523621
3.2546604 -3.3504755 1.2406883 353.14285 0 0 0 62.208321
8.3357077 -2.8736932 1.2959596 793.25 0 0 0 54.821953
10.418478 -2.8858452 1.4452606 465 0 0 0 53.842701
10.589619 -2.9354742 1.1974866 487 0 0 0 53.842701
11.440617 -2.8693497 1.2821798 602 0 0 0 53.45668
