# .PCD v0.7 - Point Cloud Data file format
VERSION 0.7
FIELDS x y z intensity normal_x normal_y normal_z curvature
SIZE 4 4 4 4 4 4 4 4
TYPE F F F F F F F F
COUNT 1 1 1 1 1 1 1 1
WIDTH 944
HEIGHT 1
VIEWPOINT 0 0 0 1 0 0 0
POINTS 944
DATA ascii
-0.56404233 -11.079287 1.7612755 57 0 0 0 75.388977
3.0841403 -11.232944 1.8369557 81 0 0 0 70.301155
-1.0855114 -10.826902 1.7291849 25 0 0 0 76.170723
5.1134171 -10.868969 1.8847456 13 0 0 0 67.561501
6.3731823 -10.681127 1.9447812 14 0 0 0 66.00013
6.6340046 -10.525006 1.6358856 72 0 0 0 65.602684
35.96883 -10.964262 1.9424387 19 0 0 0 54.268799
-1.298592 -10.380866 1.9229141 59 0 0 0 76.563438
-0.64574993 -10.239798 1.7614912 55.5 0 0 0 75.585526
-0.27200782 -10.281105 1.8890423 13 0 0 0 74.993164
-5.1029897 -9.5230551 1.9881519 12 0 0 0 82.424637
-4.7963414 -9.5013199 1.6959 49 0 0 0 82.036049
0.2250521 -9.9986887 1.8367995 83 0 0 0 74.202675
2.9257443 -9.7269449 1.7314816 38.5 0 0 0 69.904472
3.8184772 -9.9645977 1.945646 19 0 0 0 68.73027
5.5036244 -9.7660875 1.7575153 6 0 0 0 66.389183
4.3176155 -9.1852989 1.8490689 20 0 0 0 67.561501
4.5093856 -9.0148735 1.5860443 136 0 0 0 67.166977
11.752308 -9.2054253 1.741564 228.5 0 0 0 60.12883
12.12258 -9.0236664 1.7619503 170.5 0 0 0 59.741409
-4.9281511 -8.6769018 1.8386561 42 0 0 0 82.81424
-1.5403831 -8.7739305 1.7494192 74 0 0 0 77.341286
-1.0943094 -8.7235184 1.8371044 91 0 0 0 76.563438
1.4855771 -8.6925058 1.7280905 657.5 0 0 0 71.862511
1.7654911 -8.6172628 1.7596732 394.33334 0 0 0 71.345177
3.3238893 -8.6815205 1.9279566 53 0 0 0 68.73027
-5.1687994 -8.3667583 1.8126507 383 0 0 0 83.394249
-4.963973 -8.2603064 1.5386164 378 0 0 0 83.197952
-1.8272709 -8.0600891 1.729876 416 0 0 0 78.11599
-1.2415789 -8.2468443 1.7445518 168 0 0 0 76.949425
-0.018348077 -8.0490484 1.8795857 199 0 0 0 74.60128
3.4458539 -8.380456 1.8792264 44 0 0 0 68.340179
-5.5725007 -7.8961258 1.7816796 11 0 0 0 84.365135
-5.3968682 -7.6471348 1.9563848 6 0 0 0 84.365135
-1.5954977 -7.9319715 1.6939256 275 0 0 0 77.735138
-1.1635609 -7.7319531 1.828657 240 0 0 0 76.949425
-0.99321955 -7.9163384 1.8650284 74 0 0 0 76.563438
0.26404706 -7.704607 1.8000689 561 0 0 0 74.008339
0.55535543 -7.8190522 1.6383239 302 0 0 0 73.429611
-7.5620065 -7.1922364 1.9205108 17 0 0 0 87.516449
-7.3131151 -7.3045325 1.6471786 98 0 0 0 87.121681
-7.2850037 -6.7592716 1.5847418 125.5 0 0 0 87.706116
24.03023 -4.1995168 1.8659501 108 0 0 0 52.30756
-30.821184 -3.7989378 1.7925289 34 0 0 0 97.663887
3.6586342 -3.5106349 1.557398 185 0 0 0 61.69342
5.2600908 -3.5364637 1.6963679 997.5 0 0 0 58.955231
5.6956048 -3.5599782 1.7934928 874.16669 0 0 0 58.431412
6.2861261 -3.6310141 1.6657048 920.75 0 0 0 57.874359
6.7688107 -3.6375077 1.7595024 796 0 0 0 57.39444
7.2181396 -3.6525993 1.7505662 965 0 0 0 56.992271
7.6953506 -3.6587794 1.7355064 862.66669 0 0 0 56.604553
8.2089672 -3.658144 1.717944 811 0 0 0 56.216873
8.8739786 -3.6944194 1.8333757 613.5 0 0 0 55.823502
9.6744843 -3.7508368 1.7176478 553.5 0 0 0 55.440479
10.438489 -3.7534153 1.832027 508.5 0 0 0 55.046711
11.361746 -3.7723866 1.6758713 511 0 0 0 54.656979
13.451182 -3.741421 1.7729151 437 0 0 0 53.873039
15.044532 -3.7914023 1.5823885 123 0 0 0 53.490929
16.540291 -3.7376714 1.7241274 165 0 0 0 53.094479
18.404665 -3.6852138 1.9023831 138 0 0 0 52.69799
-21.500856 -3.1912465 1.807187 103 0 0 0 97.274117
-16.07551 -3.198637 1.7706958 542 0 0 0 96.497536
3.7643678 -3.2711 1.716103 390.25 0 0 0 60.90881
5.208611 -3.4996831 1.9127946 918 0 0 0 58.955231
74.005386 1.7190707 1.8796111 13 0 0 0 49.185001
69.883102 5.0621223 1.7712028 18 0 0 0 48.41478
9.1736927 5.8224049 1.7757051 685 0 0 0 40.593807
8.7646589 6.3515096 1.7708355 1190.25 0 0 0 39.619545
9.0212765 6.0423346 1.7751615 1152 0 0 0 40.206806
7.319665 8.1063251 1.7940559 1173 0 0 0 36.289261
2.9239438 8.9638529 1.8100631 996 0 0 0 29.65233
2.6205916 9.1694479 1.8332334 1192.5 0 0 0 29.062401
-5.017076 9.8824482 1.5071985 428 0 0 0 17.1562
1.9488297 9.9844761 1.8346194 1109 0 0 0 27.70451
2.2463131 9.6274233 1.6588571 1310.5 0 0 0 28.28742
5.8841162 9.8676043 1.7549741 1118 0 0 0 33.160439
6.1788735 9.8041391 1.7681589 260 0 0 0 33.551369
16.543638 9.909997 1.9304738 170 0 0 0 40.979641
22.321911 9.8774891 1.8363869 67 0 0 0 42.942631
23.573702 9.7450523 1.9169703 22 0 0 0 43.336578
1.7379797 10.24906 1.749043 1084 0 0 0 27.312523
5.4881582 10.326916 1.6446631 1022 0 0 0 32.390121
5.6855564 10.090113 1.7706885 929 0 0 0 32.77784
18.234491 10.321492 1.5841022 129 0 0 0 41.380661
19.161123 10.231394 1.6400129 112 0 0 0 41.764381
20.116211 10.113054 1.6978339 106 0 0 0 42.152882
21.248945 10.035015 1.7698029 78 0 0 0 42.55201
-4.9066525 10.983683 1.7775247 395.5 0 0 0 17.942711
1.2928151 10.779803 1.8280513 951 0 0 0 26.529249
1.5193001 10.502122 1.6539803 1009 0 0 0 26.919701
5.1858292 10.691992 1.673726 997 0 0 0 31.796589
8.8524084 10.813786 1.7694196 591 0 0 0 35.508179
9.0736017 10.544251 1.7598273 649 0 0 0 35.903553
-3.2028072 11.429086 1.594155 337 0 0 0 20.2812
-2.7511797 11.412657 1.5736881 373 0 0 0 20.866779
-2.1573706 11.366286 1.5466805 328.5 0 0 0 21.646925
-1.7315552 11.40018 1.5380847 334 0 0 0 22.232929
0.80100232 11.37248 1.6404517 855.5 0 0 0 25.74522
1.052011 11.060507 1.7346947 929 0 0 0 26.131319
4.766757 11.195889 1.7171791 888.25 0 0 0 31.018173
8.3975248 11.353386 1.7911042 635 0 0 0 34.726208
8.6271343 11.083481 1.7798411 620 0 0 0 35.111889
14.321534 11.177504 1.8262647 268 0 0 0 39.03294
-14.597254 11.981038 1.6802279 94 0 0 0 10.53063
-13.853261 11.946974 1.6261358 114 0 0 0 10.91891
-6.6990142 11.766218 1.5083953 249 0 0 0 16.384609
-4.6311765 11.910487 1.7241203 346 0 0 0 18.723049
-4.3084812 11.937559 1.71 270 0 0 0 19.107321
-3.7964618 11.86059 1.6749737 255.5 0 0 0 19.698555
-1.3222504 11.567817 1.5493518 351.5 0 0 0 22.812904
-0.76317728 11.801663 1.5683918 363.5 0 0 0 23.5979
-0.33215633 11.980389 1.5850483 389 0 0 0 24.184401
0.25939587 11.990521 1.877453 955 0 0 0 24.960699
0.5369004 11.684294 1.6848032 846.5 0 0 0 25.36083
4.3296642 11.7351 1.7686391 882.75 0 0 0 30.229895
7.9358354 11.911223 1.8187295 650 0 0 0 33.948273
8.1724815 11.636488 1.8051754 542 0 0 0 34.337288
13.751888 11.865255 1.828776 246 0 0 0 38.2542
14.026652 11.513241 1.8256522 261 0 0 0 38.641701
-15.417531 12.037876 1.7418134 69 0 0 0 10.13253
-13.544647 12.271197 1.6223117 157 0 0 0 11.31041
-5.9030919 12.411395 1.8600286 305 0 0 0 17.54501
-5.1443558 12.336024 1.804546 215 0 0 0 18.333349
-2.1884623 12.41576 1.9927813 229 0 0 0 21.83613
-1.8624992 12.32338 1.9678953 194 0 0 0 22.232929
-0.035655387 12.241315 1.7684602 577 0 0 0 24.57407
0.25730219 12.013938 1.5840311 930 0 0 0 24.960699
13.473485 12.215386 1.8326793 241 0 0 0 37.85762
-11.162659 12.922075 1.712198 247 0 0 0 13.25713
-10.593114 12.887436 1.8728732 272 0 0 0 13.65102
-10.029231 12.826573 1.8259001 238 0 0 0 14.03462
-9.3017483 12.837322 1.7744806 330.5 0 0 0 14.62685
-8.0068741 12.600995 1.6659012 104 0 0 0 15.59894
-1.5799773 12.536542 1.9921702 244 0 0 0 22.61718
-0.3453069 12.734701 1.9977006 646 0 0 0 24.184401
12.900058 12.905722 1.8421993 220 0 0 0 37.078671
13.19198 12.56449 1.8374944 268 0 0 0 37.475529
-13.126705 13.11899 1.6418518 249 0 0 0 12.08831
-12.447291 13.061738 1.5944407 248 0 0 0 12.47785
-11.797962 13.002988 1.7623589 238 0 0 0 12.86375
-8.8057756 13.143871 1.7665935 329 0 0 0 15.21121
-19.623178 13.847305 1.5419639 135 0 0 0 9.3647203
-26.874958 14.423485 1.9669123 28 0 0 0 7.41293
-23.286049 14.000685 1.7497485 134 0 0 0 8.19135
-23.128815 14.689085 1.7612646 61 0 0 0 8.5787201
-37.125031 15.470558 1.6162719 40 0 0 0 5.8459601
-26.594215 15.122893 1.9697438 78 0 0 0 7.7994199
-16.306614 15.536493 1.9899021 109 0 0 0 11.70203
-36.487724 16.264359 1.6022402 38 0 0 0 6.2423301
-24.449646 16.385881 1.8865966 62 0 0 0 8.9660902
-21.538988 16.010897 1.7165153 43 0 0 0 9.74687
-35.593987 16.921932 1.5776192 54 0 0 0 6.6271501
77.453743 19.289856 1.9861808 12 0 0 0 45.67794
40.452732 -54.665531 2.0780368 28 0 0 0 64.438721
-33.881512 -50.657162 2.0636835 9 0 0 0 83.982193
-32.274509 -50.914001 2.0416694 6 0 0 0 83.590546
-39.121193 -50.086697 2.1499522 11 0 0 0 85.155678
-3.123472 -41.875687 2.4410193 26 0 0 0 75.782074
-2.0921001 -41.873436 2.4349954 20 0 0 0 75.388977
-8.7796373 -38.957829 2.3333986 23 0 0 0 78.11599
0.87853807 -37.221493 2.1596463 45 0 0 0 74.202675
-6.3903184 -36.646633 2.1731391 9 0 0 0 77.341286
69.574303 -35.125923 2.1554554 28 0 0 0 56.992271
11.799506 -33.102768 2.0009847 26 0 0 0 69.126625
-21.183308 -31.665485 2.235368 12 0 0 0 83.982193
-21.221701 -28.582045 2.0908794 6 0 0 0 84.757439
-7.9812937 -28.765656 2.4977036 7 0 0 0 78.906883
-22.300596 -27.145319 2.0632875 5 0 0 0 85.553879
-22.72287 -26.31592 2.0420015 5 0 0 0 85.939079
-11.548826 -26.012392 2.386209 13 0 0 0 81.244682
-23.113956 -25.477863 2.0202379 15 0 0 0 86.340355
-23.632675 -24.799261 2.0114131 28 0 0 0 86.728752
10.86603 -13.280487 2.2321041 5 0 0 0 63.646393
-1.9095399 -12.756596 2.2042422 31 0 0 0 76.949425
9.8730736 -12.689908 2.493824 19 0 0 0 64.040321
11.103415 -12.910981 2.2128911 26 0 0 0 63.25552
11.548451 -12.77966 2.2353899 37 0 0 0 62.86805
12.299413 -12.955316 2.3143504 35 0 0 0 62.466393
-2.4168122 -12.067479 2.2578461 34 0 0 0 77.735138
1.8223776 -12.426519 2.2940054 44 0 0 0 72.255585
10.386296 -12.077135 2.4665277 34 0 0 0 63.25552
14.11996 -12.213138 2.4058728 9 0 0 0 60.906578
-1.1543828 -11.537351 2.1272583 23 0 0 0 76.170723
2.9545357 -11.885418 2.2337608 49 0 0 0 70.690041
3.1918368 -11.617229 2.1968613 65 0 0 0 70.301155
4.755723 -11.541276 2.2689033 48 0 0 0 68.340179
11.005909 -11.594325 2.4705329 72 0 0 0 62.466393
17.657591 -11.8352 2.1955783 15 0 0 0 58.955231
-1.1112527 -11.105528 2.3232138 135 0 0 0 76.170723
-0.8512851 -11.289863 2.0774081 121 0 0 0 75.782074
4.9078012 -11.129053 2.2104244 74 0 0 0 67.955879
16.250595 -11.481878 2.0604429 23 0 0 0 59.348312
1.5594039 -10.643592 2.3648922 38 0 0 0 72.255585
2.3865929 -10.729636 2.0091579 64 0 0 0 71.081108
2.7651815 -10.571817 2.2650948 42.5 0 0 0 70.495598
3.2639122 -10.834448 2.3426456 48 0 0 0 69.904472
3.9026358 -10.972004 2.4077933 28 0 0 0 69.126625
6.3665218 -10.667444 2.2499721 45 0 0 0 66.00013
-2.5249758 -10.016463 2.1546576 54 0 0 0 78.504829
-0.51160896 -10.06006 2.222105 60.5 0 0 0 75.388977
6.1744113 -10.344722 2.4794209 84 0 0 0 66.00013
6.5438299 -10.377738 2.2210305 31 0 0 0 65.602684
17.004866 -10.22682 2.0460322 28 0 0 0 58.16502
17.709053 -10.066082 2.096411 13 0 0 0 57.777473
-4.7833443 -9.7720928 2.1349452 29 0 0 0 81.836578
-0.73027039 -9.664794 2.1379786 52 0 0 0 75.782074
-0.26047751 -9.9369411 2.3143148 44 0 0 0 74.993164
2.9179533 -9.6868315 2.3455522 51 0 0 0 69.904472
3.2154794 -9.7959528 2.3888254 127 0 0 0 69.521072
3.6256511 -9.8132133 2.4221127 65 0 0 0 68.928452
5.3644419 -9.7938957 2.3028269 159 0 0 0 66.584183
5.523376 -9.7985077 2.041779 95 0 0 0 66.389183
12.400408 -9.7066174 2.4201493 103 0 0 0 60.12883
-5.1736403 -9.2891531 2.3044622 56.666668 0 0 0 82.684372
-4.8517876 -9.3286343 2.3231983 43.5 0 0 0 82.230347
-0.93798101 -9.3673162 2.4256344 66 0 0 0 76.170723
3.1017745 -9.461318 2.0644703 29 0 0 0 69.521072
4.2972975 -9.1367092 2.2105608 58.5 0 0 0 67.561501
11.257637 -9.2690125 2.2459512 206 0 0 0 60.51968
12.165216 -9.0508118 2.3293753 164 0 0 0 59.741409
25.899153 -9.3033333 2.1237156 67 0 0 0 55.046711
-2.2672663 -8.5471535 2.3909888 111 0 0 0 78.705856
-1.7077731 -8.8896189 2.1867487 85.333336 0 0 0 77.603851
-1.3091558 -8.7267094 2.495208 112 0 0 0 76.949425
1.4690601 -8.5774422 2.2391403 608 0 0 0 71.862511
1.8286057 -8.557929 2.1071632 515 0 0 0 71.213142
4.661273 -8.7641993 2.2942712 160 0 0 0 66.77919
-8.0649548 -8.0574722 2.3754056 21 0 0 0 87.121681
-6.0986381 -8.2125797 2.3853016 16 0 0 0 84.757439
-5.6175394 -8.3942871 2.3556852 341 0 0 0 83.982193
-5.2751994 -8.4645758 2.1646779 226.33333 0 0 0 83.459679
-2.2312231 -8.2764826 2.2115552 115 0 0 0 78.772865
-0.61223525 -8.0804434 2.2930014 133 0 0 0 75.782074
-0.2152424 -8.071579 2.1844215 370.5 0 0 0 74.993164
1.7363725 -8.4611597 2.3651826 468 0 0 0 71.345177
3.3996403 -8.2626362 2.0720842 64 0 0 0 68.340179
5.048913 -8.4636602 2.2758448 79 0 0 0 66.00013
-4.263309 -7.508275 2.4439311 40 0 0 0 82.81424
-1.2010652 -7.989809 2.0866764 111 0 0 0 76.949425
-0.87738949 -7.7610602 2.1144338 145 0 0 0 76.367081
-0.017817616 -7.9420409 2.0498013 345 0 0 0 74.60128
0.26868999 -7.7533469 2.2914109 373.5 0 0 0 74.008347
0.56162864 -7.8673472 2.0345957 16 0 0 0 73.429611
4.3083611 -7.6450567 2.4647386 61 0 0 0 66.389183
-7.4849868 -7.1219516 2.4079902 404 0 0 0 87.516449
-4.6311593 -7.2989235 2.44664 110 0 0 0 83.590546
43.729584 -5.4512191 2.2353036 28 0 0 0 51.529209
23.989799 -4.1911931 2.4546518 151 0 0 0 52.30756
28.666574 -4.2859588 2.2072806 71 0 0 0 51.923489
5.861166 -3.5303373 2.0803065 733 0 0 0 58.16502
6.2060981 -3.5334306 2.1679406 723 0 0 0 57.777473
6.5676517 -3.5261421 2.3527305 680.5 0 0 0 57.39444
7.0820646 -3.5806341 2.2054296 794.5 0 0 0 56.992271
7.5283885 -3.5763714 2.3158219 670 0 0 0 56.604553
8.1174831 -3.6740804 2.2501812 681.25 0 0 0 56.313793
8.7148142 -3.6246302 2.3801234 586 0 0 0 55.823502
9.4548216 -3.663399 2.1789715 389 0 0 0 55.440479
10.123105 -3.6363235 2.4398675 403 0 0 0 55.046711
10.878131 -3.6102164 2.3151052 101 0 0 0 54.656979
11.187177 -3.713284 2.0896127 377 0 0 0 54.656979
13.424622 -3.7326174 2.286763 306.5 0 0 0 53.873039
18.675825 -3.7349119 2.3983541 242 0 0 0 52.69799
-21.538012 -3.1967604 2.3388963 109 0 0 0 97.274117
-16.051327 -3.1967392 2.1703231 398 0 0 0 96.497536
4.2167449 -3.3105459 2.0377479 20 0 0 0 60.12883
4.7531872 -3.4223862 2.1729968 36.666668 0 0 0 59.479343
5.1797442 -3.48101 2.0570877 728 0 0 0 58.955231
6.1415014 -3.4925559 2.4940856 575 0 0 0 57.777473
9.1667595 5.8168769 2.3091426 600.5 0 0 0 40.593807
8.7568779 6.3444004 2.3017778 1090.75 0 0 0 39.619545
9.0113297 6.0344138 2.3072772 1118 0 0 0 40.206806
7.2196651 8.193222 2.3323855 615.75 0 0 0 36.096405
7.6284032 8.0368376 2.22855 16 0 0 0 36.682034
2.9241211 8.9574432 2.2710164 856.5 0 0 0 29.65233
2.3415329 9.4875069 2.2394116 1062.3334 0 0 0 28.482981
2.6187799 9.1551542 2.2972417 1214 0 0 0 29.062401
1.9513819 9.9849529 2.2091088 1185 0 0 0 27.70451
2.1484022 9.7244797 2.1614108 1194.5 0 0 0 28.09186
5.8697739 9.8379345 2.1745505 1013.5 0 0 0 33.160439
6.1790781 9.8007145 2.0545909 261 0 0 0 33.551369
22.376427 9.9000025 2.4353259 74 0 0 0 42.942631
1.6302782 10.351852 2.2777357 1004 0 0 0 27.11632
5.4795847 10.301912 2.2178652 976 0 0 0 32.390121
5.6795039 10.073176 2.1964569 903 0 0 0 32.77784
18.212196 10.307048 2.0907686 117 0 0 0 41.380661
19.137957 10.217274 2.1652796 130 0 0 0 41.764381
20.12237 10.114434 2.2456191 120 0 0 0 42.152882
21.181255 10.001511 2.333467 88 0 0 0 42.55201
1.2932591 10.752629 2.3558342 900.5 0 0 0 26.529249
5.1806974 10.671319 2.2572289 884.25 0 0 0 31.796591
8.8485479 10.805764 2.1140988 592 0 0 0 35.508179
-4.910459 11.002171 2.2262928 78 0 0 0 17.942711
0.8038969 11.343187 2.1978235 894.5 0 0 0 25.74522
1.0541928 11.045107 2.1429315 892.5 0 0 0 26.131319
4.764432 11.178804 2.3154869 826 0 0 0 31.018175
8.3954525 11.344906 2.3140705 558.5 0 0 0 34.726208
8.6184759 11.068881 2.1250236 646 0 0 0 35.111889
14.310439 11.170404 2.2716124 253 0 0 0 39.03294
0.26340851 11.987203 2.3206315 646.5 0 0 0 24.960699
0.5397681 11.637926 2.2532763 891.5 0 0 0 25.36083
4.3271465 11.717468 2.2299824 839.5 0 0 0 30.229895
7.9339604 11.904079 2.1719451 613 0 0 0 33.948273
8.1688614 11.627307 2.1557145 557 0 0 0 34.337288
13.741978 11.858095 2.2741237 239 0 0 0 38.2542
14.02503 11.513352 2.2719593 232 0 0 0 38.641701
-0.031132221 12.328684 2.2364655 709 0 0 0 24.57407
13.454894 12.199874 2.2771115 235 0 0 0 37.85762
-11.776011 12.981265 2.4013667 209 0 0 0 12.86375
-11.172565 12.936427 2.3400953 224 0 0 0 13.25713
-10.583539 12.876136 2.279974 218 0 0 0 13.65102
-10.035849 12.835643 2.2266958 260 0 0 0 14.03462
-9.2952862 12.828798 2.1618268 294 0 0 0 14.62685
-3.5228064 12.611789 2.0790882 238 0 0 0 20.2812
-3.1786561 12.557632 2.0544753 371 0 0 0 20.669319
-2.6848085 12.520526 2.0276008 306.5 0 0 0 21.260979
-1.289839 12.761876 2.0192783 280 0 0 0 23.008631
-0.98601335 12.930164 2.0384955 351 0 0 0 23.404949
-0.3420862 12.72118 2.3101921 563 0 0 0 24.184401
12.896257 12.903023 2.2905259 211 0 0 0 37.078671
13.181664 12.555888 2.2840195 275 0 0 0 37.475529
-16.274437 13.370615 2.3811975 212 0 0 0 10.53063
-13.123455 13.120331 2.0911741 220 0 0 0 12.08831
-12.436948 13.055579 2.2512989 248 0 0 0 12.47785
-8.6675816 13.288588 2.1593347 313 0 0 0 15.405075
-4.6929889 13.032835 2.205864 210 0 0 0 19.107321
-4.3341269 13.027927 2.1840003 175 0 0 0 19.501789
-3.9768984 13.008606 2.1613941 277 0 0 0 19.895321
-0.67186117 13.063307 2.2152281 587 0 0 0 23.79085
-23.258352 13.982912 2.4217675 113 0 0 0 8.19135
-19.624378 13.847537 2.1384523 149 0 0 0 9.3647203
-16.091295 13.894329 2.400583 131 0 0 0 10.91891
-8.2102604 13.659012 2.1644297 294 0 0 0 15.99086
-7.9015222 13.906514 2.1692576 266 0 0 0 16.384609
-1.0334264 13.650198 2.4886329 279 0 0 0 23.404949
-29.172834 14.752066 2.1092188 34 0 0 0 7.0174799
-23.103727 14.672142 2.4392347 72 0 0 0 8.5787201
-34.512154 15.386322 2.440444 34 0 0 0 6.2423301
4.2769637 -34.903709 2.9068973 21 0 0 0 72.643379
-1.6499943 -33.089607 2.756058 10 0 0 0 75.388977
8.7809811 -31.846287 2.7154393 18 0 0 0 70.301155
-7.8412533 -31.219414 2.6896665 7 0 0 0 78.504829
-0.79775256 -31.486662 2.6200502 10 0 0 0 74.993164
10.057991 -30.547209 2.6380923 6 0 0 0 69.521072
15.4818 -30.83396 2.8050001 19 0 0 0 67.166977
9.0872202 -30.064148 2.5802863 9 0 0 0 69.904472
12.911619 -29.210526 2.6063025 10 0 0 0 67.955879
10.337425 -28.986242 2.5226905 18 0 0 0 69.126625
11.140816 -28.971739 2.5408726 8 0 0 0 68.73027
32.212414 -13.385964 2.6919146 11 0 0 0 55.823502
9.7720966 -12.557772 2.8623006 30 0 0 0 64.040321
10.453443 -12.775023 2.5571306 9 0 0 0 63.646393
10.781215 -12.53205 2.9676955 38 0 0 0 63.25552
11.327954 -12.533697 2.6113544 50 0 0 0 62.86805
10.073926 -12.310053 2.8592184 16 0 0 0 63.646393
14.287629 -12.355178 2.9012725 24 0 0 0 60.906578
10.772349 -11.918307 2.8826571 22 0 0 0 62.86805
-1.1458756 -11.487936 2.684422 119 0 0 0 76.170723
1.3476541 -11.059259 2.8593993 38 0 0 0 72.643379
4.9108481 -11.132851 2.5106087 116 0 0 0 67.955879
5.6251621 -11.224026 2.5866427 42 0 0 0 67.166977
16.246069 -11.17402 2.5258746 37.5 0 0 0 59.151772
-1.8523127 -10.597918 2.7688463 69 0 0 0 77.341286
-0.67994773 -10.81597 2.7871947 36 0 0 0 75.585526
1.5598562 -10.627447 2.8890276 46 0 0 0 72.255585
2.7344878 -10.623633 2.6322649 72 0 0 0 70.560417
3.3452606 -10.615406 2.8500471 43.5 0 0 0 69.712769
4.8981323 -10.740412 2.8689663 36.5 0 0 0 67.75869
6.0032301 -10.635264 2.8132634 18 0 0 0 66.389183
-2.2817636 -10.102672 2.667289 88 0 0 0 78.11599
-1.8150946 -10.386503 2.9759445 76 0 0 0 77.341286
-1.2504262 -10.026278 2.8523214 124 0 0 0 76.563438
0.98429549 -10.165475 2.6245551 31 0 0 0 73.02951
1.1252842 -10.30171 2.9198153 30 0 0 0 72.836441
3.7311823 -10.481382 2.8471897 47 0 0 0 69.126625
4.5136361 -10.22761 2.8574331 95 0 0 0 67.955879
6.6560574 -10.178878 2.5994546 73.333336 0 0 0 65.342354
-9.8508863 -9.8440027 2.5526209 6 0 0 0 87.121681
-9.413147 -9.8793659 2.6685436 22.5 0 0 0 86.728752
-4.871387 -9.6578989 2.5206769 33 0 0 0 82.036049
-0.25345272 -9.7073593 2.7416632 61.5 0 0 0 74.995132
2.4687185 -9.9266243 2.8780537 69 0 0 0 70.690041
3.9975522 -9.7000532 2.6847706 286 0 0 0 68.340179
6.1588449 -9.760766 2.8024251 72 0 0 0 65.602684
12.624253 -9.8792257 2.8597927 56 0 0 0 60.12883
-5.5222564 -9.1984434 2.5003979 28 0 0 0 83.197952
-4.9203 -9.1876421 2.6854155 14 0 0 0 82.424637
-2.1231821 -9.3966665 2.7221322 202 0 0 0 78.11599
2.5860765 -9.4070005 2.8654518 75.5 0 0 0 70.301155
4.1890283 -9.1880636 2.8348415 124 0 0 0 67.75869
6.0925856 -9.1514902 2.8021972 74 0 0 0 65.212189
11.141808 -9.1720352 2.5803733 153 0 0 0 60.51968
12.139547 -9.0298758 2.6989596 108 0 0 0 59.741409
-5.2151704 -8.9327316 2.6655908 64.5 0 0 0 83.006096
-1.9311122 -8.5429583 2.9091928 105 0 0 0 78.11599
-0.66468889 -8.8245411 2.8271 214 0 0 0 75.782074
1.0341266 -8.5181341 2.845644 120 0 0 0 72.643379
1.7855738 -8.5135088 2.7751017 254.5 0 0 0 71.27916
2.2670691 -8.6611156 2.8550584 188 0 0 0 70.495598
2.582093 -8.5709991 2.962646 363 0 0 0 69.904472
4.968019 -8.8090153 2.5839672 8 0 0 0 66.389183
5.1644416 -8.6540003 2.5739088 89 0 0 0 66.00013
5.8979878 -8.8587255 2.9781122 43 0 0 0 65.212189
6.105412 -8.7015648 2.7092948 41 0 0 0 64.826859
12.432912 -8.7821102 2.7129087 104 0 0 0 59.348312
-8.301445 -8.2973652 2.7316413 18 0 0 0 87.121681
-5.6965742 -8.2910347 2.7182384 292.5 0 0 0 84.17366
-5.1929073 -8.4116173 2.7887063 116.5 0 0 0 83.394249
-4.296823 -8.0244045 2.7984643 101 0 0 0 82.424637
-2.1973774 -8.1633606 2.6690285 54.333332 0 0 0 78.772865
-1.7999773 -8.4472961 2.6558423 115.5 0 0 0 77.925568
-0.84654874 -8.4541483 2.716815 81.5 0 0 0 76.170723
-0.21982864 -8.285265 2.6945152 167.28572 0 0 0 74.994286
1.4478279 -8.4401913 2.732656 420.5 0 0 0 71.862511
1.8890116 -8.4865351 2.6654897 378 0 0 0 71.081108
2.1009345 -8.4579287 2.8866174 350 0 0 0 70.690041
3.3882017 -8.3709421 2.8177929 78.5 0 0 0 68.437698
4.7442412 -8.4072485 2.9452388 31 0 0 0 66.389183
-8.2356606 -7.8376703 2.9255378 5 0 0 0 87.516449
-7.1772561 -7.5331235 2.6803007 306 0 0 0 86.728752
-5.0861087 -7.5991521 2.5864749 54 0 0 0 83.982193
-4.5354471 -7.7721233 2.876339 58.5 0 0 0 83.006096
-4.1344948 -7.9471474 2.5347729 24.5 0 0 0 82.230347
-1.1311252 -7.526248 2.5311556 213 0 0 0 76.949425
-0.78869528 -7.8901224 2.8296418 179 0 0 0 76.170723
-0.012483308 -7.9993358 2.8531179 224 0 0 0 74.60128
0.31920239 -7.7886248 2.731585 337.5 0 0 0 73.911179
2.3953879 -7.9559913 2.5467875 9 0 0 0 69.904472
-7.2569456 -7.2521701 2.6430957 86 0 0 0 87.121681
-4.2450032 -7.4773335 2.8574607 23 0 0 0 82.81424
3.956804 -7.4405975 2.681088 79 0 0 0 66.77919
-46.210278 -4.547894 2.660419 33 0 0 0 98.060287
28.616526 -4.277092 2.9064562 19 0 0 0 51.923489
-31.895538 -3.9370003 2.6537304 64 0 0 0 97.663887
6.9674845 -3.5203454 2.6532874 495.5 0 0 0 56.992271
7.4535937 -3.5378864 2.698714 596 0 0 0 56.604553
7.9578085 -3.5407627 2.8469598 514 0 0 0 56.216873
8.0043793 -3.5605016 2.6464717 507 0 0 0 56.216873
8.5953083 -3.5730605 2.6934435 532.5 0 0 0 55.823502
9.2799768 -3.5923252 2.7513139 462.66666 0 0 0 55.440479
9.9875793 -3.5861459 2.9319201 368 0 0 0 55.046711
10.073541 -3.6177425 2.6909425 407 0 0 0 55.046711
10.845804 -3.5961318 2.7280903 412.5 0 0 0 54.656979
13.386007 -3.7204852 2.7944658 98 0 0 0 53.873039
18.640469 -3.7267718 2.8643723 289 0 0 0 52.69799
-21.552372 -3.2027321 2.8760743 110 0 0 0 97.274117
-16.037504 -3.1939912 2.5728705 394 0 0 0 96.497536
-7.0655246 -3.2752769 2.9050128 338.66666 0 0 0 92.71582
6.1046305 -3.4709868 2.651387 578 0 0 0 57.777473
6.6501594 -3.4942472 2.771966 505 0 0 0 57.260387
19.72357 -0.50062555 2.9581039 27 0 0 0 49.971779
9.1648521 5.8145194 2.8427663 558 0 0 0 40.593807
8.7438049 6.3334475 2.829659 978.75 0 0 0 39.619545
9.0035706 6.0279522 2.8385005 891.5 0 0 0 40.206806
8.3879738 6.7856736 2.8735754 612.33331 0 0 0 38.772114
7.9005766 7.357924 2.9675579 936.5 0 0 0 37.666573
8.1448469 7.0426002 2.9582169 948 0 0 0 38.2542
7.4743099 7.8721156 2.9857759 770 0 0 0 36.682034
7.7400584 7.7609186 2.8757224 449 0 0 0 37.078671
7.272047 8.1827154 2.8306091 710.66669 0 0 0 36.16069
2.9285898 8.9611893 2.7375996 835.5 0 0 0 29.65233
6.7179585 8.8598576 2.7868536 467.5 0 0 0 34.919048
7.0629635 8.6336517 2.7935448 302 0 0 0 35.508179
2.3367944 9.4536457 2.8316991 1007 0 0 0 28.482981
2.6150413 9.1309633 2.760499 1016.25 0 0 0 29.062401
6.3319864 9.2638969 2.8149376 806 0 0 0 34.14278
1.9478884 9.9500999 2.7003212 984.5 0 0 0 27.70451
2.14838 9.7091503 2.6471617 996.5 0 0 0 28.09186
5.8697586 9.833992 2.7356026 830 0 0 0 33.160439
6.1237555 9.7084656 2.7384923 448 0 0 0 33.551369
21.170118 9.9991436 2.908205 72 0 0 0 42.55201
23.539234 9.7293825 2.5330877 49 0 0 0 43.336578
1.6294575 10.324183 2.7856574 930.25 0 0 0 27.116322
5.4823303 10.302313 2.7904427 763.5 0 0 0 32.390121
5.6732988 10.058012 2.7599003 885 0 0 0 32.77784
17.335245 10.384604 2.5182087 176 0 0 0 40.979641
18.218559 10.312947 2.6065657 154 0 0 0 41.380661
19.10841 10.204031 2.6949432 108 0 0 0 41.764381
20.149025 10.130468 2.8033547 77 0 0 0 42.152882
1.2927527 10.727713 2.747714 872 0 0 0 26.529249
5.1775751 10.659666 2.8360925 829.75 0 0 0 31.796589
0.80424607 11.307511 2.7464221 825 0 0 0 25.74522
1.0542486 11.016154 2.6797214 878.5 0 0 0 26.131319
4.7599111 11.164814 2.7590144 782 0 0 0 31.018175
14.306741 11.16502 2.7199938 210 0 0 0 39.03294
0.26427168 11.947779 2.7521594 604 0 0 0 24.960699
0.54290473 11.636244 2.8237348 671.5 0 0 0 25.36083
4.3231606 11.699368 2.6860509 767 0 0 0 30.229897
7.9297299 11.891277 2.6995449 479.5 0 0 0 33.948273
8.1621971 11.613834 2.5048611 500 0 0 0 34.337288
13.732612 11.847205 2.7212362 213 0 0 0 38.2542
14.012321 11.500298 2.7183683 232 0 0 0 38.641701
-4.7438979 12.230054 2.7388835 99 0 0 0 18.723049
7.6871247 12.162254 2.8964272 289 0 0 0 33.551369
13.453879 12.19593 2.7260978 211 0 0 0 37.85762
-11.787232 12.998589 2.8372948 219 0 0 0 12.86375
-11.174148 12.943234 2.7630246 189 0 0 0 13.25713
-10.573501 12.868883 2.6894686 249 0 0 0 13.65102
-10.035334 12.840169 2.6293795 205 0 0 0 14.03462
-9.2910252 12.831079 2.7484226 273.5 0 0 0 14.62685
-0.34039617 12.797354 2.7948194 221 0 0 0 24.184401
12.896723 12.900051 2.7417269 203 0 0 0 37.078671
13.179962 12.55105 2.7338681 203 0 0 0 37.475529
-16.25878 13.357375 2.8951728 196 0 0 0 10.53063
-13.125612 13.122592 2.5467634 197 0 0 0 12.08831
-12.423775 13.046512 2.9149802 162 0 0 0 12.47785
-8.6582947 13.283091 2.7452242 291 0 0 0 15.405075
12.600882 13.23913 2.7489614 150 0 0 0 36.682034
-19.613409 13.844154 2.71931 170 0 0 0 9.3647203
-16.088242 13.891464 2.9216738 114 0 0 0 10.91891
-8.1997871 13.651138 2.7526336 305.5 0 0 0 15.99086
-7.8922839 13.900384 2.76002 315.5 0 0 0 16.384609
-1.0289587 13.631461 2.8211181 308 0 0 0 23.404949
-26.839207 14.402788 2.7211387 49 0 0 0 7.41293
-7.5903468 14.167122 2.7721801 315 0 0 0 16.771589
-7.2751889 14.417711 2.7822523 290 0 0 0 17.1562
-29.125841 14.726542 2.9169288 40 0 0 0 7.0174799
-6.9646034 14.683576 2.5958693 246 0 0 0 17.54501
-37.135498 15.479866 2.5999699 28 0 0 0 5.8459601
-26.612474 15.131992 2.7317567 67 0 0 0 7.7994199
-6.3171034 15.203748 2.6231346 315 0 0 0 18.333349
-20.423073 15.974551 2.9288347 8 0 0 0 10.13253
-17.271656 15.675659 2.6282606 144 0 0 0 11.31041
-5.9993238 15.503102 2.6450589 181 0 0 0 18.723049
-2.3468156 15.694864 2.8899586 275 0 0 0 22.232929
-1.9593683 15.734686 2.884351 233 0 0 0 22.61718
-24.421852 16.366297 2.6149604 39 0 0 0 8.9660902
-35.125721 16.703966 2.5077956 37 0 0 0 6.6271501
-6.7853227 -54.714111 3.1996374 5 0 0 0 76.563438
-7.2961154 -36.569321 3.1080232 6 0 0 0 77.735138
0.87557775 -36.713821 3.0448976 27 0 0 0 74.202675
-21.135426 -31.608263 3.177532 18 0 0 0 83.982193
-0.79887098 -31.629084 3.4002168 9 0 0 0 74.993164
-0.022758905 -31.907225 3.4268818 11 0 0 0 74.60128
-22.190159 -31.486229 3.2185776 8 0 0 0 84.365135
-7.8037262 -31.077438 3.4557641 6 0 0 0 78.504829
6.8328567 -30.550932 3.3413963 10 0 0 0 71.081108
11.626573 -30.22261 3.435837 22 0 0 0 68.73027
9.7401361 -29.575077 3.3116498 10 0 0 0 69.521072
12.286987 -29.741343 3.4110923 13 0 0 0 68.340179
13.114211 -29.659674 3.4337544 16 0 0 0 67.955879
7.9255104 -28.743353 3.1784313 11 0 0 0 70.301155
-7.8379521 -28.254032 3.1659217 18 0 0 0 78.906883
10.010864 -28.064548 3.1674128 17 0 0 0 69.126625
-14.270518 -26.66902 3.2690585 19 0 0 0 82.424637
-11.552342 -26.023626 3.078599 10 0 0 0 81.244682
9.0223913 -12.846512 3.214536 14 0 0 0 64.826859
9.6575203 -12.727361 3.2681439 19 0 0 0 64.239517
9.9931431 -12.209004 3.2244484 40 0 0 0 63.646393
10.457944 -12.154873 3.2741175 7 0 0 0 63.25552
10.877952 -12.032171 3.309263 31 0 0 0 62.86805
11.679321 -12.298785 3.0388157 37 0 0 0 62.466393
3.2572393 -11.832019 3.1405556 31 0 0 0 70.301155
5.9218426 -11.802984 3.2052112 47.5 0 0 0 67.166977
5.9204211 -11.112662 3.2099826 92 0 0 0 66.77919
9.758028 -11.337687 3.4229438 94 0 0 0 63.25552
-7.5008054 -10.641394 3.0277379 10 0 0 0 84.365135
3.5412066 -10.772139 3.183908 18 0 0 0 69.521072
4.1505966 -10.80761 3.10151 40 0 0 0 68.73027
5.3764439 -10.71757 3.3576066 46 0 0 0 67.166977
5.8305683 -10.942142 3.4693575 41 0 0 0 66.77919
6.3926992 -10.696574 3.4838984 26 0 0 0 66.00013
-9.6121254 -10.092733 3.2383695 17 0 0 0 86.728752
-7.8374262 -10.296089 3.327014 10 0 0 0 84.956558
-4.9037294 -10.349493 3.2321692 28 0 0 0 81.6371
-2.0895815 -10.442234 3.0057058 95 0 0 0 77.735138
-1.6337845 -10.085641 3.1357887 67.5 0 0 0 77.145355
0.97597724 -10.046667 3.0930762 15 0 0 0 73.02951
3.7584534 -10.158451 3.1739874 44.5 0 0 0 68.928452
12.653164 -10.152065 3.2942126 50 0 0 0 60.324257
-7.0074482 -9.9407721 3.1287808 43 0 0 0 84.365135
-1.2089361 -9.7069817 3.0027738 14 0 0 0 76.563438
0.22852872 -9.7181149 3.4602442 33 0 0 0 74.202675
0.94773829 -9.7724266 3.2522428 24 0 0 0 73.02951
1.3521458 -9.7651453 3.101773 71.333336 0 0 0 72.38485
1.9640496 -9.9513226 3.3560452 127 0 0 0 71.477211
3.4541574 -9.697999 3.1458509 47 0 0 0 69.126625
4.311079 -9.7617807 3.256602 47 0 0 0 67.955879
5.699151 -9.5359793 3.3828859 24 0 0 0 66.00013
11.554646 -9.5034008 3.4079411 103 0 0 0 60.51968
-8.0417376 -9.3177452 3.4710698 46 0 0 0 85.939079
-7.5550947 -9.1999435 3.3583245 18 0 0 0 85.553879
-4.8228431 -9.007803 3.390429 51 0 0 0 82.424637
-1.7651998 -9.4163551 3.1793432 89.5 0 0 0 77.538208
-1.1510344 -9.2250614 3.0850711 42 0 0 0 76.563438
0.91406137 -9.3933382 3.3586574 24 0 0 0 73.02951
3.2621274 -9.1656389 3.2153776 116 0 0 0 69.126625
5.7735605 -9.1473598 3.1608853 85 0 0 0 65.602684
11.873423 -9.2862177 3.4311109 31 0 0 0 60.12883
12.284699 -9.1355991 3.1072421 27 0 0 0 59.741409
-6.9844885 -8.5073586 3.3777914 46 0 0 0 85.553879
-5.7096429 -8.5349455 3.4070818 121 0 0 0 83.982193
-2.236202 -8.8947449 3.2699199 44 0 0 0 78.504829
-1.7763543 -8.8856735 3.2305934 47 0 0 0 77.735138
-1.1652967 -8.7718773 3.2261555 127.33334 0 0 0 76.692101
-0.66181684 -8.8302078 3.1562164 123 0 0 0 75.782074
-0.43680644 -8.668169 3.0937977 147 0 0 0 75.388977
0.6160568 -8.5181227 3.0427079 134 0 0 0 73.429611
1.252472 -8.5304813 3.0698969 63 0 0 0 72.255585
1.9174149 -8.5978909 3.1340103 185 0 0 0 71.081108
2.1268094 -8.541379 3.3465035 217 0 0 0 70.690041
2.7749736 -8.6840668 3.1642606 213.66667 0 0 0 69.648872
3.1325605 -8.7925501 3.3149772 20 0 0 0 69.126625
4.2451906 -8.7388287 3.0851438 51.5 0 0 0 67.364243
5.7777348 -8.8266439 3.3850873 43.666668 0 0 0 65.342354
-7.2439871 -8.3952875 3.4024379 45 0 0 0 85.939079
-6.2733045 -8.2376595 3.3076782 131.25 0 0 0 84.956558
-5.8288293 -8.269433 3.1071851 167 0 0 0 84.365135
-5.324544 -8.1762753 3.1756973 53.75 0 0 0 83.786369
-4.6455483 -8.1930838 3.3580816 56 0 0 0 82.81424
-3.5815179 -8.0651922 3.1480646 20 0 0 0 81.244682
-1.1985379 -8.0107346 3.0886302 141 0 0 0 76.949425
-0.11117887 -8.0775452 3.0791743 195 0 0 0 74.797226
0.19481945 -8.4015627 3.2012823 92 0 0 0 74.202675
1.4313791 -8.3245001 3.1106629 313 0 0 0 71.862511
1.6280806 -8.2500725 3.1997194 34 0 0 0 71.477211
2.1990724 -8.3938427 3.1931896 287.5 0 0 0 70.495598
2.9619412 -8.3156166 3.3530979 55 0 0 0 69.126625
3.1740246 -8.2635469 3.3616338 294 0 0 0 68.73027
3.6985092 -8.3749485 3.3616352 36 0 0 0 67.955879
4.1150551 -8.2043905 3.2559965 76 0 0 0 67.166977
11.727065 -8.2785559 3.2650561 22 0 0 0 59.348312
-8.5650349 -7.7605901 3.2602866 32 0 0 0 87.895775
-8.4081497 -7.8110905 3.3778071 19 0 0 0 87.706116
-7.9586511 -7.9565287 3.3145533 42.5 0 0 0 87.121681
-7.2399044 -7.7886367 3.2640884 91.5 0 0 0 86.534554
-5.5455837 -7.8642011 3.1945214 35 0 0 0 84.365135
-4.054431 -7.5754309 3.2761574 25 0 0 0 82.424637
-0.39796066 -7.8646297 3.0025313 47 0 0 0 75.388977
-5.2096906 -7.3925786 3.2254405 117 0 0 0 84.365135
-3.6032531 -7.1456337 3.0532355 21 0 0 0 82.036049
4.4171057 -7.3948936 3.2661219 55 0 0 0 66.00013
4.5046072 -7.1384053 3.2004237 36 0 0 0 65.602684
-9.2747841 -6.1999955 3.4202814 289 0 0 0 90.247108
-7.0924501 -6.1152158 3.1082981 32 0 0 0 88.287918
-6.9165888 -6.2677946 3.212548 120 0 0 0 87.895775
-6.8503237 -5.7668657 3.3013802 315.5 0 0 0 88.483078
-7.6683688 -5.1252847 3.171711 278 0 0 0 90.247108
-7.5275598 -4.7703795 3.3941648 90 0 0 0 90.647713
19.235813 -4.8372827 3.4824982 60 0 0 0 53.490929
-8.6574688 -4.3631511 3.4513814 75 0 0 0 92.195389
13.203744 -4.0173931 3.454525 272 0 0 0 54.268799
23.848583 -4.160996 3.0357265 126 0 0 0 52.30756
-30.887098 -3.8125241 3.3267024 39 0 0 0 97.663887
-7.1368608 -3.5962739 3.0455494 75 0 0 0 92.195389
7.9008284 -3.5114553 3.0383313 489 0 0 0 56.216873
8.1699409 -3.629636 3.3591564 302 0 0 0 56.216873
8.5294209 -3.5454643 3.0154731 473 0 0 0 55.823502
10.669664 -3.6811042 3.2539113 129 0 0 0 54.851845
13.214543 -3.6690941 3.2621126 173 0 0 0 53.873039
18.65344 -3.7282739 3.3371258 144 0 0 0 52.69799
-31.46196 -3.1020002 3.3772316 85 0 0 0 98.060287
-21.393833 -3.179172 3.3901818 83 0 0 0 97.274117
7.3425193 -3.4823458 3.05845 505 0 0 0 56.604553
13.258483 -3.3323216 3.4189777 61 0 0 0 53.490929
10.542029 -2.9255471 3.286289 159 0 0 0 53.873039
13.228127 -2.9813046 3.3900263 265 0 0 0 53.094479
10.399365 -2.3438385 3.4644914 134 0 0 0 53.094479
12.405269 -2.4771163 3.4781029 79 0 0 0 52.69799
13.058763 -2.2758529 3.3119876 273 0 0 0 52.30756
14.66529 -2.1860247 3.334367 69 0 0 0 51.923489
11.78513 -1.7567341 3.2760398 75 0 0 0 51.923489
12.415524 -1.5395905 3.4363403 301 0 0 0 51.529209
18.556744 -1.8438369 3.2645688 63 0 0 0 51.135399
25.831263 -1.9282179 3.2352376 20 0 0 0 50.748791
-16.726934 -1.2387589 3.4614532 133 0 0 0 98.448288
-11.747066 -1.1624527 3.3176062 90 0 0 0 98.060287
19.054182 -1.4216214 3.3421803 29 0 0 0 50.748791
17.225067 -0.86056668 3.0190339 20 0 0 0 50.359901
-21.015606 -0.0065508168 3.2888451 26 0 0 0 99.611649
9.0009422 -0.00015245317 3.3655677 39 0 0 0 49.573799
19.35684 -0.49077457 3.38304 25 0 0 0 49.971779
9.0543976 0.22261427 3.3856156 90 0 0 0 49.185001
69.595688 5.0420566 3.4723511 16 0 0 0 48.41478
9.1579323 5.810688 3.2420075 512 0 0 0 40.593807
8.7918587 6.2684927 3.3362815 845 0 0 0 39.736996
8.4010592 6.737709 3.3555245 813.25 0 0 0 38.837318
7.8930211 7.3494706 3.3628328 819 0 0 0 37.666573
8.1493034 7.0451422 3.3575134 822 0 0 0 38.2542
7.4668713 7.8649354 3.2495112 858 0 0 0 36.682034
7.6372781 7.6583123 3.239846 835 0 0 0 37.078671
6.9505844 8.4951124 3.1569238 734 0 0 0 35.508179
7.1794028 8.2110472 3.1804698 840.66669 0 0 0 36.032124
2.8515215 8.9646187 3.2341385 693.33331 0 0 0 29.521124
6.6848016 8.8144894 3.1835332 700.75 0 0 0 34.919048
2.3395805 9.4512777 3.310606 747.5 0 0 0 28.482981
2.5844367 9.1526995 3.1942408 830.66669 0 0 0 28.996964
6.3260875 9.2521839 3.2276855 748 0 0 0 34.14278
1.9474907 9.9305201 3.1942968 822.5 0 0 0 27.70451
2.1470995 9.6874275 3.2528098 807.33331 0 0 0 28.09186
5.8607454 9.8131657 3.2948451 757.5 0 0 0 33.160439
6.049499 9.5865355 3.2661166 775.5 0 0 0 33.551369
22.356245 9.8941994 3.0345314 62 0 0 0 42.942631
23.515438 9.7229052 3.1564538 34 0 0 0 43.336578
1.632369 10.318974 3.2997415 750.25 0 0 0 27.116322
5.4748998 10.281733 3.2174835 816 0 0 0 32.390121
5.6700449 10.045942 3.3264837 730.5 0 0 0 32.77784
17.312376 10.368975 3.0141947 139 0 0 0 40.979641
18.192381 10.296276 3.1200294 115 0 0 0 41.380661
19.098063 10.196706 3.2290926 70 0 0 0 41.764381
19.994385 10.05122 3.3357491 73 0 0 0 42.152882
1.215485 10.814334 3.2168312 711.66669 0 0 0 26.396606
5.1756477 10.648054 3.2726488 702 0 0 0 31.796589
0.80695283 11.28912 3.3006816 652 0 0 0 25.74522
1.0587294 11.023268 3.092171 698 0 0 0 26.131319
4.7574987 11.150183 3.2036495 631.25 0 0 0 31.018175
14.150681 11.323236 3.165833 169.5 0 0 0 38.837318
0.26802284 11.936222 3.1904747 537 0 0 0 24.960699
0.54531813 11.606944 3.2476487 624 0 0 0 25.36083
4.2939019 11.607877 3.2732317 665.75 0 0 0 30.229895
13.716048 11.830139 3.1659782 180 0 0 0 38.2542
13.43917 12.179632 3.1717007 208 0 0 0 37.85762
-11.778361 12.993596 3.268903 198 0 0 0 12.86375
-11.15452 12.925277 3.1804488 217 0 0 0 13.25713
-10.558026 12.854952 3.0969908 212 0 0 0 13.65102
-10.018941 12.826778 3.2278218 206.5 0 0 0 14.03462
-9.2889462 12.836473 3.3336477 256.5 0 0 0 14.62685
-0.33511254 12.698603 3.2402816 202 0 0 0 24.184401
12.869404 12.869434 3.1860366 281 0 0 0 37.078671
13.149837 12.519282 3.1766965 208 0 0 0 37.475529
-16.272915 13.373528 3.4182668 176 0 0 0 10.53063
-13.092016 13.095807 3.2266865 192 0 0 0 12.08831
-12.427569 13.055303 3.3616405 194 0 0 0 12.47785
-8.6545963 13.286158 3.3305855 300 0 0 0 15.405075
12.570852 13.204098 3.1932695 233 0 0 0 36.682034
-33.255924 13.85622 3.2266502 35 0 0 0 5.8459601
-27.451542 13.881557 3.4967964 84 0 0 0 7.0174799
-23.256638 13.98623 3.0797091 125 0 0 0 8.19135
-19.641331 13.86328 3.3131936 120 0 0 0 9.3647203
-16.173664 13.970384 3.4654069 102 0 0 0 10.91891
-8.204298 13.668437 3.3439262 273 0 0 0 15.99086
-7.8944802 13.914577 3.3528109 262 0 0 0 16.384609
-1.0255862 13.593882 3.1466715 318 0 0 0 23.404949
-26.817242 14.395425 3.4572465 57 0 0 0 7.41293
-7.5903058 14.177966 3.3673363 371 0 0 0 16.771589
-7.2717905 14.422519 3.3789449 327 0 0 0 17.1562
11.702247 14.260758 3.2369852 234 0 0 0 35.508179
-33.280365 14.83347 3.2600214 47 0 0 0 6.2423301
-23.134119 14.696116 3.1071196 105 0 0 0 8.5787201
-6.8560824 14.780899 3.2713413 300 0 0 0 17.677576
11.414506 14.628036 3.2578261 116 0 0 0 35.111889
-26.611938 15.136385 3.4744048 68 0 0 0 7.7994199
-6.3162007 15.215881 3.2344089 257.5 0 0 0 18.333349
-5.9892821 15.487132 3.0524983 223 0 0 0 18.723049
-32.749722 15.569001 3.2413697 49 0 0 0 6.6271501
-17.270683 15.674651 3.2006207 82 0 0 0 11.31041
-16.376303 15.608633 3.102247 19 0 0 0 11.70203
-5.6451097 15.740707 3.2760565 231 0 0 0 19.107321
-2.3389077 15.66557 3.2737615 263 0 0 0 22.232929
-1.9569539 15.745228 3.2761025 209 0 0 0 22.61718
-24.454018 16.393093 3.3325973 43 0 0 0 8.9660902
-21.537735 16.014524 3.0340884 67 0 0 0 9.74687
-5.3078933 16.023302 3.0959446 251 0 0 0 19.501789
-4.9639535 16.317965 3.1246958 216 0 0 0 19.895321
-4.612318 16.618624 3.1558459 196 0 0 0 20.2812
-4.2370806 16.864004 3.1779816 275 0 0 0 20.669319
-3.8637593 17.151848 3.20948 282 0 0 0 21.06424
-3.5004716 17.542522 3.261333 171 0 0 0 21.45772
-3.1095867 17.86249 3.3014843 182 0 0 0 21.83613
-1.8641903 18.856312 3.4371879 157 0 0 0 23.008631
-3.31512 -44.61499 3.7121966 15 0 0 0 75.782074
0.86092669 -36.001377 3.8612087 17 0 0 0 74.202675
1.7667 -36.433834 3.9082818 19 0 0 0 73.814011
-1.6410542 -32.957077 3.5466301 14 0 0 0 75.388977
14.940087 -31.659981 3.7000651 11 0 0 0 67.561501
15.697724 -31.255121 3.692637 7 0 0 0 67.166977
-7.3151217 -29.155422 3.983032 12 0 0 0 78.504829
8.745574 -28.899321 3.9578018 9 0 0 0 69.904472
9.4980841 -28.815985 3.9739077 8 0 0 0 69.521072
-7.8289185 -28.246971 3.8856518 12 0 0 0 78.906883
-12.696693 -26.825459 3.9375918 6 0 0 0 81.6371
9.2083158 -13.102429 3.6705263 18 0 0 0 64.826859
9.3733206 -12.665452 3.610023 7 0 0 0 64.438721
9.7150002 -12.164923 3.5645032 16 0 0 0 63.843357
9.1962395 -11.808292 3.7964122 41 0 0 0 64.040321
-3.4031117 -11.188625 3.8756802 52 0 0 0 79.290688
5.3772802 -10.711819 3.6510093 19 0 0 0 67.166977
-7.7338119 -10.155985 3.5995288 23.5 0 0 0 84.956558
-4.9680386 -10.491696 3.5611033 36 0 0 0 81.6371
4.0015249 -10.4006 3.950315 38 0 0 0 68.73027
8.5233097 -10.408976 3.7485626 20 0 0 0 63.646393
9.3325043 -10.31918 3.6990991 22 0 0 0 62.86805
14.484477 -10.224615 3.5899384 27 0 0 0 59.348312
-8.6303253 -9.5183859 3.6219997 46 0 0 0 86.340355
-3.2596555 -9.8518152 3.9507475 56 0 0 0 79.680649
-1.7068448 -9.7912865 3.5403996 136 0 0 0 77.341286
3.9932668 -9.6691313 3.7093949 56 0 0 0 68.340179
4.3972278 -9.9573746 3.5904021 78 0 0 0 67.955879
4.5780997 -9.7155094 3.5419445 94 0 0 0 67.561501
-8.7429399 -9.1797762 3.573878 27 0 0 0 86.728752
-7.5871677 -9.2401638 3.962117 23 0 0 0 85.553879
-5.5203228 -9.2065811 3.8235698 92 0 0 0 83.197952
-1.6165264 -9.2699919 3.5838714 47 0 0 0 77.341286
-0.70702463 -9.4652939 3.6135023 96 0 0 0 75.782074
0.68885857 -9.4737215 3.6133947 22 0 0 0 73.429611
2.1161754 -9.472208 3.6875172 44 0 0 0 71.081108
4.9132781 -9.2154465 3.6988528 100 0 0 0 66.77919
5.3158579 -9.4148111 3.5619342 22 0 0 0 66.389183
5.7600975 -9.3674908 3.7577243 60.5 0 0 0 65.801407
-6.4010024 -8.6299391 3.8269172 103 0 0 0 84.757439
-5.3612833 -8.6963367 3.7651248 120 0 0 0 83.394249
-4.7125082 -8.809289 3.5604293 12 0 0 0 82.424637
2.8817549 -8.7610617 3.5026464 50 0 0 0 69.521072
3.5274491 -8.5474024 3.5091221 54 0 0 0 68.340179
10.978241 -8.5847368 3.8633356 21 0 0 0 60.12883
11.251112 -8.7992315 3.6038609 59 0 0 0 60.12883
11.548145 -8.5810537 3.9849918 58 0 0 0 59.741409
12.568878 -8.8690138 3.8738067 28 0 0 0 59.348312
-8.1345978 -8.1318264 3.8120849 45 0 0 0 87.121681
-7.972096 -8.3700571 3.8310332 39 0 0 0 86.728752
-7.2417536 -8.3965816 3.9480414 84 0 0 0 85.939079
-6.3081236 -8.0823183 3.7780373 107 0 0 0 85.155678
11.362123 -8.4450645 3.5702007 31 0 0 0 59.741409
-8.3356819 -7.9364362 3.5297987 31 0 0 0 87.516449
-7.1002603 -7.8291349 3.5054996 92 0 0 0 86.340355
-6.8196893 -7.9067345 3.9750254 34 0 0 0 85.939079
-6.3737249 -7.7660799 3.8258438 18 0 0 0 85.553879
-6.4367132 -7.1018319 3.6508965 120 0 0 0 86.340355
-6.8591466 -6.5317369 3.60763 42 0 0 0 87.516449
21.554819 -6.5592237 3.9560983 14 0 0 0 54.268799
-12.097454 -6.4691753 3.6891282 28.5 0 0 0 91.812515
10.435252 -6.2680502 3.9708843 32 0 0 0 58.16502
-11.598947 -5.8439908 3.974824 50 0 0 0 92.195389
-10.947815 -5.8566546 3.8014965 20 0 0 0 91.812515
-10.301151 -5.670145 3.8929477 54.5 0 0 0 91.61969
-9.6536798 -5.7875552 3.7279701 47 0 0 0 91.037766
-9.1827736 -5.5094771 3.810545 119 0 0 0 91.037766
-8.9001265 -5.6410413 3.7503066 47 0 0 0 90.647713
23.07876 -5.8031178 3.5816152 19 0 0 0 53.490929
-8.8924208 -5.1893969 3.9168568 102.5 0 0 0 91.232315
-7.5417466 -5.3147836 3.5135419 164 0 0 0 89.858551
8.1194105 -5.1515722 3.6177859 107 0 0 0 58.56461
17.877617 -5.441061 3.7474759 23 0 0 0 54.268799
23.340456 -5.2632465 3.598093 33 0 0 0 53.094479
-46.19902 -4.5549173 3.8154817 12 0 0 0 98.060287
18.75264 -4.7147951 3.8715334 184 0 0 0 53.490929
20.08391 -4.5289607 3.6109297 33 0 0 0 53.094479
39.0373 -4.8563814 3.9342246 23 0 0 0 51.529209
16.376865 -4.1146889 3.7990546 50 0 0 0 53.490929
18.799397 -4.2387362 3.8564317 192 0 0 0 53.094479
23.708643 -4.1353445 3.6135917 98 0 0 0 52.30756
28.479261 -4.2501187 3.6006365 40 0 0 0 51.923489
-21.404196 -3.7195003 3.9437249 51 0 0 0 96.887741
9.6821394 -3.7406127 3.8904335 175 0 0 0 55.440479
10.707964 -3.6904001 3.8244214 81 0 0 0 54.851845
13.14399 -3.6481576 3.7518017 269 0 0 0 53.873039
17.066109 -3.8446131 3.932354 102 0 0 0 53.094479
18.653267 -3.7271602 3.8049057 84 0 0 0 52.69799
37.79884 -3.763134 3.7964826 60 0 0 0 51.135399
-20.984529 -3.1183484 3.8508794 68 0 0 0 97.274117
9.9212008 -3.0150211 3.6287241 106 0 0 0 54.268799
10.187508 -3.0948465 3.9854951 84 0 0 0 54.268799
13.219146 -3.3215783 3.7473373 287 0 0 0 53.490929
19.092716 -3.3295739 3.8738346 151 0 0 0 52.30756
20.416775 -3.0466101 3.6136854 33 0 0 0 51.923489
25.469057 -3.1633515 3.8456986 26 0 0 0 51.529209
28.172014 -3.499819 3.5474854 40 0 0 0 51.529209
-21.254744 -2.6273558 3.8860939 64 0 0 0 97.663887
10.348566 -2.8709869 3.6228232 81.5 0 0 0 53.873039
12.872389 -2.5669982 3.9298766 81 0 0 0 52.69799
16.034628 -2.7936926 3.6578867 79 0 0 0 52.30756
17.830496 -2.6605766 3.6043208 59 0 0 0 51.923489
25.474916 -2.5308678 3.8336213 21 0 0 0 51.135399
-21.319441 -2.1058049 3.8862195 101 0 0 0 98.060287
-18.219723 -2.2522037 3.7873781 31 0 0 0 97.663887
-16.527246 -2.4589348 3.8596227 98 0 0 0 97.274117
-16.492418 -2.0416143 3.8380117 161 0 0 0 97.663887
11.930455 -2.0779121 3.9271357 92 0 0 0 52.30756
12.947108 -2.2557559 3.6103294 218 0 0 0 52.30756
39.955357 -2.0051281 3.9890585 14 0 0 0 50.359901
-23.527166 -1.7422715 3.6912789 14 0 0 0 98.448288
-12.586695 -1.874903 3.8879313 160 0 0 0 97.274117
-9.9908104 -1.7414861 3.8524091 108 0 0 0 96.887741
11.650591 -1.7348437 3.6736312 185.5 0 0 0 51.923489
15.547009 -1.9273698 3.9034967 59 0 0 0 51.529209
17.556421 -1.7401223 3.9561634 73 0 0 0 51.135399
18.774008 -1.8646134 3.766325 42 0 0 0 51.135399
24.608873 -1.8361895 3.6944809 52 0 0 0 50.748791
-21.72006 -1.0734973 3.9422498 37 0 0 0 98.836578
-11.682746 -1.3487145 3.7892468 52.666668 0 0 0 97.796021
24.860809 -1.2422097 3.7240319 12 0 0 0 50.359901
-20.554989 -0.51087308 3.7282171 28 0 0 0 99.222466
-16.771523 -0.83191603 3.8754041 43 0 0 0 98.836578
-12.376671 -0.61506581 3.631182 58 0 0 0 98.836578
11.745085 -0.58123577 3.5183876 157 0 0 0 50.359901
12.119296 -0.60143638 3.9290476 114 0 0 0 50.359901
12.632115 -0.93661523 3.7876153 115 0 0 0 50.748791
13.260305 -0.98587507 3.6471303 56 0 0 0 50.748791
16.742899 -0.8325063 3.7580733 36 0 0 0 50.359901
-22.022709 -0.0068596816 3.9897535 20 0 0 0 99.611649
-17.964964 -0.44654095 3.7045825 34 0 0 0 99.222466
-16.043036 -0.0078855725 3.7024786 33 0 0 0 99.611649
-9.7645655 -0.24796475 3.7090931 169 0 0 0 99.222466
-9.4351854 -0.4714317 3.5886679 83 0 0 0 98.836578
11.743237 -0.29208747 3.5136828 79 0 0 0 49.971779
18.027084 -0.013709045 3.5942605 25 0 0 0 49.573799
18.938454 -0.47964013 3.7766838 42 0 0 0 49.971779
21.340689 -0.016910408 3.7227674 55 0 0 0 49.573799
78.558533 -0.10156971 3.9217863 10 0 0 0 49.573799
18.819334 0.44791505 3.7500474 36 0 0 0 49.185001
20.090326 0.47762793 3.5064046 20 0 0 0 49.185001
9.1538601 5.8064127 3.6409693 318.5 0 0 0 40.593807
8.8174391 6.2228055 3.7591226 654.66669 0 0 0 39.815296
9.0024118 6.0241246 3.5062265 743 0 0 0 40.206806
8.3920746 6.7319088 3.7487497 750.5 0 0 0 38.837318
7.8878088 7.3456545 3.7581043 716 0 0 0 37.666573
8.1373615 7.0360999 3.7492819 684 0 0 0 38.2542
7.4617214 7.8563209 3.6470008 692.5 0 0 0 36.682034
7.6344433 7.6524553 3.6375501 686 0 0 0 37.078671
6.942277 8.481348 3.6921477 622 0 0 0 35.508179
7.2053909 8.1695671 3.6681595 663.5 0 0 0 36.096405
2.936857 8.9723997 3.5529296 400 0 0 0 29.65233
6.6786375 8.8023233 3.7238932 623.25 0 0 0 34.919048
2.3344457 9.4255781 3.6583579 743 0 0 0 28.482981
2.612349 9.1059017 3.5676727 714 0 0 0 29.062401
6.3217521 9.2412081 3.775768 609.5 0 0 0 34.14278
1.9445858 9.9076233 3.6825566 718 0 0 0 27.70451
2.1452446 9.6681242 3.7321155 637 0 0 0 28.09186
3.5275919 9.920435 3.9565096 469 0 0 0 30.034359
5.8534136 9.7951651 3.8510585 634 0 0 0 33.160439
6.0413251 9.5682907 3.8177381 652 0 0 0 33.551369
1.6298194 10.292623 3.8030899 618.25 0 0 0 27.11632
3.8077953 10.300059 3.8556316 444.5 0 0 0 30.229895
4.3154016 10.467479 3.9709594 396 0 0 0 30.82613
5.4743052 10.276024 3.6458478 672 0 0 0 32.390121
5.6633868 10.02598 3.7466891 680 0 0 0 32.77784
22.145046 10.456608 3.6460848 25 0 0 0 42.55201
1.1755662 10.825636 3.7100217 629.25 0 0 0 26.330284
3.7792184 10.615909 3.6802511 537 0 0 0 30.034359
4.3152599 10.82901 3.8031778 459.5 0 0 0 30.62578
4.8580146 10.993533 3.9167707 610 0 0 0 31.21022
5.1727791 10.63705 3.7062967 669.5 0 0 0 31.796589
18.016682 10.787281 3.6545513 77 0 0 0 40.979641
3.9219692 11.022478 3.5305338 441 0 0 0 30.034359
4.3098025 11.22554 3.6255109 546 0 0 0 30.42543
4.7518692 11.133654 3.6468163 652.5 0 0 0 31.018175
-29.461737 12.274708 3.6354311 80 0 0 0 5.8459601
-28.740522 12.808249 3.5818033 73 0 0 0 6.2423301
-11.773686 12.993235 3.6988642 183 0 0 0 12.86375
-11.160872 12.937629 3.6025217 202 0 0 0 13.25713
-10.56312 12.866457 3.7114391 180 0 0 0 13.65102
-10.015246 12.825096 3.8244755 197 0 0 0 14.03462
-9.2865896 12.833761 3.7199626 238.5 0 0 0 14.62685
-28.10256 13.357552 3.5395503 96 0 0 0 6.6271501
-16.257774 13.365487 3.9356427 149 0 0 0 10.53063
