# .PCD v0.7 - Point Cloud Data file format
VERSION 0.7
FIELDS x y z intensity normal_x normal_y normal_z curvature
SIZE 4 4 4 4 4 4 4 4
TYPE F F F F F F F F
COUNT 1 1 1 1 1 1 1 1
WIDTH 967
HEIGHT 1
VIEWPOINT 0 0 0 1 0 0 0
POINTS 967
DATA ascii
1.8865197 23.753 3.1357474 156 0 0 0 25.755369
-16.936434 24.472778 3.1474164 48 0 0 0 14.82941
-16.039419 24.429386 3.0915108 38 0 0 0 15.21941
-15.188258 24.411173 3.0423563 81 0 0 0 15.61169
-10.54746 24.250103 3.4541669 108 0 0 0 17.950871
-9.1777105 24.279995 3.393012 122 0 0 0 18.72904
-6.4911289 24.047787 3.2616911 76 0 0 0 20.292561
-49.443535 35.639431 3.441963 14 0 0 0 9.3625603
-39.243855 -52.684227 3.7160521 5 0 0 0 84.793846
-4.4135952 -43.175579 3.5678027 16 0 0 0 76.200645
18.203583 -39.006195 3.5779831 52 0 0 0 67.593185
20.542181 -38.91975 3.6595588 7 0 0 0 66.802902
-16.457167 -30.601511 3.6886704 19 0 0 0 82.45488
-6.6061497 -28.956461 3.8962734 16 0 0 0 78.142593
6.6369162 -27.068275 3.6834469 93 0 0 0 70.720764
7.2686729 -26.791464 3.6700311 64 0 0 0 70.325691
7.9082685 -26.55792 3.6645029 77 0 0 0 69.940491
-10.449198 -25.024529 3.5530746 11 0 0 0 80.884483
-12.311784 -24.302549 3.5684092 34 0 0 0 82.064926
-42.171082 -23.844604 3.9629943 15 0 0 0 91.45665
-12.742558 -23.696373 3.5244846 8 0 0 0 82.45488
-6.6551814 -23.734766 3.8465252 25 0 0 0 78.928223
-42.360977 -22.601835 3.9286611 27 0 0 0 91.837936
-19.258224 -22.247591 3.8526337 15 0 0 0 85.976143
-11.097821 -21.902161 3.8262129 33 0 0 0 82.064926
-42.441589 -21.32704 3.8876319 27 0 0 0 92.223854
-13.79476 -20.546099 3.8563318 11 0 0 0 84.00779
-42.570175 -20.101967 3.854208 15 0 0 0 92.609344
-13.877867 -19.615068 3.7451937 81 0 0 0 84.39679
-13.941563 -18.716406 3.6386621 57 0 0 0 84.793846
-13.936305 -17.78389 3.5237415 74 0 0 0 85.191841
-13.940498 -16.919279 3.9622097 4 0 0 0 85.575523
-13.994488 -16.16235 3.8649139 102 0 0 0 85.976143
22.326 -15.931961 3.6391599 44 0 0 0 59.375439
-14.013402 -15.405834 3.7658534 143 0 0 0 86.365471
11.688173 -15.175772 3.9718564 29 0 0 0 64.074669
-14.033088 -14.68892 3.6743975 142 0 0 0 86.759514
12.726708 -14.946243 3.5868406 96 0 0 0 63.281689
-14.054145 -14.008281 3.5900147 167 0 0 0 87.15596
-14.079158 -13.362688 3.7513313 164 0 0 0 87.540558
-14.188732 -12.821717 3.9314458 188 0 0 0 87.927757
-14.295117 -12.296235 3.8770902 123 0 0 0 88.315628
4.8954062 -12.043228 3.662226 20 0 0 0 68.369034
-14.394255 -11.781379 3.8253391 165 0 0 0 88.702095
5.6918588 -11.501814 3.6173291 134 0 0 0 67.199265
18.358418 -11.7931 3.9833963 35 0 0 0 58.588791
-14.493819 -11.282386 3.7780061 222 0 0 0 89.105698
5.8122139 -11.276462 3.7847054 239 0 0 0 66.93502
6.1834288 -11.091316 3.7358851 129.5 0 0 0 66.416489
-14.583255 -10.789682 3.7320635 236 0 0 0 89.490974
6.2943401 -10.666663 3.7988188 128 0 0 0 66.026115
18.73543 -10.775672 3.9455678 49 0 0 0 57.798359
-14.678982 -10.314645 3.6915307 238 0 0 0 89.88343
4.9874644 -10.088443 3.7318604 118 0 0 0 67.199265
6.297472 -10.379446 3.8736098 54.5 0 0 0 65.83194
18.681772 -10.143641 3.8810978 48 0 0 0 57.411758
-14.743147 -9.8300285 3.6468089 247 0 0 0 90.282875
4.6873569 -9.7787466 3.7306376 224 0 0 0 67.396225
5.0490823 -9.6154604 3.6030631 192 0 0 0 66.802902
18.825117 -9.6312304 3.8606105 55 0 0 0 57.02655
-14.850484 -9.3851347 3.6160834 178 0 0 0 90.675247
3.4685681 -9.1856871 3.7393603 43 0 0 0 68.764046
3.7154281 -9.15413 3.7629113 203 0 0 0 68.369034
16.272999 -9.3632832 3.894882 17 0 0 0 57.798359
18.810883 -9.048995 3.8112881 43 0 0 0 56.62402
-15.025811 -8.5006208 3.9769161 228 0 0 0 91.45665
-14.92813 -8.9308376 3.5813637 196 0 0 0 91.068916
19.244495 -8.6823473 3.8541799 35 0 0 0 56.24015
-15.149883 -8.2453661 3.6916895 127.66666 0 0 0 91.710838
6.1761546 -8.0366993 3.7413592 269.5 0 0 0 64.074669
-15.801039 -7.7005444 3.6200724 27.5 0 0 0 92.416595
-15.189462 -7.6377172 3.917752 171 0 0 0 92.223854
6.4177427 -7.9397621 3.643775 145 0 0 0 63.676872
-16.150782 -7.150682 3.6378427 12 0 0 0 93.006241
-15.265609 -7.2136383 3.8912961 271 0 0 0 92.609344
-16.482508 -6.8202667 3.6739781 11 0 0 0 93.403358
-15.349741 -6.7991247 3.8697562 207 0 0 0 93.006241
-15.411071 -6.3799629 3.8453207 126 0 0 0 93.403358
9.8144073 -6.3159132 3.7322946 194 0 0 0 58.588791
15.886444 -4.5093894 3.8346725 139 0 0 0 53.902859
-16.482149 -4.1323905 3.919472 22 0 0 0 95.73996
-15.476564 -4.2854881 3.7055075 21 0 0 0 95.350677
-16.707188 -3.7566762 3.9501374 77 0 0 0 96.132622
16.444374 -3.8072333 3.7115502 145 0 0 0 53.122128
9.2603464 -2.6321681 3.6805074 113 0 0 0 53.902859
9.5265741 -2.2072947 3.7381248 98 0 0 0 53.122128
13.065903 -2.0267251 3.733387 9 0 0 0 51.939739
9.7435112 -1.5105731 3.7690849 47 0 0 0 51.939739
12.769079 -1.8192428 3.9616637 81.5 0 0 0 51.747131
13.198019 -1.715932 3.757674 100 0 0 0 51.55452
12.78466 -1.3425248 3.7891526 279 0 0 0 51.16116
19.708019 -1.0959593 3.603585 156 0 0 0 50.380539
17.640211 0.75373179 3.6630657 182 0 0 0 48.816448
-17.961084 1.9803736 3.7051978 136 0 0 0 1.1619999
-17.872692 2.4125478 3.6972075 108 0 0 0 1.5613999
-17.655973 2.8224449 3.664695 159 0 0 0 1.94982
22.679264 2.6512599 3.5959079 74 0 0 0 47.6464
-17.659113 3.2659755 3.6800117 98 0 0 0 2.33829
9.7861366 3.1814353 3.9333141 46 0 0 0 44.521141
34.825737 3.1989503 3.7596056 38 0 0 0 48.043678
-17.685509 3.7186868 3.7025528 69 0 0 0 2.7243199
10.200646 3.8763602 3.6304107 85 0 0 0 43.745487
11.214826 3.9466531 3.951344 47 0 0 0 44.135887
10.707566 4.3726001 3.845216 126 0 0 0 43.3587
8.294363 4.6593494 3.6397579 56 0 0 0 41.393661
8.5002689 5.3411121 3.837863 305 0 0 0 40.609592
9.5870447 5.0740051 3.8762956 363 0 0 0 41.781033
11.613121 5.2520151 3.9163249 125.5 0 0 0 42.768856
13.72682 5.2088981 3.7755172 42 0 0 0 43.745487
26.697634 5.1343207 3.6002192 66 0 0 0 46.477879
6.9700999 5.9839816 3.5136373 232 0 0 0 38.26804
8.4371672 5.5959744 3.6202438 416 0 0 0 40.226139
9.0183525 5.6619282 3.6744871 253.5 0 0 0 40.609592
9.8639393 5.8535151 3.813565 143 0 0 0 41.009953
6.705616 6.3575225 3.5331349 44 0 0 0 37.484074
8.427309 6.207293 3.7404854 161 0 0 0 39.442341
13.789898 6.024085 3.8687768 120 0 0 0 42.96608
41.881012 6.9810433 3.5241017 18 0 0 0 46.862278
-17.360451 7.3871012 3.8594887 47 0 0 0 5.8528299
15.326113 7.1457891 3.925735 18 0 0 0 42.571632
19.177254 7.2646885 3.7426357 18 0 0 0 43.745487
-17.238886 7.8373342 3.8731663 70 0 0 0 6.2382202
15.289713 7.8267984 3.9873323 71 0 0 0 41.980804
-18.601416 8.4607868 3.6793721 51 0 0 0 6.2382202
-45.80101 8.5194969 3.834131 18 0 0 0 2.33829
-18.69684 9.061945 3.7401168 35 0 0 0 6.6298699
13.825976 9.1358566 3.8474286 49 0 0 0 40.226139
16.740152 9.3567705 3.9761267 131 0 0 0 41.393661
16.13064 9.5447388 3.8869193 134 0 0 0 41.009953
-19.513752 10.056604 3.9507036 18 0 0 0 7.0246401
9.3301411 10.212878 3.5553849 143 0 0 0 36.305767
9.6595669 10.063783 3.5853908 202 0 0 0 36.70372
10.183376 10.097792 3.6854007 139 0 0 0 37.100727
16.0511 10.038203 3.9252899 14 0 0 0 40.609592
-18.704439 10.824694 3.8877511 80 0 0 0 7.8057399
0.0075914348 10.985909 3.8938558 87 0 0 0 24.58367
9.6507444 11.095479 3.776767 61 0 0 0 35.913448
11.936255 11.25754 3.8071692 6 0 0 0 37.484074
8.6318579 11.545882 3.7017915 15 0 0 0 34.7365
-21.971666 12.727152 3.9409518 22 0 0 0 7.8057399
-19.517658 13.298304 3.663661 79 0 0 0 8.9805202
25.290409 13.314692 3.7841864 61 0 0 0 41.781033
26.802317 13.279404 3.9585555 41 0 0 0 42.18058
45.003281 13.321526 3.8923693 24 0 0 0 44.914242
-19.349836 13.888504 3.6939759 46 0 0 0 9.3625603
-18.993925 14.348632 3.6911261 63 0 0 0 9.7487602
13.566518 14.809322 3.6622334 15 0 0 0 36.305767
14.037938 14.586788 3.6916232 91 0 0 0 36.70372
-19.124908 15.197695 3.7868533 48 0 0 0 10.14613
-18.838739 15.736677 3.8045025 61 0 0 0 10.53655
17.617813 15.782406 3.7217143 34 0 0 0 37.882542
-5.3102446 16.335974 3.5242999 96 0 0 0 19.516041
-12.857059 16.71806 3.792177 58 0 0 0 14.04087
-11.784264 16.975883 3.717241 85 0 0 0 14.82941
-4.110857 16.730476 3.7490404 109 0 0 0 20.68582
-7.0654173 17.324072 3.8336184 89 0 0 0 18.342871
-6.6294169 17.464584 3.8288169 93 0 0 0 18.72904
-2.7319474 17.485374 3.6380043 86 0 0 0 22.048161
-12.89458 17.647673 3.9301672 64 0 0 0 14.44561
-11.021654 17.662006 3.7462373 84 0 0 0 15.61169
-3.8877559 17.709806 3.7239954 76 0 0 0 21.081011
20.490782 18.345894 3.6398954 19 0 0 0 37.882542
-13.694882 18.751719 3.6014509 42 0 0 0 14.44561
0.088245317 18.868477 3.8838954 99 0 0 0 24.58367
18.859232 18.634586 3.5091434 38 0 0 0 37.100727
0.55790669 19.067932 3.9274192 98 0 0 0 24.984791
-6.5768948 20.305632 3.8506062 34 0 0 0 19.516041
-5.4630747 20.180716 3.7746279 96 0 0 0 20.292561
1.1026591 20.366417 3.6966896 96 0 0 0 25.36755
1.6323342 20.700832 3.7641754 65 0 0 0 25.755369
2.139838 20.657316 3.7657804 44 0 0 0 26.15251
-12.458216 22.365992 3.973134 48 0 0 0 16.391661
-11.857131 22.567093 3.9571714 69 0 0 0 16.775551
-5.8423305 23.95594 3.840049 88 0 0 0 20.68582
-5.2209525 23.936674 3.8168375 108 0 0 0 21.081011
-4.6071925 23.920019 3.7961638 128 0 0 0 21.460541
-3.9960945 23.879955 3.7742946 96 0 0 0 21.85531
-2.8005583 23.861635 3.7474351 162 0 0 0 22.63171
-2.2088296 23.852825 3.7375596 140 0 0 0 23.027201
-1.6192654 23.83139 3.7279959 125 0 0 0 23.413969
1.2996279 23.730761 3.7148993 80 0 0 0 25.36755
1.8859901 23.750635 3.7252033 84 0 0 0 25.755369
2.4700069 23.717701 3.7295494 100 0 0 0 26.15251
-16.910061 24.425688 3.8708069 56 0 0 0 14.82941
-16.027458 24.402063 3.8048975 58 0 0 0 15.21941
-15.187538 24.400751 3.7467675 67 0 0 0 15.61169
-14.349362 24.359493 3.686635 60 0 0 0 16.00761
-13.558314 24.35722 3.6361854 77 0 0 0 16.391661
-12.001019 24.276939 3.5347848 22 0 0 0 17.165951
25.639601 25.300493 3.8685257 13 0 0 0 37.100727
56.423229 26.195992 3.5996871 7 0 0 0 42.571632
16.574297 -47.037415 4.1347766 16 0 0 0 69.160477
17.535624 -46.130241 4.0933747 47 0 0 0 68.764046
-35.387852 -40.87986 4.4108815 15 0 0 0 85.976143
18.411316 -37.059166 4.4475493 30 0 0 0 67.199265
19.758097 -35.317413 4.3521996 22 0 0 0 66.416489
19.786221 -33.421894 4.1791854 49 0 0 0 66.026115
-41.41391 -32.239742 4.286314 10 0 0 0 89.105698
-41.766487 -30.902637 4.2441697 8 0 0 0 89.490974
26.294407 -30.836195 4.3640022 14 0 0 0 63.281689
25.849178 -28.853462 4.1735559 20 0 0 0 62.888073
-42.067051 -28.047281 4.1323357 7 0 0 0 90.282875
-42.029465 -26.559647 4.0647864 10 0 0 0 90.675247
-8.9362173 -26.770515 4.3974547 21 0 0 0 79.712837
31.387722 -26.073391 4.3949213 27 0 0 0 60.541752
-11.945322 -25.082613 4.3254337 17 0 0 0 81.675011
-8.952879 -24.781755 4.106585 23 0 0 0 80.110886
-10.035339 -24.030596 4.0572033 17 0 0 0 80.884483
-33.472004 -23.518862 4.3426476 2321 0 0 0 89.88343
-13.565611 -23.811619 4.2670226 9 0 0 0 82.840706
-12.844452 -23.885431 4.2230115 10 0 0 0 82.45488
-10.676349 -23.904821 4.0779467 49 0 0 0 81.274979
-35.832386 -21.433964 4.4335017 16 0 0 0 91.068916
-36.480923 -20.626722 4.4504423 10 0 0 0 91.45665
12.105793 -14.940051 4.4587817 45 0 0 0 63.676872
-14.4643 -13.075361 4.4846063 10 0 0 0 87.927757
5.8450785 -10.789291 4.3687191 93.5 0 0 0 66.609695
6.0670266 -10.886439 4.1305718 206 0 0 0 66.416489
-14.632771 -10.285898 4.1177669 9 0 0 0 89.88343
6.2403264 -10.283283 4.284317 115 0 0 0 65.83194
6.5849862 -10.003036 4.2662477 185 0 0 0 65.239716
-14.778275 -9.8571196 4.0901842 206 0 0 0 90.282875
5.20999 -9.9117632 4.2635674 204 0 0 0 66.802902
6.7718248 -9.7579222 4.3766475 176 0 0 0 64.84861
-14.846547 -9.3862133 4.0449972 148 0 0 0 90.675247
6.7404532 -9.2237053 4.2129483 127 0 0 0 64.46331
7.3734641 -9.1143188 4.4669991 235 0 0 0 63.676872
7.844399 -9.2258396 4.1651793 117 0 0 0 63.281689
-14.94421 -8.9439516 4.0114031 279 0 0 0 91.068916
7.6396217 -8.9831676 4.4936028 83 0 0 0 63.281689
8.2400112 -8.9921455 4.3479176 130.5 0 0 0 62.696159
16.422354 -8.916379 4.3351274 32 0 0 0 57.411758
24.599495 -8.9795761 4.1217957 15 0 0 0 55.075447
7.459259 -8.3497324 4.2687368 100 0 0 0 62.888073
7.657238 -8.1592913 4.2666545 140 0 0 0 62.50425
9.6303644 -6.5335441 4.4383163 146 0 0 0 58.983391
13.211748 -6.7643209 4.1860609 23 0 0 0 57.02655
15.904464 -4.5143342 4.2461119 104 0 0 0 53.902859
-15.828465 -4.3829336 4.1920104 282 0 0 0 95.350677
-15.943248 -3.7904801 4.1837726 224.5 0 0 0 95.936295
16.498266 -3.8179088 4.3481822 91 0 0 0 53.122128
10.18969 -2.6255107 4.0189052 59 0 0 0 53.504559
12.378457 -1.915938 4.4678779 103 0 0 0 51.939739
19.064739 -1.5271605 4.434351 7 0 0 0 50.765713
32.656055 -1.8121405 4.3246384 41 0 0 0 50.380539
12.75646 -1.1812561 4.2535939 159 0 0 0 50.963436
19.83197 -1.1026279 4.1160827 50 0 0 0 50.380539
23.841808 -0.73798615 4.3469706 22 0 0 0 49.991001
20.018713 -0.1284461 4.1481495 26 0 0 0 49.60202
17.425617 0.74790722 4.4769945 127 0 0 0 48.816448
17.554235 0.75328308 4.0768881 150 0 0 0 48.816448
-19.020687 2.0956373 4.3894916 164 0 0 0 1.1619999
-18.253365 2.4617245 4.2239408 88 0 0 0 1.5613999
12.863008 2.1564 4.0059142 45 0 0 0 46.862278
-18.298805 2.9234405 4.2489166 57 0 0 0 1.94982
13.92759 2.6881447 4.3529787 230 0 0 0 46.477879
17.280746 2.8914287 4.4973311 34 0 0 0 46.862278
22.622524 2.6448302 4.1522703 83 0 0 0 47.6464
-18.159027 3.3565304 4.2333808 33 0 0 0 2.33829
11.311804 3.3692012 4.2138686 30 0 0 0 44.914242
-17.20997 3.6152081 4.0304017 175 0 0 0 2.7243199
10.719872 3.777703 4.3396454 26 0 0 0 44.135887
11.115952 3.9164984 4.2078695 24 0 0 0 44.135887
19.657881 3.783071 4.148078 24 0 0 0 46.477879
-19.045536 4.4916925 4.4845591 78 0 0 0 3.1180301
10.597258 4.030724 4.3290501 38 0 0 0 43.745487
19.324207 4.2138047 4.098793 23 0 0 0 46.076458
26.594873 4.4407887 4.239634 84 0 0 0 46.862278
-18.325289 4.7949114 4.3401899 104 0 0 0 3.51209
10.739954 4.8594875 4.2090902 65.5 0 0 0 42.768856
11.133243 4.8685756 4.0375581 74 0 0 0 42.96608
13.984476 4.5332541 4.147007 20 0 0 0 44.521141
17.885 4.8358994 4.2970195 34 0 0 0 45.307888
11.119442 5.1921878 4.07724 32 0 0 0 42.571632
18.413786 5.467402 4.4535713 23 0 0 0 44.914242
18.65362 5.0395045 4.0052729 36 0 0 0 45.307888
26.699747 5.1349549 4.2748747 124 0 0 0 46.477879
11.297898 5.9687381 4.2434287 104 0 0 0 41.781033
11.6717 5.8050447 4.0041904 103 0 0 0 42.18058
18.617912 5.5241413 4.0253973 37 0 0 0 44.914242
8.590003 6.0061555 4.0043383 197 0 0 0 39.835808
9.1507759 6.0658889 4.1924934 41 0 0 0 40.226139
10.941556 6.1355672 4.4758301 74 0 0 0 41.393661
13.483125 6.289968 4.1966515 25 0 0 0 42.571632
18.24962 6.4100294 4.4845371 124 0 0 0 44.135887
-17.187157 6.8195176 4.2331686 86 0 0 0 5.4559698
18.935852 6.6464787 4.1585898 11 0 0 0 44.135887
30.980267 6.7489405 4.1929631 69 0 0 0 46.076458
-39.837158 7.4074321 4.3180628 16 0 0 0 2.33829
-17.122957 7.2823272 4.2592306 88 0 0 0 5.8528299
12.023646 7.1299586 4.2907705 86 0 0 0 41.009953
19.494354 7.3846507 4.3183227 16 0 0 0 43.745487
-16.681116 7.5789127 4.1933432 101 0 0 0 6.2382202
12.485929 7.8206539 4.1558084 42 0 0 0 40.609592
31.119724 8.3978834 4.2620497 31 0 0 0 45.307888
-18.487066 8.9601955 4.2011123 51 0 0 0 6.6298699
8.2267704 8.5885019 4.3862495 10 0 0 0 36.70372
8.8059778 8.7416792 4.1180987 23 0 0 0 37.100727
11.504332 8.8964319 4.4604468 108 0 0 0 39.057819
16.005323 8.9513617 4.2541385 193 0 0 0 41.393661
15.269389 9.0408201 4.117815 89 0 0 0 41.009953
-19.261786 9.9265623 4.4303784 71 0 0 0 7.0246401
11.780292 9.5763454 4.2793226 40 0 0 0 38.66222
21.396341 9.9604979 4.3019404 41 0 0 0 42.571632
25.511175 9.6571064 4.2891736 35 0 0 0 43.745487
4.605876 10.347034 4.3111663 210 0 0 0 31.22249
7.2989202 10.302527 4.4968801 46 0 0 0 34.351112
14.049288 10.308489 4.472271 103 0 0 0 39.442341
-19.294001 10.547771 4.4949937 31 0 0 0 7.4108701
-18.380951 10.636883 4.3406219 42 0 0 0 7.8057399
0.27199507 10.829409 4.1065421 169 0 0 0 24.984791
6.7199945 10.551495 4.4546123 27 0 0 0 33.572594
9.5525751 10.983681 4.10182 55 0 0 0 35.913448
14.453924 10.603827 4.1580882 35 0 0 0 39.442341
15.730977 10.952984 4.4439025 134 0 0 0 39.835808
6.8351092 11.322527 4.3814106 90 0 0 0 33.17403
7.6291404 11.337168 4.187717 67 0 0 0 33.960392
8.8385458 11.235962 4.0280509 87 0 0 0 35.131153
9.2375021 11.165161 4.0830827 54 0 0 0 35.526958
10.752223 11.194277 4.3721719 58 0 0 0 36.70372
25.684135 11.192581 4.4046369 18 0 0 0 42.96608
7.0963678 11.754876 4.2065616 114 0 0 0 33.17403
25.43841 11.83689 4.4110966 48 0 0 0 42.571632
0.93868756 12.443425 4.4235787 50 0 0 0 25.755369
4.0759273 12.235069 4.2658219 39 0 0 0 29.65637
5.4549837 12.210402 4.4268003 179 0 0 0 31.22249
6.9759245 12.222135 4.3098502 123 0 0 0 32.78582
7.8999023 12.37838 4.4967647 69 0 0 0 33.572594
9.0563946 12.109287 4.2580142 21 0 0 0 34.7365
-20.841051 12.759828 4.394659 27 0 0 0 8.19382
-19.507654 12.604658 4.176321 37 0 0 0 8.5779896
5.0252266 12.918202 4.2411847 64 0 0 0 30.44882
8.963953 12.619097 4.3573046 79 0 0 0 34.351112
25.247402 12.510939 4.429893 69 0 0 0 42.18058
8.2196684 13.344707 4.2800388 73.333336 0 0 0 33.306885
8.8481045 13.125915 4.4547086 53 0 0 0 33.960392
25.266918 13.302615 4.4889302 51 0 0 0 41.781033
-20.186289 13.757365 4.3915362 26 0 0 0 8.9805202
8.634594 13.512886 4.1122656 115 0 0 0 33.572594
9.2555943 13.725041 4.2445316 8 0 0 0 33.960392
23.312174 13.777601 4.2590656 27 0 0 0 41.009953
-19.981659 14.345475 4.4212079 35 0 0 0 9.3625603
-19.502386 14.735802 4.3927832 56 0 0 0 9.7487602
14.116366 14.668195 4.2142377 61 0 0 0 36.70372
-19.314285 15.349792 4.4328942 55 0 0 0 10.14613
-19.112156 15.967156 4.4740844 58 0 0 0 10.53655
-5.6149259 15.921928 4.2890534 111 0 0 0 19.122101
-4.7536201 15.918691 4.2232895 72 0 0 0 19.90049
-8.6968613 16.493338 4.2716694 54 0 0 0 16.775551
-7.2048244 16.483202 4.1247816 24 0 0 0 17.950871
-6.2277899 16.381439 4.4504232 29 0 0 0 18.72904
-5.2506914 16.138924 4.3127432 120 0 0 0 19.516041
-12.727775 16.548883 4.2659979 40 0 0 0 14.04087
-12.186739 16.671185 4.2204423 63 0 0 0 14.44561
-8.3149061 16.749525 4.285037 81 0 0 0 17.165951
-6.9034505 16.9126 4.1894941 114 0 0 0 18.342871
-6.4526863 16.982729 4.1677966 69 0 0 0 18.72904
-5.8924775 16.723207 4.0692539 40 0 0 0 19.122101
-4.5632129 16.783794 4.4220877 51 0 0 0 20.292561
-11.822259 17.031378 4.2378364 67 0 0 0 14.82941
-7.9565344 17.064178 4.3153825 89 0 0 0 17.56225
-3.839977 17.471008 4.1115165 86 0 0 0 21.081011
17.544365 17.340832 4.4910789 9 0 0 0 37.100727
34.876076 17.262974 4.180964 37 0 0 0 42.18058
-9.4631538 17.971399 4.1561027 66 0 0 0 16.775551
-4.871449 17.942423 4.2699203 43 0 0 0 20.292561
-3.4683428 17.863962 4.1833529 110 0 0 0 21.460541
-2.585978 17.989294 4.1801114 128 0 0 0 22.241011
-10.267541 18.400702 4.3103247 42 0 0 0 16.391661
-3.0461631 18.044115 4.207716 47 0 0 0 21.85531
0.53892726 18.611206 4.2896719 88 0 0 0 24.984791
18.888344 18.663641 4.1730237 63 0 0 0 37.100727
-6.8784704 19.580112 4.2530403 120 0 0 0 19.122101
1.5592737 19.824572 4.0953064 87 0 0 0 25.755369
2.0398786 19.732424 4.0865726 110 0 0 0 26.15251
-5.4287858 20.051121 4.2609773 75 0 0 0 20.292561
-14.69883 21.212 4.0017409 57 0 0 0 14.82941
1.1403413 21.016056 4.3317842 58 0 0 0 25.36755
-6.567245 22.134016 4.1649456 33 0 0 0 19.90049
-14.850818 22.599142 4.1932468 40 0 0 0 15.21941
-5.835526 23.926609 4.444406 105 0 0 0 20.68582
-5.2232575 23.946264 4.4245152 89 0 0 0 21.081011
-3.3997386 23.89529 4.3606153 77 0 0 0 22.241011
0.13457815 23.7682 4.301362 104 0 0 0 24.58367
3.054601 23.68045 4.3267837 114 0 0 0 26.54221
3.6465282 23.67507 4.3419795 78 0 0 0 26.93651
4.240077 23.654881 4.3571868 121 0 0 0 27.328489
-15.177605 24.384941 4.453722 31 0 0 0 15.61169
-14.322696 24.314093 4.3767781 47 0 0 0 16.00761
-12.007894 24.290966 4.206203 68 0 0 0 17.165951
-10.521697 24.190149 4.0974479 106 0 0 0 17.950871
-40.141006 -44.141193 4.8643074 11 0 0 0 86.365471
17.56881 -43.022182 4.9869552 29 0 0 0 68.369034
-40.649498 -42.559418 4.7991028 13 0 0 0 86.759514
17.680649 -40.441254 4.7393475 30 0 0 0 67.978447
18.215525 -39.033066 4.6271319 58 0 0 0 67.593185
20.43033 -38.709282 4.7036066 37 0 0 0 66.802902
-7.8372741 -30.85722 4.9605398 17 0 0 0 78.544159
33.221066 -28.998121 4.747539 6 0 0 0 60.935806
-9.2067976 -25.484957 4.8925509 15 0 0 0 80.110886
-7.800498 -25.416084 4.8029103 32 0 0 0 79.318237
-36.448261 -24.300297 4.6485453 12 0 0 0 90.282875
-10.646347 -23.836662 4.712153 41 0 0 0 81.274979
-36.96867 -23.360954 4.6412678 13 0 0 0 90.675247
-12.423051 -23.100092 4.7339568 37 0 0 0 82.45488
-12.814935 -22.491756 4.6725273 12 0 0 0 82.840706
-11.34736 -22.394733 4.5325212 31 0 0 0 82.064926
21.435778 -15.29774 4.8009558 58 0 0 0 59.375439
12.152587 -14.997689 4.9505072 29 0 0 0 63.676872
13.059582 -14.591704 4.5409489 20 0 0 0 62.888073
21.888426 -14.82421 4.8189974 59 0 0 0 58.983391
-14.424506 -13.695263 4.5739436 57 0 0 0 87.540558
-14.414076 -13.029795 4.9457011 134 0 0 0 87.927757
-15.755564 -12.900752 4.682898 64 0 0 0 88.702095
-15.029234 -12.93256 4.5601292 38 0 0 0 88.315628
-14.873663 -12.798485 4.9945025 90 0 0 0 88.315628
4.904922 -12.056034 4.6285558 88 0 0 0 68.369034
5.9786539 -10.720638 4.6713858 75 0 0 0 66.416489
6.7511415 -10.820082 4.8535123 144 0 0 0 65.637756
6.1334043 -10.392181 4.5934548 162 0 0 0 66.026115
6.5296612 -9.9196692 4.5223823 35 0 0 0 65.239716
16.601147 -9.0129786 4.8467607 61 0 0 0 57.411758
13.16559 -6.7405396 4.9034176 26 0 0 0 57.02655
11.190934 -6.4402132 4.761755 126 0 0 0 57.798359
13.113 -4.7881293 4.9738955 17 0 0 0 55.075447
15.925604 -4.5201592 4.6642203 38 0 0 0 53.902859
16.485342 -3.8147736 4.7664733 94 0 0 0 53.122128
13.475237 -3.4667017 4.9579701 71 0 0 0 53.504559
11.810824 -2.4284739 4.5991755 31 0 0 0 52.72538
12.678684 -1.013211 4.6917696 130.5 0 0 0 50.765713
13.634292 -1.4271709 4.885798 42 0 0 0 51.16116
12.74718 -0.70361066 4.8673759 274 0 0 0 50.380539
13.916389 -0.76765519 4.9667091 246 0 0 0 50.380539
12.832964 -0.39205348 4.8948126 22 0 0 0 49.991001
14.002086 -0.42740446 4.991888 239 0 0 0 49.991001
19.454014 -0.12136056 4.5097957 15 0 0 0 49.60202
14.025784 0.26185775 4.9989848 77 0 0 0 49.205502
17.744448 0.32529959 4.9971323 25 0 0 0 49.205502
24.017138 0.43639338 4.9696875 11 0 0 0 49.205502
13.928866 0.60295713 4.9685826 47 0 0 0 48.816448
17.435169 0.74847215 4.9144573 79 0 0 0 48.816448
15.600633 1.4432775 4.8032203 60 0 0 0 48.043678
17.494638 1.1823205 4.9377551 188 0 0 0 48.432281
17.708986 1.196648 4.5552831 60 0 0 0 48.432281
11.814815 1.983624 4.5712223 39 0 0 0 46.862278
12.187352 1.7387223 4.6959949 93 0 0 0 47.251408
17.314072 1.5984021 4.8967915 105 0 0 0 48.043678
-18.926376 2.0856526 4.8323951 61 0 0 0 1.1619999
-17.707554 2.3881354 4.7548552 117.5 0 0 0 1.5613999
-17.759735 2.8370285 4.5623212 78 0 0 0 1.94982
12.388676 2.7124507 4.8364897 20 0 0 0 46.076458
16.746256 2.8023374 4.7828517 29 0 0 0 46.862278
-18.792595 3.475208 4.8478169 64 0 0 0 2.33829
13.722007 3.3537719 4.6862564 41 0 0 0 45.689159
-17.869001 3.7554052 4.6305833 22 0 0 0 2.7243199
16.100368 3.9328334 4.6698198 34 0 0 0 45.689159
18.898205 3.6409316 4.9360614 41 0 0 0 46.477879
21.063051 3.5227273 4.9467411 29 0 0 0 46.862278
-19.035755 4.4899287 4.9597554 74 0 0 0 3.1180301
10.990407 4.4922066 4.5311751 44 0 0 0 43.3587
13.18381 4.2801123 4.9408145 23 0 0 0 44.521141
19.209913 4.1926222 4.557704 17 0 0 0 46.076458
-18.91501 4.9510036 4.9574718 57 0 0 0 3.51209
20.477686 4.9986634 4.8833055 42 0 0 0 45.689159
10.777979 5.0383692 4.5404124 62 0 0 0 42.571632
17.775049 5.2784152 4.7573218 16 0 0 0 44.914242
26.759687 5.1466951 4.9604893 76 0 0 0 46.477879
10.848987 5.7378983 4.6821904 34 0 0 0 41.781033
11.390964 5.6689425 4.852469 31 0 0 0 42.18058
26.66346 5.8103294 4.9675961 50 0 0 0 46.076458
-18.514441 6.8320203 4.5189033 18 0 0 0 5.0750098
17.942909 7.3115854 4.9694858 29 0 0 0 43.3587
19.761227 7.4895954 4.8960032 20 0 0 0 43.745487
23.760523 7.0457225 4.5150094 11 0 0 0 44.914242
-16.106068 7.7961512 4.7514133 93 0 0 0 6.6298699
19.504414 7.9457512 4.8794966 22 0 0 0 43.3587
12.423057 8.213665 4.9378667 29 0 0 0 40.226139
17.641125 8.221303 4.9918256 130 0 0 0 42.571632
19.340855 8.4389486 4.8889847 16 0 0 0 42.96608
11.155617 8.6253405 4.6765676 27 0 0 0 39.057819
15.790797 8.8319998 4.6434813 118 0 0 0 41.393661
35.731899 8.706028 4.8578973 23 0 0 0 45.689159
-18.772293 9.095974 4.7737513 43 0 0 0 6.6298699
-18.443083 9.498457 4.7468357 37 0 0 0 7.0246401
17.082205 9.0081167 4.9535561 63 0 0 0 41.781033
-18.12591 9.9016075 4.7253118 82 0 0 0 7.4108701
16.696869 9.8828287 4.9766998 39 0 0 0 41.009953
6.8099055 10.408006 4.7358122 125 0 0 0 33.766495
7.3566852 10.11921 4.7645693 108.5 0 0 0 34.543808
10.059086 10.477721 4.8130851 120 0 0 0 36.70372
16.115326 10.082511 4.8763385 167 0 0 0 40.609592
19.601204 10.327106 4.5875025 27 0 0 0 41.781033
-18.89093 10.930227 4.9925981 46 0 0 0 7.8057399
6.5924554 10.934127 4.859026 82 0 0 0 33.17403
9.7988167 10.722775 4.8128958 77 0 0 0 36.305767
4.415144 11.381538 4.6420217 217 0 0 0 30.44882
4.6048026 11.059392 4.5570278 141 0 0 0 30.83197
6.2460051 11.279818 4.7479987 99.75 0 0 0 32.593437
6.8359613 11.333125 4.7101159 43 0 0 0 33.17403
7.7257175 11.479755 4.7540007 35 0 0 0 33.960392
8.7061768 11.073656 4.8397717 73.5 0 0 0 35.131153
9.7676878 11.416585 4.8512321 77.333336 0 0 0 35.784618
10.435021 11.417769 4.73843 29 0 0 0 36.305767
10.601746 11.042709 4.6903739 51 0 0 0 36.70372
40.840874 11.009144 4.5401645 39 0 0 0 45.307888
-19.489332 11.9281 4.6693959 60 0 0 0 8.19382
3.8840888 11.684876 4.6795435 125 0 0 0 29.65637
4.3127027 11.974087 4.8367963 129 0 0 0 30.044649
4.9807992 11.94673 4.6028066 115 0 0 0 30.83197
5.9107599 11.669099 4.975112 9 0 0 0 32.014439
7.5458531 11.824597 4.6452856 111 0 0 0 33.572594
8.1656704 11.505006 4.6730957 150 0 0 0 34.351112
8.8909502 11.894438 4.5487447 56 0 0 0 34.7365
9.1469078 11.629233 4.5326524 47 0 0 0 35.131153
1.2424133 12.404401 4.7261453 152 0 0 0 26.15251
1.5468384 12.37172 4.7280116 189 0 0 0 26.54221
4.2401705 12.232883 4.6015496 121 0 0 0 29.85051
4.7308178 12.180379 4.6452413 116 0 0 0 30.44882
5.4559951 12.224402 4.7602501 124 0 0 0 31.22249
6.9008479 12.087491 4.6084356 54 0 0 0 32.78582
8.6921196 12.244344 4.5985518 45 0 0 0 34.351112
10.344787 12.49796 4.9670801 53 0 0 0 35.526958
-23.063177 12.62078 4.7295403 15 0 0 0 7.4108701
-19.521938 12.614624 4.7489734 47 0 0 0 8.5779896
4.7957401 12.786981 4.5175533 142.5 0 0 0 30.246735
5.5019426 13.163897 4.7194362 127 0 0 0 30.83197
-20.056831 13.669319 4.9583187 40 0 0 0 8.9805202
-5.4950066 15.575576 4.6056952 101 0 0 0 19.122101
-6.1456499 16.16169 4.8196464 58 0 0 0 18.72904
-18.88678 16.579845 4.514226 54 0 0 0 10.9289
-4.9566998 16.612383 4.8362598 72 0 0 0 19.90049
54.204102 17.498451 4.7169619 23 0 0 0 44.521141
-12.271214 17.677633 4.92342 43 0 0 0 14.82941
-11.693127 17.753799 4.8646994 62 0 0 0 15.21941
-11.064333 17.72451 4.7824225 44 0 0 0 15.61169
-7.2306981 17.725819 4.8588705 80 0 0 0 18.342871
-4.3066411 17.538383 4.5922465 89 0 0 0 20.68582
-10.718237 18.143976 4.8242078 69 0 0 0 16.00761
-7.8825035 18.05525 4.9986191 62 0 0 0 17.950871
-3.7450035 18.106789 4.7035923 92.5 0 0 0 21.270775
-3.059006 18.121367 4.6764503 84 0 0 0 21.85531
-2.5914342 18.027174 4.6356869 83 0 0 0 22.241011
-2.1590803 18.174379 4.6595502 46 0 0 0 22.63171
-1.7381983 18.504293 4.7325797 64 0 0 0 23.027201
-15.7826 19.542048 4.5138302 33 0 0 0 13.65102
-6.6212921 20.431545 4.927104 39 0 0 0 19.516041
-1.3852377 20.115805 4.6387858 42 0 0 0 23.413969
0.097329736 20.240091 4.6598845 25 0 0 0 24.58367
1.1074145 20.518841 4.7329082 47 0 0 0 25.36755
-4.6036286 23.898394 4.9930897 51 0 0 0 21.460541
-2.7979548 23.833729 4.9269791 118 0 0 0 22.63171
-2.2060223 23.814682 4.9116516 116 0 0 0 23.027201
-1.6166264 23.781012 4.8963294 92 0 0 0 23.413969
3.0519416 23.662966 4.9109507 135 0 0 0 26.54221
3.6418538 23.647602 4.9260283 131 0 0 0 26.93651
4.2350125 23.629082 4.9435239 136 0 0 0 27.328489
4.8303051 23.599506 4.9618292 134 0 0 0 27.71566
-13.517591 24.283772 4.9984226 63 0 0 0 16.391661
-12.726685 24.236465 4.9245076 50 0 0 0 16.775551
-11.975285 24.22444 4.862473 83 0 0 0 17.165951
-11.2486 24.226118 4.8075519 72 0 0 0 17.56225
-10.519261 24.184343 4.7482419 98 0 0 0 17.950871
-9.1496181 24.204214 4.661521 81 0 0 0 18.72904
17.418894 -45.825954 5.2578011 10 0 0 0 68.764046
19.617092 -35.052383 5.3085265 35 0 0 0 66.416489
19.770485 -33.382809 5.1294188 43 0 0 0 66.026115
24.869204 -30.646006 5.221756 53 0 0 0 63.676872
26.177332 -30.688408 5.3366103 42 0 0 0 63.281689
-12.03011 -25.26008 5.0479136 20 0 0 0 81.675011
30.672743 -25.471079 5.2764387 16 0 0 0 60.541752
-8.8946953 -24.617933 5.3707609 24 0 0 0 80.110886
31.020056 -24.500357 5.23102 41 0 0 0 60.155407
-15.544408 -24.425816 5.2225657 13 0 0 0 83.625153
-15.981526 -23.806162 5.1724987 6 0 0 0 84.00779
-10.609232 -23.75256 5.3352427 33 0 0 0 81.274979
-9.6998825 -23.223911 5.1633816 20 0 0 0 80.884483
-42.305496 -22.572136 5.0880404 14 0 0 0 91.837936
-13.279162 -22.034908 5.2764435 14 0 0 0 83.233276
-42.50193 -21.357281 5.0482669 30 0 0 0 92.223854
-42.693214 -20.160006 5.0118546 37 0 0 0 92.609344
-14.352052 -13.626272 5.0365057 91 0 0 0 87.540558
16.789999 -9.6554174 5.4509339 78 0 0 0 57.798359
16.831297 -9.1373663 5.3902926 56 0 0 0 57.411758
11.920241 -8.9617319 5.3100533 18 0 0 0 59.764606
12.166486 -8.6877794 5.323091 82 0 0 0 59.375439
12.375984 -8.3865404 5.3231297 26 0 0 0 58.983391
11.608638 -6.3055186 5.0334492 34 0 0 0 57.411758
15.76894 -4.8956118 5.2641621 47.5 0 0 0 54.287121
23.235495 -4.1816654 5.4651022 25 0 0 0 52.329979
16.524391 -3.8205717 5.1959119 63 0 0 0 53.122128
13.49298 -1.748729 5.1841478 18 0 0 0 51.55452
32.449692 -1.8004328 5.1032791 36 0 0 0 50.380539
13.821542 -1.4465119 5.2942047 20 0 0 0 51.16116
18.186579 -1.2314062 5.1316991 27 0 0 0 50.573128
18.774078 -0.57830936 5.2862401 17 0 0 0 49.991001
21.040472 -0.6476599 5.3948984 15 0 0 0 49.991001
13.707217 -0.081168309 5.2229428 15 0 0 0 49.60202
14.056823 -0.083261169 5.0090847 287 0 0 0 49.60202
16.403933 -0.102379 5.4342904 57 0 0 0 49.60202
17.953749 -0.11199121 5.0548096 58 0 0 0 49.60202
13.713871 0.25609675 5.226368 18 0 0 0 49.205502
16.435139 0.3013925 5.4454107 27 0 0 0 49.205502
19.916918 0.36527368 5.1074262 25 0 0 0 49.205502
23.721521 0.43534786 5.4912243 32 0 0 0 49.205502
13.873948 0.60069633 5.2909279 23 0 0 0 48.816448
17.250982 0.74372834 5.2891831 19 0 0 0 48.816448
13.207245 1.2247927 5.0558004 41 0 0 0 48.043678
15.910863 1.4692738 5.294652 46 0 0 0 48.043678
17.393126 1.1786708 5.3396678 160 0 0 0 48.432281
-18.787798 1.6083236 5.2517943 86 0 0 0 0.77358997
13.217291 1.5545274 5.0726914 119 0 0 0 47.6464
15.043872 1.7633142 5.0214262 53 0 0 0 47.6464
16.921806 1.9858871 5.2197366 191 0 0 0 47.6464
-18.459003 2.034128 5.1713343 75 0 0 0 1.1619999
-17.390041 2.3425379 5.3136172 104 0 0 0 1.5613999
19.02648 2.2289472 5.3907385 21 0 0 0 47.6464
22.725052 2.0970111 5.2835097 101 0 0 0 48.043678
-17.902887 2.8606207 5.0467877 70 0 0 0 1.94982
16.242624 2.7185268 5.4558654 147 0 0 0 46.862278
22.56077 2.6420054 5.2590222 108 0 0 0 47.6464
-17.928406 3.3145568 5.0745726 102 0 0 0 2.33829
15.851107 3.2573996 5.3623152 103 0 0 0 46.277168
22.054476 3.1335721 5.1581874 47 0 0 0 47.251408
-17.812273 3.7439029 5.0652709 95 0 0 0 2.7243199
-17.488546 3.6726146 5.4095702 92 0 0 0 2.7243199
14.664079 3.9734883 5.4110093 44 0 0 0 45.307888
19.042278 3.6687932 5.4567451 29 0 0 0 46.477879
-18.457062 4.3529148 5.2770476 121 0 0 0 3.1180301
-17.406965 4.1005864 5.4129672 70 0 0 0 3.1180301
14.96699 4.0495443 5.1395307 79 0 0 0 45.307888
15.042151 4.469533 5.2010326 55 0 0 0 44.914242
18.692942 4.0803699 5.3843837 32 0 0 0 46.076458
20.540405 4.4825182 5.3883719 15 0 0 0 46.076458
22.901247 4.4102859 5.398613 24 0 0 0 46.477879
-18.126602 4.7436028 5.213182 95 0 0 0 3.51209
-17.560966 4.5916662 5.4935999 39 0 0 0 3.51209
15.174348 4.9178209 5.286272 40 0 0 0 44.521141
15.392293 5.412755 5.0009565 84 0 0 0 44.135887
20.122833 5.4395313 5.3430085 27 0 0 0 45.307888
15.551597 5.9020224 5.0975113 52 0 0 0 43.745487
19.618929 6.3528666 5.2863636 40 0 0 0 44.521141
-18.769464 6.9274006 5.0699077 84 0 0 0 5.0750098
-17.867992 6.5928822 5.2964454 93 0 0 0 5.0750098
13.563138 6.7443194 5.3952584 41 0 0 0 42.18058
17.552704 6.6551619 5.2839003 17 0 0 0 43.745487
18.811073 6.6068349 5.1123619 62 0 0 0 44.135887
20.630342 6.6793361 5.0226617 32 0 0 0 44.521141
11.984396 7.1100345 5.309907 58 0 0 0 41.009953
-19.894302 7.9025455 5.4241734 51 0 0 0 5.4559698
-19.01195 8.0924282 5.2347612 84 0 0 0 5.8528299
12.031441 8.3945532 5.2256556 59 0 0 0 39.835808
14.355103 8.0325117 5.4502907 54 0 0 0 41.393661
31.080027 8.3874578 5.0549293 23 0 0 0 45.307888
-18.806776 8.5527401 5.2334723 57 0 0 0 6.2382202
11.201081 8.6667137 5.0454249 30 0 0 0 39.057819
14.049156 8.7985306 5.0800147 48 0 0 0 40.609592
15.8519 8.8662167 5.1141057 62 0 0 0 41.393661
17.139317 8.5069742 5.3853159 85 0 0 0 42.18058
-18.167032 9.9248381 5.2419562 54 0 0 0 7.4108701
30.516964 9.865593 5.0364318 45 0 0 0 44.521141
30.182558 10.582542 5.0228133 19 0 0 0 44.135887
8.6854887 11.051919 5.3487525 67 0 0 0 35.131153
9.1266699 11.04082 5.0983315 104 0 0 0 35.526958
-19.236416 11.7684 5.1579041 49 0 0 0 8.19382
16.68327 11.613584 5.2109036 10 0 0 0 39.835808
17.469315 11.532597 5.3652587 79 0 0 0 40.226139
18.39838 11.505198 5.0263581 15 0 0 0 40.609592
9.0782166 12.143364 5.2057533 52.5 0 0 0 34.7365
-19.648201 12.692548 5.3494697 21 0 0 0 8.5779896
-18.850176 12.837919 5.215127 55 0 0 0 8.9805202
25.556021 12.663773 5.1912122 20 0 0 0 42.18058
44.941891 13.303759 5.0272484 24 0 0 0 44.914242
-20.083347 14.419622 5.0498428 49 0 0 0 9.3625603
12.90263 14.094508 5.3730574 19 0 0 0 36.305767
-19.947588 15.074922 5.1061625 40 0 0 0 9.7487602
24.644615 15.3915 5.2878127 15 0 0 0 40.609592
-19.725014 15.67888 5.1450853 42 0 0 0 10.14613
-4.8670254 16.294884 5.1620326 80 0 0 0 19.90049
-7.5612979 17.309975 5.2614455 70 0 0 0 17.950871
-3.8450119 17.492788 5.0002489 85 0 0 0 21.081011
15.255549 17.492027 5.3682237 9 0 0 0 35.913448
15.780305 17.220264 5.4025207 13 0 0 0 36.305767
-2.0951505 17.581284 5.3831058 90 0 0 0 22.63171
-14.110912 18.356218 5.2949815 34 0 0 0 14.04087
-13.503582 18.481949 5.2355242 32 0 0 0 14.44561
-9.0575466 18.263912 5.169733 46 0 0 0 17.165951
-5.0107203 18.464449 5.3372188 68 0 0 0 20.292561
-4.46066 18.17905 5.2235794 67 0 0 0 20.68582
-2.6328907 18.324732 5.1713986 52 0 0 0 22.241011
-1.7172765 18.266687 5.1276975 64 0 0 0 23.027201
-10.390035 18.614965 5.4032602 20 0 0 0 16.391661
-9.7712688 18.555103 5.316402 34 0 0 0 16.775551
-3.6461928 18.80335 5.3472986 56 0 0 0 21.460541
-2.2115815 18.634054 5.2427135 64 0 0 0 22.63171
-1.3014005 18.805647 5.2690411 54 0 0 0 23.413969
-15.474037 19.157804 5.0296903 45 0 0 0 13.65102
0.094384633 19.948746 5.0829887 59 0 0 0 24.58367
-11.450218 20.533216 5.3817458 50 0 0 0 16.391661
-1.4174207 20.611977 5.2597632 56 0 0 0 23.413969
1.6337876 20.772699 5.3119602 86 0 0 0 25.755369
2.1495569 20.789721 5.3294058 56 0 0 0 26.15251
-6.5631428 22.104464 5.2899137 24 0 0 0 19.90049
-2.0518465 22.03171 5.0871625 53 0 0 0 23.027201
1.7383976 22.031727 5.0896192 43 0 0 0 25.755369
-10.001371 22.982143 5.1290288 28 0 0 0 17.950871
2.4596267 23.669495 5.4797339 95 0 0 0 26.15251
3.0471115 23.66077 5.494626 111 0 0 0 26.54221
-15.975973 24.323805 5.2302966 34 0 0 0 15.21941
-14.306821 24.287146 5.0683212 49 0 0 0 16.00761
-11.247602 24.223871 5.4631367 93 0 0 0 17.56225
56.168053 26.090113 5.1274767 6 0 0 0 42.571632
17.637274 -40.324661 5.8089428 25 0 0 0 67.978447
18.251558 -39.0937 5.6961188 49 0 0 0 67.593185
19.453257 -39.13623 5.770823 43 0 0 0 67.199265
20.344248 -38.531281 5.7546096 33 0 0 0 66.802902
-42.350758 -32.968937 5.6859083 10 0 0 0 89.105698
-8.7058239 -31.070116 5.8241515 20 0 0 0 78.928223
-9.890193 -29.633438 5.6373434 15 0 0 0 79.712837
-9.0325069 -27.056715 5.8512616 32 0 0 0 79.712837
-12.111021 -25.429382 5.7741032 10 0 0 0 81.675011
-12.163654 -24.007517 5.5184393 9 0 0 0 82.064926
-35.744659 -23.839972 5.6162047 11 0 0 0 90.282875
-13.493236 -23.68318 5.5885868 8 0 0 0 82.840706
-10.627448 -23.80372 5.9838738 42 0 0 0 81.274979
-36.973282 -20.913565 5.5548038 11 0 0 0 91.45665
-38.338013 -20.463531 5.6827912 12 0 0 0 91.837936
16.973839 -10.322609 5.5901966 9 0 0 0 58.197113
11.485326 -9.0849037 5.5746126 20 0 0 0 60.155407
16.960657 -9.203373 5.9066229 23 0 0 0 57.411758
11.875187 -8.7021341 5.604764 95.5 0 0 0 59.570023
12.603164 -8.0961905 5.7018051 81 0 0 0 58.588791
30.172016 -5.4320512 5.5774608 25 0 0 0 52.329979
15.718067 -4.8751402 5.856164 76 0 0 0 54.287121
31.079374 -4.8109984 5.7204118 34 0 0 0 51.939739
16.650183 -4.2858481 5.6933503 8 0 0 0 53.504559
16.537689 -3.8265245 5.6215849 31 0 0 0 53.122128
18.03615 -1.4415243 5.540185 10 0 0 0 50.765713
18.068367 -0.99817222 5.5408912 18 0 0 0 50.380539
19.102877 -0.1153863 5.8470206 43 0 0 0 49.60202
17.443537 0.74913883 5.7812104 31 0 0 0 48.816448
17.601379 1.1898402 5.8410492 40 0 0 0 48.432281
-18.108881 1.9961249 5.9662671 87 0 0 0 1.1619999
-18.758827 2.0647299 5.7168503 111 0 0 0 1.1619999
16.731926 2.3790443 5.5976434 60 0 0 0 47.251408
22.740292 2.0986125 5.8493214 23 0 0 0 48.043678
31.996555 2.1554782 5.8310666 8 0 0 0 48.432281
-18.154634 2.8985057 5.5672259 96 0 0 0 1.94982
22.784475 2.6683667 5.8756185 62 0 0 0 47.6464
-18.399569 3.3996682 5.6656008 80 0 0 0 2.33829
-17.721144 3.2769141 5.8993964 86 0 0 0 2.33829
22.541853 3.202908 5.8319254 25 0 0 0 47.251408
26.626766 3.1126363 5.5417495 81 0 0 0 47.6464
14.400047 3.9023032 5.6815982 12 0 0 0 45.307888
14.185626 4.2215271 5.6367245 26 0 0 0 44.914242
16.356094 4.0016103 5.9921002 47 0 0 0 45.689159
26.899172 4.4919877 5.6369519 84 0 0 0 46.862278
17.457815 4.7244377 5.5384531 54 0 0 0 45.307888
20.291199 5.4851117 5.911211 9 0 0 0 45.307888
19.596041 5.8178296 5.7498693 22 0 0 0 44.914242
14.920425 6.0903797 5.7371187 46 0 0 0 43.3587
18.765484 6.5910373 5.5958333 27 0 0 0 44.135887
-20.022818 7.9545803 5.9920011 16 0 0 0 5.4559698
35.929592 7.825913 5.7688141 29 0 0 0 46.076458
-19.129221 8.1433134 5.781106 78 0 0 0 5.8528299
-18.335951 8.3377686 5.6000905 95 0 0 0 6.2382202
14.114131 8.3669872 5.8404427 53 0 0 0 41.009953
16.013834 8.4505854 5.5453057 87 0 0 0 41.781033
25.544491 8.2612381 5.5501671 14 0 0 0 44.521141
15.777164 8.8283644 5.5369673 37 0 0 0 41.393661
35.673729 8.6921816 5.7603688 35 0 0 0 45.689159
17.64645 9.3048201 5.6129789 33 0 0 0 41.781033
16.856331 9.9770584 5.5120573 8 0 0 0 41.009953
-20.181267 10.400404 5.7500215 40 0 0 0 7.0246401
25.627609 10.427723 5.7189569 17 0 0 0 43.3587
30.365768 10.646938 5.8512759 7 0 0 0 44.135887
-19.410841 11.23366 5.6785736 60 0 0 0 7.8057399
17.253174 11.39064 5.8146925 17 0 0 0 40.226139
16.659742 11.597491 5.7095313 23 0 0 0 39.835808
-19.775026 12.100671 5.8695235 42 0 0 0 8.19382
15.019357 12.199364 5.9205723 77 0 0 0 38.66222
25.128017 12.452419 5.7966065 23 0 0 0 42.18058
-19.505667 12.600586 5.8785281 61 0 0 0 8.5779896
-18.859783 12.845165 5.7758579 53 0 0 0 8.9805202
-20.029831 14.376391 5.6370492 50 0 0 0 9.3625603
-19.519176 14.74461 5.5923314 34 0 0 0 9.7487602
-18.901257 15.015546 5.518023 71 0 0 0 10.14613
-19.208111 16.043495 5.7201428 50 0 0 0 10.53655
-7.7296066 17.112354 5.690763 64.5 0 0 0 17.756561
-2.4578335 17.059052 5.6654387 63 0 0 0 22.241011
-7.1735997 17.574699 5.754437 39 0 0 0 18.342871
-1.6980768 18.012938 5.5016375 40 0 0 0 23.027201
-13.795261 18.884665 5.9216828 53 0 0 0 14.44561
-13.47351 19.424929 5.9866495 42 0 0 0 14.82941
-11.315064 19.164267 5.6392488 44 0 0 0 16.00761
-8.860487 19.027527 5.8437862 21 0 0 0 17.56225
0.084838577 19.333055 5.882699 58 0 0 0 24.58367
-12.284553 19.697979 5.8808818 49 0 0 0 15.61169
-3.2928975 19.549185 5.5352001 50 0 0 0 21.85531
1.0660502 19.818052 5.5527377 67 0 0 0 25.36755
-6.6188917 20.423122 5.9840255 34 0 0 0 19.516041
0.09632463 20.189177 5.6455817 41 0 0 0 24.58367
0.59814048 20.384483 5.7036657 84 0 0 0 24.984791
1.5809195 20.137966 5.6524272 54 0 0 0 25.755369
-9.9370508 21.365971 5.9748735 23 0 0 0 17.56225
0.64366275 21.727448 5.537746 41 0 0 0 24.984791
1.1785051 21.744478 5.5490303 65 0 0 0 25.36755
-14.326001 23.007784 5.5384188 23 0 0 0 15.61169
-2.7988307 23.801937 5.5068822 107 0 0 0 22.63171
3.6328061 23.619164 5.5052934 140 0 0 0 26.93651
4.2271037 23.611002 5.527143 92 0 0 0 27.328489
4.8250241 23.596453 5.5510125 116 0 0 0 27.71566
-15.993264 24.350624 5.9513464 41 0 0 0 15.21941
-14.264567 24.21509 5.7434797 24 0 0 0 16.00761
-11.974887 24.223621 5.526001 69 0 0 0 17.165951
17.465561 -45.926594 6.4784107 8 0 0 0 68.764046
17.65004 -43.201046 6.1560082 7 0 0 0 68.369034
-40.757477 -40.632595 6.0917993 7 0 0 0 87.15596
-8.1019001 -40.039619 6.3600335 6 0 0 0 77.75592
19.637253 -35.089207 6.3097668 47 0 0 0 66.416489
19.791992 -33.419781 6.0968814 46 0 0 0 66.026115
24.895164 -30.678143 6.2057538 45 0 0 0 63.676872
26.239349 -30.761126 6.3506451 44 0 0 0 63.281689
-9.2161551 -25.5224 6.2304153 19 0 0 0 80.110886
-8.5113869 -25.505569 6.1749721 25 0 0 0 79.712837
-42.27512 -25.298372 6.4365768 12 0 0 0 91.068916
-9.8650932 -25.360788 6.2468987 12 0 0 0 80.498444
-42.938324 -20.284853 6.2084332 28 0 0 0 92.609344
17.103933 -11.581911 6.3204021 17 0 0 0 58.983391
16.233242 -10.998068 6.4877944 15 0 0 0 58.983391
16.678417 -10.143196 6.4589434 7 0 0 0 58.197113
16.973816 -9.2141705 6.390749 46 0 0 0 57.411758
29.871025 -5.3777156 6.2704244 23 0 0 0 52.329979
15.674403 -4.8615041 6.2434664 91 0 0 0 54.287121
16.503441 -3.8123956 6.0262632 51 0 0 0 53.122128
18.919283 -2.4547517 6.3128176 17 0 0 0 51.55452
17.556675 1.1931453 6.259511 37 0 0 0 48.432281
30.493549 2.0545013 6.3125076 34 0 0 0 48.432281
-18.682714 2.7528503 6.1843615 54.5 0 0 0 1.75561
-17.399014 3.2110677 6.2225714 108 0 0 0 2.33829
17.699257 3.4174783 6.4113784 28 0 0 0 46.477879
21.59087 3.068172 6.1310329 21 0 0 0 47.251408
16.075987 3.9334118 6.2974544 30 0 0 0 45.689159
17.007128 3.7199221 6.1935782 47 0 0 0 46.076458
-18.50939 4.3664522 6.2249451 70 0 0 0 3.1180301
-19.171047 5.0202675 6.4867949 50 0 0 0 3.51209
-18.917027 5.4495025 6.4430313 53 0 0 0 3.8963101
-18.644825 6.8785768 6.0132022 63 0 0 0 5.0750098
-18.529074 7.3541117 6.0313296 87 0 0 0 5.4559698
-18.369993 7.2948093 6.4663181 15 0 0 0 5.4559698
-18.278873 7.7778592 6.252326 38.5 0 0 0 5.8528299
16.860371 8.3693295 6.2303834 27 0 0 0 42.18058
-19.026741 8.6507196 6.3227663 50 0 0 0 6.2382202
19.6376 8.5684242 6.025013 19 0 0 0 42.96608
-19.413982 10.611372 6.1498404 49 0 0 0 7.4108701
-19.587481 11.337209 6.2902827 64 0 0 0 7.8057399
-19.55052 11.963129 6.3698778 41 0 0 0 8.19382
-19.34082 13.879622 6.0251617 29 0 0 0 9.3625603
-19.663881 14.855273 6.2368598 53 0 0 0 9.7487602
16.146738 15.206723 6.2321391 6 0 0 0 37.484074
-19.917759 15.828745 6.4379511 59 0 0 0 10.14613
28.657421 16.928724 6.0523963 9 0 0 0 41.009953
-7.7369881 17.717331 6.3364196 44 0 0 0 17.950871
-9.1020489 18.34656 6.2035866 64 0 0 0 17.165951
-7.3796225 18.095444 6.4063716 48 0 0 0 18.342871
-7.0941229 18.686378 6.0600019 39 0 0 0 18.72904
0.082998432 18.7915 6.1835537 53 0 0 0 24.58367
27.137962 18.855539 6.0078545 19 0 0 0 39.835808
28.559164 18.81922 6.2173734 31 0 0 0 40.226139
-0.38638005 19.350803 6.3667293 76 0 0 0 24.197729
-15.160012 19.731752 6.299293 16 0 0 0 14.04087
-11.742447 19.894945 6.4259195 41 0 0 0 16.00761
-6.8739638 19.543671 6.2822595 97 0 0 0 19.122101
-4.3487086 19.824308 6.1625123 42 0 0 0 21.081011
-3.7945533 19.568853 6.0540476 70 0 0 0 21.460541
-3.3124709 19.645941 6.0522652 69 0 0 0 21.85531
0.57402289 19.731661 6.2501025 65.5 0 0 0 24.984791
-10.616673 20.177431 6.3443971 36 0 0 0 16.775551
-10.110212 20.410498 6.3393154 30 0 0 0 17.165951
-0.90790576 20.439396 6.2213387 41 0 0 0 23.80813
1.0902997 20.300406 6.1874294 49 0 0 0 25.36755
1.5989743 20.402641 6.2298927 42 0 0 0 25.755369
3.0417428 23.622786 6.0710106 93 0 0 0 26.54221
3.6324944 23.619366 6.0925093 96 0 0 0 26.93651
4.2213011 23.581131 6.1088529 106 0 0 0 27.328489
4.8201485 23.574707 6.13726 119 0 0 0 27.71566
21.935314 25.105717 6.0557232 11 0 0 0 35.913448
18.238512 -39.067177 6.759788 56 0 0 0 67.593185
19.466021 -39.163078 6.8576431 66 0 0 0 67.199265
19.838099 -31.702778 6.7989283 38 0 0 0 65.637756
-9.5576315 -31.155138 6.6820273 7 0 0 0 79.318237
-8.6152267 -30.743908 6.5485773 8 0 0 0 78.928223
22.442789 -30.609324 6.9021711 49 0 0 0 64.46331
21.167696 -30.406889 6.7374544 40 0 0 0 64.84861
33.213673 -28.98093 6.9227338 31 0 0 0 60.935806
-9.1856937 -25.436617 6.8732281 5 0 0 0 80.110886
-7.8091102 -25.455511 6.7695794 16 0 0 0 79.318237
-10.652357 -23.858747 6.6387553 12 0 0 0 81.274979
-9.9087763 -23.734827 6.5361261 12 0 0 0 80.884483
-36.461784 -23.049225 6.7061987 13 0 0 0 90.675247
-37.189255 -22.254324 6.7382984 9 0 0 0 91.068916
-37.368877 -21.137262 6.6760488 5 0 0 0 91.45665
16.247263 -11.598454 6.6044078 21 0 0 0 59.375439
18.339779 -10.543479 6.9962573 13 0 0 0 57.798359
18.624025 -10.702263 6.570642 32 0 0 0 57.798359
16.705463 -10.151447 6.9484706 24 0 0 0 58.197113
19.696091 -10.065929 6.7648048 9 0 0 0 57.02655
16.990955 -9.2156019 6.8711143 26 0 0 0 57.411758
20.485464 -7.4722304 6.6690016 20 0 0 0 55.075447
19.882883 -5.6384277 6.8353381 17 0 0 0 53.902859
38.191597 -4.9532733 6.9962878 15 0 0 0 51.55452
18.800062 -2.4324863 6.7393312 18 0 0 0 51.55452
32.521145 -1.004369 6.7179914 18 0 0 0 49.991001
17.38443 1.1815928 6.6270995 44 0 0 0 48.432281
-22.872698 1.9586195 6.9585562 16 0 0 0 0.77358997
-18.615356 2.5070281 6.6089754 43 0 0 0 1.5613999
-18.40379 2.9364171 6.5563769 63 0 0 0 1.94982
22.218786 3.1614194 6.8618927 19 0 0 0 47.251408
-18.316704 5.2689395 6.7020612 73 0 0 0 3.8963101
-18.785162 5.9044733 6.9241862 30 0 0 0 4.2870998
-17.881895 6.1014757 6.6425252 54 0 0 0 4.6789799
-18.763512 6.9269767 6.5443006 65 0 0 0 5.0750098
-19.089987 8.6843023 6.860795 55 0 0 0 6.2382202
-18.66971 9.0484161 6.7862482 67 0 0 0 6.6298699
-19.930677 10.267417 6.7816076 48 0 0 0 7.0246401
-19.66033 10.743103 6.7761717 41 0 0 0 7.4108701
15.09587 12.2661 6.9127436 32 0 0 0 38.66222
-20.232759 13.073891 6.6943445 29 0 0 0 8.5779896
-20.081783 13.683419 6.7524405 46 0 0 0 8.9805202
12.05944 13.855896 6.9784203 24 0 0 0 35.913448
-20.118341 14.441718 6.8810072 29 0 0 0 9.3625603
-19.014179 14.36221 6.6202025 58 0 0 0 9.7487602
-7.5413775 17.24688 6.6301932 30 0 0 0 17.950871
-6.8157701 17.932852 6.7601457 59 0 0 0 18.72904
-10.191223 18.255526 6.8462968 41 0 0 0 16.391661
-8.4983835 18.240894 6.5937014 54 0 0 0 17.56225
-9.7571115 18.528091 6.8582492 32 0 0 0 16.775551
-9.2077341 18.570168 6.7900219 50 0 0 0 17.165951
-6.5938168 18.724468 6.996479 44 0 0 0 19.122101
-6.0468516 18.608118 6.8976049 44 0 0 0 19.516041
-5.6460729 18.942606 6.9697132 19 0 0 0 19.90049
-10.825659 19.395433 6.7248611 19 0 0 0 16.391661
-7.2274117 19.052271 6.6810594 97 0 0 0 18.72904
-0.87217766 19.449024 6.8799863 63 0 0 0 23.80813
-0.39468801 19.433886 6.8706298 56 0 0 0 24.197729
-6.8632774 19.523508 6.7866001 81 0 0 0 19.122101
-6.3892078 19.702986 6.7941909 44 0 0 0 19.516041
-0.88809693 20.025326 6.5916171 38 0 0 0 23.80813
-6.7070689 20.686337 6.595273 37 0 0 0 19.516041
-3.0465906 21.280083 6.5302529 39 0 0 0 22.241011
2.4540842 23.62422 6.6431694 88 0 0 0 26.15251
3.038712 23.602482 6.6574059 92 0 0 0 26.54221
3.6258876 23.579596 6.6754193 112 0 0 0 26.93651
4.2191863 23.571472 6.7017655 89 0 0 0 27.328489
4.814712 23.550283 6.7286572 97 0 0 0 27.71566
22.315916 24.311663 6.8087387 11 0 0 0 36.305767
19.58515 -34.997147 7.2866826 44 0 0 0 66.416489
-45.883297 -33.961102 7.449698 11 0 0 0 89.490974
-43.322163 -33.737179 7.1663613 16 0 0 0 89.105698
19.720928 -33.300747 7.033958 33 0 0 0 66.026115
-43.95277 -30.895994 7.013895 18 0 0 0 89.88343
-8.6184626 -30.774136 7.3365965 19 0 0 0 78.928223
23.616226 -30.606705 7.0301738 47 0 0 0 64.074669
24.866665 -30.643284 7.1764936 50 0 0 0 63.676872
35.084553 -29.128662 7.1597166 12 0 0 0 60.541752
36.141758 -28.538918 7.2294703 18 0 0 0 60.155407
-9.0821028 -27.218525 7.2918758 13 0 0 0 79.712837
18.430214 -9.4163876 7.3542523 22 0 0 0 57.02655
