# .PCD v0.7 - Point Cloud Data file format
VERSION 0.7
FIELDS x y z intensity normal_x normal_y normal_z curvature
SIZE 4 4 4 4 4 4 4 4
TYPE F F F F F F F F
COUNT 1 1 1 1 1 1 1 1
WIDTH 943
HEIGHT 1
VIEWPOINT 0 0 0 1 0 0 0
POINTS 943
DATA ascii
10.254838 -3.9726961 0.9380216 189 0 0 0 55.423901
-25.137865 -3.0989566 0.84371829 234 0 0 0 97.635918
-15.539295 -3.0895753 0.73372781 121 0 0 0 96.463776
-15.271101 -3.42765 0.5341022 186 0 0 0 96.077049
-5.0731697 -3.3841975 0.97539949 569 0 0 0 90.228172
59.908459 2.9768784 0.54046416 27 0 0 0 48.789219
61.13316 4.5457644 0.55534351 13 0 0 0 48.396919
0.33037612 5.8608689 0.74176806 1215.6666 0 0 0 25.746714
16.665888 5.5380344 0.63539803 244 0 0 0 44.48774
-0.10212877 6.3336124 0.71808767 1340.6666 0 0 0 24.575068
0.048783652 6.139492 0.7730757 1302.5 0 0 0 24.97142
59.465881 7.3741131 0.5509879 15 0 0 0 47.61911
-1.282127 7.9387441 0.70248681 1595.6666 0 0 0 22.231871
-1.5128773 8.1132469 0.71952581 1000.3333 0 0 0 21.842962
-1.0951 8.0351601 0.70855767 436 0 0 0 22.616249
-14.019196 8.7996111 0.55908573 201 0 0 0 8.57617
-13.993232 8.781436 0.95960653 210 0 0 0 8.57617
-12.860253 8.9717512 0.5340091 106 0 0 0 9.35324
-12.087311 8.8752756 0.51337034 185 0 0 0 9.7496901
-14.276514 9.4572344 0.57875562 96 0 0 0 8.9733896
-10.549484 9.4530811 0.83568513 170 0 0 0 11.30415
-5.8293457 9.0259075 0.78398436 1561 0 0 0 15.60593
1.2768402 9.2754955 0.70394289 992.5 0 0 0 26.92448
1.5163753 9.3077602 0.70927328 849.5 0 0 0 27.30983
-16.222486 9.6483135 0.63139904 103 0 0 0 8.1824198
-11.167536 9.5292349 0.86373007 142 0 0 0 10.92043
-10.171343 9.5707092 0.82556713 213 0 0 0 11.69692
-9.8149929 9.6967497 0.81711769 297 0 0 0 12.08442
-9.3167095 9.9018707 0.80742157 266 0 0 0 12.668505
-6.5204201 9.5868015 0.84261715 422.5 0 0 0 15.21919
-2.6774619 9.7543535 0.74897337 1153.25 0 0 0 20.48185
1.0737911 9.5128336 0.71847832 966 0 0 0 26.528179
7.7777991 9.5876589 0.76847994 121 0 0 0 35.506607
20.218552 9.6079788 0.80436552 197 0 0 0 42.541599
-13.762913 10.115311 0.99559677 53 0 0 0 9.7496901
-13.027415 10.070784 0.96229559 100 0 0 0 10.13438
-12.328086 10.01739 0.93075204 147 0 0 0 10.52643
-8.6769066 10.173133 0.79680085 312 0 0 0 13.44561
-8.2022419 10.362646 0.78949773 303 0 0 0 14.03866
-7.8200326 10.389686 0.77837938 218 0 0 0 14.43209
-7.3632603 10.293336 0.75945598 417 0 0 0 14.82604
-3.5260193 10.340744 0.9400177 208 0 0 0 19.504721
-3.1884403 10.155237 0.78506875 651.5 0 0 0 19.90197
6.9127536 10.483119 0.78078955 468 0 0 0 33.937752
7.2648835 10.445311 0.79066855 535 0 0 0 34.339447
7.7567849 10.312226 0.80150557 310.5 0 0 0 34.916515
8.7896776 10.294705 0.67296463 420 0 0 0 35.905472
9.1966572 10.246696 0.68334353 434 0 0 0 36.294312
9.6161518 10.194946 0.69490743 450.5 0 0 0 36.680794
10.047428 10.137526 0.70702779 383 0 0 0 37.071781
10.828784 10.057695 0.79001665 371.66666 0 0 0 37.729538
-3.6557937 10.741646 0.69375437 564 0 0 0 19.504721
-2.5525081 10.898511 0.68737614 340 0 0 0 21.0623
2.0497568 10.794903 0.68399882 302 0 0 0 27.702471
5.8104372 10.727058 0.75930911 569 0 0 0 32.579643
6.2270012 10.543371 0.76213634 555 0 0 0 33.167728
6.5675402 10.516793 0.7713564 454 0 0 0 33.550499
-4.102932 11.165423 0.72498024 511 0 0 0 19.11087
-2.3134222 11.10412 0.69667101 399 0 0 0 21.457581
-0.38085958 11.344204 0.84176034 752.5 0 0 0 24.179319
2.3837166 11.047755 0.70294493 441 0 0 0 28.090929
2.7524252 11.374806 0.72701192 131 0 0 0 28.476271
5.2886825 11.380576 0.77948481 538 0 0 0 31.60639
5.5034957 11.119402 0.77125603 534 0 0 0 31.998131
-1.2792901 11.945714 0.73815322 508 0 0 0 23.01005
-0.67546892 11.679974 0.72070038 607 0 0 0 23.788891
3.1322465 11.667109 0.74965984 309 0 0 0 28.873091
3.5309484 11.95698 0.77289492 381 0 0 0 29.25572
4.8470922 11.93058 0.79840308 412 0 0 0 30.825741
5.0720739 11.655192 0.78880882 509 0 0 0 31.218889
-24.603283 12.316658 0.89861614 33 0 0 0 7.0142798
-22.879837 12.159034 0.85030448 35 0 0 0 7.4080701
-4.8058562 12.176947 0.79372501 457 0 0 0 18.7227
-0.99076802 12.045665 0.7428928 17 0 0 0 23.40439
3.960155 12.277711 0.79883438 349 0 0 0 29.642071
4.3769631 12.499758 0.81945479 430 0 0 0 30.040039
4.6170554 12.215849 0.80885488 517 0 0 0 30.432739
-22.248755 12.529812 0.84060758 46 0 0 0 7.7934899
60.969093 15.324244 0.59490871 8 0 0 0 45.656559
-11.685948 19.307409 0.78378391 210 0 0 0 15.99565
-11.016888 19.248314 0.77227342 294 0 0 0 16.3785
-10.368642 19.188507 0.76143593 299 0 0 0 16.77107
-9.7349548 19.118515 0.7508831 288 0 0 0 17.165421
-9.3969851 19.633568 0.76264358 67 0 0 0 17.5464
-8.8101063 19.626291 0.75542903 51 0 0 0 17.935169
-8.2162104 19.570807 0.74699384 73 0 0 0 18.339001
45.057598 28.612511 0.54064894 18 0 0 0 40.587761
4.5740032 -46.798634 1.4981943 14 0 0 0 73.023827
5.6732635 -46.28651 1.4860241 21 0 0 0 72.627937
6.8598776 -46.48838 1.4971722 16 0 0 0 72.233994
8.0083809 -46.363224 1.4990363 19 0 0 0 71.843903
-8.7092505 -43.636211 1.4219451 6 0 0 0 77.706993
9.4652615 -42.31591 1.3846302 33 0 0 0 71.065247
-12.762868 -41.983192 1.4045942 80 0 0 0 79.281715
-22.679914 -37.801765 1.417899 15 0 0 0 83.182114
-8.5366726 -37.887352 1.2459546 31 0 0 0 78.103569
2.4994104 -34.351795 1.1070213 46 0 0 0 73.404686
-0.85799593 -33.620331 1.0822489 42 0 0 0 74.97921
-0.03315952 -33.142704 1.0670203 41 0 0 0 74.582176
-22.17771 -31.46035 1.24476 18 0 0 0 84.355034
2.8968618 -13.05584 1.1119149 45 0 0 0 71.065247
3.2644043 -13.174889 1.4577597 24 0 0 0 70.6716
6.2950711 -11.852885 1.4446722 68 0 0 0 66.761169
16.858932 -9.5772753 1.1341265 154 0 0 0 57.766682
22.490952 -9.9894066 1.4341265 16 0 0 0 56.195858
2.8685775 -9.1711769 1.1615063 311.25 0 0 0 69.698738
-7.2289653 -8.6448851 1.3101743 429.66666 0 0 0 85.663536
-32.529156 -8.1453247 1.1032968 26 0 0 0 95.690727
-13.801128 -8.2682219 1.3380729 168 0 0 0 91.017586
9.2381315 -8.2760115 1.1439983 620.33331 0 0 0 61.153919
9.68367 -8.3926058 1.3890976 137 0 0 0 60.897942
15.038791 -4.5730758 1.3266417 198 0 0 0 54.252121
23.913607 -4.7624989 1.4341147 45 0 0 0 52.68716
11.250521 -4.0410395 1.1613798 371 0 0 0 55.032101
12.696225 -4.207953 1.2958269 232.5 0 0 0 54.640121
19.739552 -4.4406161 1.1952758 326 0 0 0 53.077858
-3.5896943 -3.6355965 1.2806324 887.66669 0 0 0 86.969261
-3.2298501 -3.6901553 1.2618037 879.25 0 0 0 85.998131
-2.7318332 -3.7357426 1.2394484 646 0 0 0 84.583916
-2.2216809 -3.7505617 1.2490467 574.19049 0 0 0 83.037239
-1.7408173 -3.7516472 1.2779224 390.10001 0 0 0 81.427841
-1.2501557 -3.7417681 1.2421501 318.77777 0 0 0 79.627037
-0.84652424 -3.7184911 1.3395171 228.61539 0 0 0 78.042801
-0.18944837 -3.740972 1.4383657 283 0 0 0 75.269814
0.2936627 -3.8000534 1.3111732 204.94737 0 0 0 73.224762
0.72381294 -3.8396897 1.2528343 215.75862 0 0 0 71.481888
1.2443399 -3.8729312 1.2637756 255.03999 0 0 0 69.50074
1.7394972 -3.8974068 1.2347237 289.85715 0 0 0 67.772141
2.2184179 -3.8908992 1.268376 407.26315 0 0 0 66.206375
2.6028407 -3.8551037 1.2721496 556.375 0 0 0 65.008026
4.5890541 -3.8363984 1.2619708 943.66669 0 0 0 60.566238
6.2545929 -3.9170272 1.3079373 970.33331 0 0 0 58.415302
6.7863007 -3.9248433 1.2564386 812.5 0 0 0 57.863274
7.2836876 -3.9179034 1.2212696 886.5 0 0 0 57.36974
7.7003937 -3.8991368 1.2729999 806.5 0 0 0 56.986832
8.1918869 -3.8962739 1.2240151 776.33331 0 0 0 56.589512
8.7284412 -3.8892698 1.1697512 707 0 0 0 56.195858
9.2951183 -3.8687568 1.2307467 647.5 0 0 0 55.80574
9.9246464 -3.8453033 1.2991921 530.5 0 0 0 55.423901
-25.050337 -3.0881872 1.4584291 219 0 0 0 97.635918
-20.608175 -3.055603 1.2096725 35 0 0 0 97.254471
-15.581663 -3.1008568 1.3254946 335 0 0 0 96.463776
-5.1139359 -3.2921803 1.2722068 348.66666 0 0 0 90.490944
-4.9197783 -3.3700016 1.3201882 592.75 0 0 0 90.034706
-30.346363 -2.987123 1.0088801 56 0 0 0 98.022842
0.32861057 5.85817 1.2470371 1258.4445 0 0 0 25.746712
16.619722 5.5220566 1.0638734 263 0 0 0 44.48774
-0.10414863 6.3167 1.2597678 1270 0 0 0 24.575069
0.046774302 6.1327438 1.3001281 1246.6666 0 0 0 24.97142
-1.2863796 7.9456019 1.2951679 1419.3334 0 0 0 22.231871
-1.5104257 8.0812321 1.220134 995 0 0 0 21.84296
-13.915525 9.209116 1.3830179 72 0 0 0 8.9733896
-5.8279524 9.0170937 1.3062338 1205 0 0 0 15.60593
1.1711825 9.3740606 1.0568147 978.5 0 0 0 26.72633
1.5160543 9.3136206 1.0563772 857 0 0 0 27.30983
-6.4962058 9.5463209 1.2607533 428 0 0 0 15.21919
-2.6785131 9.7470608 1.2421993 1102.5 0 0 0 20.48185
7.6478705 9.6736345 1.226145 381 0 0 0 35.308861
10.927504 9.9887152 1.2831491 403 0 0 0 37.859081
11.401344 9.9154387 1.308558 390 0 0 0 38.247566
11.944307 9.8792171 1.3411204 339 0 0 0 38.634727
12.476531 9.8099298 1.371962 330 0 0 0 39.02832
13.035627 9.7375832 1.4051811 304 0 0 0 39.42009
13.650665 9.6803274 1.4437009 279 0 0 0 39.803741
14.271406 9.5991716 1.4822464 242 0 0 0 40.19492
-3.1914411 10.15407 1.3050071 693 0 0 0 19.90197
6.1765065 10.463462 1.0598803 140 0 0 0 33.167728
6.7681298 10.45342 1.2872561 624 0 0 0 33.808666
7.2380686 10.411229 1.2589362 556.5 0 0 0 34.339447
7.5613985 10.322306 1.2707715 407 0 0 0 34.721912
8.7250767 10.223278 1.3329456 376.5 0 0 0 35.905472
9.1357536 10.182903 1.1890901 538 0 0 0 36.294312
9.772213 10.108334 1.2209616 493.5 0 0 0 36.876289
10.462173 10.04967 1.2582864 352 0 0 0 37.470448
-16.283253 10.795077 1.1311197 72 0 0 0 8.9733896
-15.361359 10.730023 1.0877072 74 0 0 0 9.35324
-12.00082 10.761826 1.3456012 106 0 0 0 11.30415
-11.32883 10.666319 1.3012348 134 0 0 0 11.69692
-10.761325 10.636831 1.2674688 141 0 0 0 12.08442
-10.315681 10.705151 1.247111 170 0 0 0 12.46852
-9.7111044 10.579533 1.2069006 187 0 0 0 12.86849
-9.1704035 10.753582 1.1901233 269 0 0 0 13.44561
-8.6836796 10.973291 1.1804035 262 0 0 0 14.03866
-3.6513107 10.717094 1.2468694 535 0 0 0 19.504721
5.8054042 10.723326 1.2118165 457 0 0 0 32.579643
6.2022791 10.506723 1.3613383 746 0 0 0 33.167728
6.5618339 10.512022 1.0803286 444 0 0 0 33.550499
-13.649592 11.095097 1.4627476 151 0 0 0 10.52643
-13.13027 11.215032 1.4379818 110 0 0 0 10.92043
-8.1978798 11.176411 1.1713393 321.5 0 0 0 14.629065
-4.1940212 11.409922 1.1885488 429.5 0 0 0 19.11087
-0.38259879 11.341934 1.2579647 766 0 0 0 24.179319
5.3785686 11.219713 1.2355965 267.25 0 0 0 31.802261
-2.6944935 11.517619 1.0180238 318 0 0 0 21.0623
-2.4397388 11.724296 1.0309348 272 0 0 0 21.457581
-0.67895263 11.691632 1.1544955 547 0 0 0 23.788891
2.2129612 11.628608 1.028921 337 0 0 0 27.702471
2.5704315 11.891246 1.0569794 268 0 0 0 28.090929
4.8452549 11.933041 1.276386 379.5 0 0 0 30.825741
5.0578489 11.629421 1.2579057 279.5 0 0 0 31.218889
-22.802874 12.115298 1.4766109 44 0 0 0 7.4080701
-4.8012218 12.154901 1.2744091 446 0 0 0 18.7227
-2.697824 12.234118 1.3802315 359.5 0 0 0 21.259941
-1.3343443 12.474871 1.0810701 21 0 0 0 23.01005
-0.99579334 12.072508 1.1923368 552.5 0 0 0 23.40439
2.3832312 12.488297 1.4114337 351 0 0 0 27.702471
2.967768 12.245642 1.0938973 383 0 0 0 28.476271
4.6136537 12.214554 1.2931038 448.5 0 0 0 30.432739
-22.305252 12.559152 1.4662969 65 0 0 0 7.7934899
-7.7281408 12.697792 1.258167 485 0 0 0 15.99565
-1.3384173 12.509478 1.3890421 552 0 0 0 23.01005
2.7789862 12.82335 1.4560802 447 0 0 0 28.090929
3.3726408 12.546167 1.1272136 419 0 0 0 28.873091
3.8099222 12.886442 1.1651282 242 0 0 0 29.25572
4.256362 12.663253 1.3218583 335.25 0 0 0 29.841055
-7.6590304 13.313463 1.3002093 454 0 0 0 16.3785
3.1904533 13.137602 1.4997562 357 0 0 0 28.476271
-7.5796337 13.962152 1.3450018 384 0 0 0 16.77107
-32.185184 14.202985 1.1340395 31 0 0 0 6.2362299
-35.533619 14.656837 1.2328224 17 0 0 0 5.8475599
-31.817385 14.981385 1.1366634 46 0 0 0 6.6214499
-7.5185299 14.70548 1.398246 358 0 0 0 17.165421
-7.2648954 15.115246 1.4204931 235 0 0 0 17.5464
-6.7767801 15.538589 1.4373512 430.5 0 0 0 18.137085
-10.743635 17.732878 1.2286106 19 0 0 0 15.99565
-10.350958 18.070126 1.2353197 18 0 0 0 16.3785
-9.9504414 18.403154 1.2422856 28 0 0 0 16.77107
-9.6537828 18.953854 1.2639073 46 0 0 0 17.165421
-9.1582804 19.125528 1.2614747 30 0 0 0 17.5464
-8.7483473 19.483299 1.2716166 29 0 0 0 17.935169
-8.2023907 19.533611 1.2629412 24 0 0 0 18.339001
-20.115328 -52.079006 1.7796675 11 0 0 0 80.448509
-18.652557 -52.05571 1.7622674 6 0 0 0 80.062531
-17.367132 -52.488621 1.7612237 16 0 0 0 79.670631
-27.56599 -51.527813 1.8659942 10 0 0 0 82.411873
-22.864214 -51.523899 1.7983047 14 0 0 0 81.236786
-21.508862 -51.864841 1.7904944 11 0 0 0 80.842896
-29.185335 -51.47813 1.890156 12 0 0 0 82.794846
-25.939535 -51.484753 1.840265 9 0 0 0 82.010544
-33.975143 -50.814587 1.9548063 7 0 0 0 83.969055
-32.194328 -50.80505 1.9228507 6 0 0 0 83.573746
20.503933 -49.596817 1.7088653 18 0 0 0 68.332443
-8.619154 -49.499649 1.6006374 18 0 0 0 77.320015
-7.2871356 -48.919422 1.5758435 9 0 0 0 76.938049
-11.964441 -47.650623 1.5672588 11 0 0 0 78.494019
1.1375809 -47.731319 1.521235 23 0 0 0 74.190063
2.2870688 -47.256931 1.5075401 16 0 0 0 73.802925
12.881157 -46.683544 1.5428119 16 0 0 0 70.282677
9.1919422 -46.395901 1.5068859 26 0 0 0 71.459671
11.603267 -46.472717 1.5260298 9 0 0 0 70.6716
20.42729 -46.173656 1.6106236 7 0 0 0 67.944786
21.670973 -45.904915 1.6199887 14 0 0 0 67.546593
22.973497 -45.721508 1.633602 14 0 0 0 67.152733
-0.84805012 -33.193459 1.8814836 36 0 0 0 74.97921
2.4280782 -33.393429 1.8965205 18 0 0 0 73.404686
4.044208 -33.081738 1.8879168 20 0 0 0 72.627937
5.1321082 -29.789049 1.715703 18 0 0 0 71.843903
2.8313789 -29.106852 1.6609504 6 0 0 0 73.023827
-19.03285 -26.995108 1.881156 15 0 0 0 84.355034
2.8077934 -14.278922 1.917749 31 0 0 0 71.459671
2.7158954 -13.828302 1.5118451 9 0 0 0 71.459671
3.0875702 -13.90144 1.7034764 34 0 0 0 71.065247
4.8296885 -13.59995 1.7265458 44.5 0 0 0 69.107262
5.2831092 -13.788584 1.9471353 10 0 0 0 68.716331
22.778486 -13.6807 1.5388904 13 0 0 0 58.153049
3.3168104 -13.37564 1.8182907 23 0 0 0 70.6716
5.2599649 -13.252234 1.5309783 12 0 0 0 68.524384
-6.3179636 -12.51616 1.849602 24 0 0 0 82.010544
-5.9450293 -12.530592 1.8298312 18 0 0 0 81.621155
1.8898984 -12.955373 1.7285954 24 0 0 0 72.233994
3.5230987 -12.854404 1.7599921 45 0 0 0 70.282677
5.3258638 -12.945576 1.8481103 34 0 0 0 68.332443
-6.6750093 -12.455873 1.8642548 28 0 0 0 82.411873
6.1282687 -12.249897 1.8102745 38 0 0 0 67.152733
-4.1621819 -11.572672 1.9295102 32 0 0 0 80.062531
-3.8610508 -11.620963 1.9212602 23 0 0 0 79.670631
-6.0017462 -11.195245 1.9927988 73 0 0 0 82.411873
-2.667134 -10.551177 1.9798098 59 0 0 0 78.494019
-2.4022875 -10.58783 1.8411053 50 0 0 0 78.103569
7.9004908 -10.707643 1.7631381 42 0 0 0 64.417297
8.9099913 -10.907083 1.865128 75 0 0 0 63.639
-9.2153244 -10.155185 1.8120773 42 0 0 0 86.317665
8.1012115 -10.433491 1.7510911 62 0 0 0 64.030182
8.9561501 -10.430875 1.8222399 20 0 0 0 63.249729
-6.1632423 -9.7069759 1.523538 36 0 0 0 83.573746
-3.2907779 -9.8928232 1.8981068 65 0 0 0 79.670631
-2.9833133 -9.7580013 1.8583313 18 0 0 0 79.281715
16.86507 -9.5779915 1.6182647 95 0 0 0 57.766682
-4.7148609 -9.3287058 1.9034886 97 0 0 0 82.010544
2.9089148 -9.167016 1.6770759 417 0 0 0 69.633705
3.2349424 -9.1442986 1.6506443 414.5 0 0 0 69.107262
-7.3211536 -8.6121655 1.6849116 219.33333 0 0 0 85.794044
-5.521214 -8.6923466 1.6220863 29 0 0 0 83.573746
-13.941666 -8.3525171 1.7456143 158 0 0 0 91.017586
4.2086759 -8.1876545 1.6849827 163 0 0 0 66.956955
9.1751556 -8.3553944 1.8052706 846 0 0 0 61.28191
9.7223597 -8.4238033 1.7113404 284 0 0 0 60.897942
44.32893 -6.5726857 1.5106257 44 0 0 0 51.916142
15.102459 -4.5932178 1.7167044 91 0 0 0 54.252121
12.319835 -4.082377 1.7380526 278 0 0 0 54.640121
19.696262 -4.4283705 1.6965975 266 0 0 0 53.077858
-3.6252997 -3.5387366 1.7726796 756.71429 0 0 0 87.269333
-3.2567956 -3.5914733 1.6816696 715.58331 0 0 0 86.283363
-2.7697637 -3.6434133 1.6463253 562.54547 0 0 0 84.886711
-2.2565601 -3.6868999 1.594057 508.11111 0 0 0 83.272377
-1.7761637 -3.7088418 1.5735298 384.60001 0 0 0 81.624649
-1.3532881 -3.719156 1.5150973 434 0 0 0 80.060555
0.92244786 -3.8219533 1.5111868 320 0 0 0 70.6716
1.2290838 -3.8257771 1.5459602 292.60001 0 0 0 69.500748
1.7409422 -3.828665 1.5737942 290.85715 0 0 0 67.660103
2.2626021 -3.8180296 1.638615 379.18182 0 0 0 65.94558
2.6362314 -3.8028436 1.6669832 400 0 0 0 64.81102
4.4987311 -3.7313559 1.9577844 786 0 0 0 60.496819
4.6170373 -3.7185559 1.7330445 765.14288 0 0 0 60.276394
5.6834912 -3.8295887 1.951054 54 0 0 0 58.942619
6.2890334 -3.8812079 1.6989094 576.40002 0 0 0 58.310406
6.8087373 -3.8839991 1.7418762 996.5 0 0 0 57.766682
7.2544222 -3.9032245 1.6259162 899 0 0 0 57.36974
7.6654367 -3.8825417 1.6949666 872.5 0 0 0 56.986832
8.1667576 -3.8850965 1.7817881 406.5 0 0 0 56.589512
8.6759462 -3.8661785 1.6349175 806.5 0 0 0 56.195858
9.2570248 -3.8531613 1.7238972 589 0 0 0 55.80574
9.8827991 -3.8293567 1.8209969 479.5 0 0 0 55.423901
11.074509 -3.9768896 1.5789324 387 0 0 0 55.032101
-20.665222 -3.0677674 1.7327502 118 0 0 0 97.254471
-15.70177 -3.1247849 1.7239604 243 0 0 0 96.463776
-5.0620322 -3.2021916 1.766547 188.75 0 0 0 90.62233
-4.8444004 -3.3193941 1.7325202 552.625 0 0 0 90.034706
-30.417984 -2.9941933 1.7590896 73 0 0 0 98.022842
0.32639587 5.8514104 1.7502364 1053.9166 0 0 0 25.746717
-0.10634518 6.3046794 1.7997845 1144.3334 0 0 0 24.575068
0.044416573 6.1126785 1.7464881 1241.3334 0 0 0 24.97142
-1.2886466 7.9485145 1.7900293 1402 0 0 0 22.231871
-1.5094475 8.0660524 1.7223629 908 0 0 0 21.842962
-6.4671025 9.4959383 1.8176825 410 0 0 0 15.21919
-5.8222275 9.0031729 1.8307568 863.5 0 0 0 15.60593
-6.4802346 9.5172119 1.5384994 398 0 0 0 15.21919
-2.678972 9.7406416 1.7387868 1041 0 0 0 20.48185
7.8006549 9.6223078 1.6881025 379 0 0 0 35.506607
10.918386 9.9802151 1.6427176 437 0 0 0 37.859081
11.41183 9.9242239 1.6783934 406 0 0 0 38.247566
11.935125 9.8713732 1.7176868 340 0 0 0 38.634727
12.489232 9.8195105 1.7605916 296 0 0 0 39.02832
13.055828 9.7522011 1.8045239 333 0 0 0 39.42009
13.636241 9.6697483 1.8496982 273 0 0 0 39.803741
14.263302 9.5933008 1.9004079 282 0 0 0 40.19492
-13.808448 10.141564 1.8358438 172 0 0 0 9.7496901
-3.1875019 10.133238 1.8252232 589.5 0 0 0 19.90197
6.638906 10.446398 1.7881562 667 0 0 0 33.679585
7.2143331 10.381498 1.7215587 654 0 0 0 34.339447
7.7020755 10.250117 1.7457879 432 0 0 0 34.916515
8.7123995 10.212089 1.8260226 512 0 0 0 35.905472
9.1175117 10.164403 1.6882343 527 0 0 0 36.294312
9.7671537 10.104811 1.7365718 478.25 0 0 0 36.876289
10.444007 10.033815 1.7879001 429.5 0 0 0 37.470448
-3.6491301 10.70071 1.6613706 576 0 0 0 19.504721
5.7960281 10.711239 1.8102194 617.5 0 0 0 32.579643
6.1965642 10.501679 1.8126689 717 0 0 0 33.167728
-13.632377 11.079009 1.8849927 95 0 0 0 10.52643
-4.1836042 11.369814 1.7770481 454.5 0 0 0 19.11087
-0.38461787 11.311337 1.6725116 686.5 0 0 0 24.179319
5.418036 11.190021 1.794556 478.66666 0 0 0 31.867552
-15.237512 11.787743 1.5977181 75 0 0 0 10.13438
-12.043434 11.915314 1.8250083 85 0 0 0 12.08442
-11.401006 11.841692 1.7730072 134 0 0 0 12.46852
-10.796972 11.774153 1.7252463 116 0 0 0 12.86849
-10.117468 11.584997 1.6634395 217 0 0 0 13.25205
-9.7456017 11.724803 1.6504645 245 0 0 0 13.63917
-9.3882408 11.873012 1.6401 259 0 0 0 14.03866
-0.68053579 11.659302 1.7240174 576 0 0 0 23.788891
4.8342881 11.913419 1.7475803 410 0 0 0 30.825741
5.0586329 11.637527 1.7257142 492 0 0 0 31.218889
-24.58005 12.302206 1.5675807 56 0 0 0 7.0142798
-13.553486 12.165171 1.9566965 101 0 0 0 11.30415
-13.083083 12.332287 1.9336005 130 0 0 0 11.69692
-9.04072 12.025988 1.6317234 275 0 0 0 14.43209
-8.7108192 12.196745 1.6269729 304 0 0 0 14.82604
-7.5222239 12.348978 1.7512085 540.5 0 0 0 15.99565
-4.7897406 12.115205 1.7474027 431 0 0 0 18.7227
-1.3398011 12.494572 1.6959726 454 0 0 0 23.01005
-0.99783945 12.055059 1.7840364 287.5 0 0 0 23.40439
1.3843522 12.071153 1.6475096 417 0 0 0 26.528179
1.71957 12.294897 1.6832782 241 0 0 0 26.92448
4.6087303 12.209296 1.7728454 409 0 0 0 30.432739
-18.454193 12.899112 1.858794 100 0 0 0 9.35324
-7.4667387 12.968355 1.8129225 521.5 0 0 0 16.3785
-2.9709544 12.728919 1.7587814 287 0 0 0 21.0623
-1.7059413 12.9386 1.759352 318 0 0 0 22.616249
2.138751 12.926421 1.7752386 154 0 0 0 27.30983
4.2541504 12.665643 1.8135833 386 0 0 0 29.841055
-17.799107 13.099025 1.8268999 181 0 0 0 9.7496901
-2.7229066 13.12497 1.80373 190 0 0 0 21.457581
2.5496647 13.341165 1.8397026 185 0 0 0 27.702471
3.7473783 13.276459 1.7005141 361.25 0 0 0 29.064405
-46.259754 13.977579 1.5278069 23 0 0 0 4.2939601
-7.4083147 13.6396 1.6902668 444 0 0 0 16.77107
2.9659767 13.670711 1.8942947 210 0 0 0 28.090929
3.3461738 13.772216 1.9193865 340 0 0 0 28.476271
-32.116768 14.16923 1.9878565 40 0 0 0 6.2362299
-7.3250065 14.3189 1.7516621 471 0 0 0 17.165421
-31.834621 14.986025 1.9954754 52 0 0 0 6.6214499
-46.053131 15.157946 1.5342715 36 0 0 0 4.67418
-7.2406979 15.061357 1.8201365 368 0 0 0 17.5464
-6.7373056 15.442078 1.8366857 515.5 0 0 0 18.137085
-26.470615 15.782989 1.7620243 65 0 0 0 8.1824198
-45.605526 16.258814 1.5363357 45 0 0 0 5.0641799
-45.614716 17.533037 1.5545088 19 0 0 0 5.4604602
40.275269 29.946373 1.7691832 14 0 0 0 39.42009
43.14455 30.459417 1.8583767 12 0 0 0 39.803741
35.350105 30.579447 1.6533175 23 0 0 0 38.247566
40.187988 31.442924 1.7993181 19 0 0 0 39.02832
31.08415 -54.944107 2.0096149 30 0 0 0 66.377441
-41.34584 -50.355206 2.0849974 16 0 0 0 85.533035
-37.313232 -50.282558 2.0034978 7 0 0 0 84.740944
9.3889589 -41.98106 2.4269502 25 0 0 0 71.065247
-8.3886747 -37.226562 2.1585662 23 0 0 0 78.103569
14.638463 -35.439507 2.1699727 13 0 0 0 68.332443
-60.952251 -34.519985 2.2544897 24 0 0 0 91.398384
-22.836168 -30.763422 2.1769392 7 0 0 0 84.740944
3.7067857 -30.306904 2.4925544 10 0 0 0 72.627937
2.1321139 -29.316809 2.400928 12 0 0 0 73.404686
2.8542888 -29.293495 2.4039776 11 0 0 0 73.023827
0.68021613 -28.912474 2.3629627 14 0 0 0 74.190063
58.386864 -27.628307 2.116677 10 0 0 0 56.589512
71.381828 -23.58362 2.4759073 12 0 0 0 54.640121
23.246962 -14.746324 2.2780719 15 0 0 0 58.546432
2.3144796 -13.526054 2.1496582 45 0 0 0 71.843903
4.1810384 -13.897814 2.2726173 85 0 0 0 69.893829
5.3494697 -13.961814 2.3411798 43 0 0 0 68.716331
1.9069357 -13.073107 2.2333016 17 0 0 0 72.233994
2.9835916 -13.436501 2.3261104 65 0 0 0 71.065247
3.2463136 -13.095948 2.1147568 77 0 0 0 70.6716
0.74836242 -12.688638 2.3076687 42 0 0 0 73.603806
1.5420333 -12.761776 2.3335426 13 0 0 0 72.627937
2.2191825 -12.979354 2.3898818 28 0 0 0 71.843903
2.523854 -12.855675 2.2148848 70 0 0 0 71.459671
3.3332093 -12.785026 2.398855 31.5 0 0 0 70.477142
3.5184503 -12.838994 2.0872674 83 0 0 0 70.282677
7.3087521 -12.607277 2.2857971 33 0 0 0 66.176491
-7.0195546 -12.361868 2.2265966 53 0 0 0 82.794846
-6.1058903 -12.094384 2.123126 60 0 0 0 82.010544
5.0979466 -12.397953 2.4349945 24 0 0 0 68.332443
5.6952105 -12.122814 2.4338284 54 0 0 0 67.546593
6.2658796 -12.15254 2.1459942 33.5 0 0 0 66.956955
-7.0293016 -11.700595 2.1394339 40 0 0 0 83.182114
-5.6033511 -11.807371 2.2113824 73.5 0 0 0 81.621155
1.7272094 -11.865961 2.4740341 27 0 0 0 72.233994
5.6315856 -11.98727 2.0790849 34 0 0 0 67.546593
-10.073391 -11.102511 2.3483272 70 0 0 0 86.317665
-6.2332592 -11.293991 2.3422551 129 0 0 0 82.603363
-4.0469723 -11.250134 2.1720736 71 0 0 0 80.062531
7.2136354 -11.150558 2.2517743 9.5 0 0 0 65.39637
8.7624092 -11.281378 2.2444475 83 0 0 0 64.030182
-7.1159177 -10.626749 2.3230128 33 0 0 0 83.969055
-6.6751041 -10.515719 2.2629726 76 0 0 0 83.573746
-2.1378579 -10.619711 2.2368343 80 0 0 0 77.706993
7.3052044 -10.99495 2.4022744 42 0 0 0 65.20517
7.6947818 -10.704416 2.0735452 61.5 0 0 0 64.61409
8.0235586 -10.875433 2.459842 40 0 0 0 64.417297
8.7043629 -10.658047 2.3324852 101.5 0 0 0 63.639
22.19632 -10.516196 2.0427318 11 0 0 0 56.589512
-7.3616052 -10.431643 2.319375 18 0 0 0 84.355034
-6.0149908 -10.007064 2.1230736 42 0 0 0 83.182114
-3.1911318 -10.443433 2.2546709 106 0 0 0 79.281715
-2.6514909 -10.48822 2.2338638 66 0 0 0 78.494019
-2.3745532 -10.4634 2.2157989 62 0 0 0 78.103569
8.1288433 -10.470737 2.4140627 82 0 0 0 64.030182
8.7807579 -10.228549 2.1215627 13 0 0 0 63.249729
9.1268663 -10.117068 2.1446364 14 0 0 0 62.853359
9.699729 -10.232969 2.2186067 69 0 0 0 62.45916
16.898359 -9.597949 2.094418 155 0 0 0 57.766682
-14.273753 -9.0379314 2.2279134 15 0 0 0 90.62233
-14.239003 -8.5342007 2.1900361 107 0 0 0 91.017586
-14.766285 -8.3653545 2.2384868 6 0 0 0 91.398384
9.144351 -8.3286629 2.2598109 741 0 0 0 61.28191
9.6935511 -8.3997679 2.0245447 274 0 0 0 60.897942
-13.677724 -7.3112459 2.0487649 31 0 0 0 91.78508
34.853168 -6.0501223 2.0653939 4 0 0 0 52.303139
15.007892 -4.5633965 2.482522 95 0 0 0 54.252121
24.916868 -4.9587331 2.1264775 182 0 0 0 52.68716
9.6916485 -4.0332513 2.3217087 632.5 0 0 0 55.80574
15.221251 -4.2207289 2.1085141 57 0 0 0 53.864498
19.65226 -4.41956 2.183476 257 0 0 0 53.077858
4.4755058 -3.7101979 2.1621981 749 0 0 0 60.496819
4.5976515 -3.6236489 2.1775875 439 0 0 0 60.111073
9.8751335 -3.8265846 2.3427141 312.5 0 0 0 55.423901
-24.986353 -3.0847464 2.0813234 172 0 0 0 97.635918
-20.726038 -3.0768173 2.2463999 36 0 0 0 97.254471
-15.801359 -3.1474936 2.1305833 257 0 0 0 96.463776
-5.0101223 -3.1714456 2.1134198 310 0 0 0 90.62233
-4.8373961 -3.2640519 2.1660841 358.39999 0 0 0 90.152237
60.86697 4.5123701 2.0783746 15 0 0 0 48.396919
0.3238776 5.8512383 2.1828775 829.5 0 0 0 25.746712
-0.10830527 6.2973647 2.2627161 885.33331 0 0 0 24.575068
0.042572439 6.114408 2.1986337 873.66669 0 0 0 24.97142
-1.240286 7.9434671 2.2811983 921.75 0 0 0 22.327965
-1.506897 8.039175 2.2179928 848.5 0 0 0 21.84296
-5.8160896 8.9861174 2.4812887 623 0 0 0 15.60593
-6.4139051 9.414032 2.2211037 299.5 0 0 0 15.21919
-5.8255787 9.0060873 2.2255237 704 0 0 0 15.60593
-2.6800601 9.7360344 2.2333651 890 0 0 0 20.48185
10.896217 9.9632463 2.1874356 419 0 0 0 37.859081
11.407169 9.9232922 2.2388852 332 0 0 0 38.247566
11.916126 9.8588161 2.2889683 345 0 0 0 38.634727
12.468995 9.8068895 2.1495919 312 0 0 0 39.02832
13.012029 9.7228565 2.1997616 325 0 0 0 39.42009
13.629603 9.6682329 2.2614684 296 0 0 0 39.803741
14.262058 9.5956335 2.3246961 258 0 0 0 40.19492
-3.1858268 10.119896 2.3432126 539.5 0 0 0 19.90197
6.1832366 10.479765 2.2622068 670 0 0 0 33.167728
6.7459893 10.424085 2.2049487 586.33331 0 0 0 33.808666
7.2054677 10.369049 2.1899562 580 0 0 0 34.339447
7.7495384 10.310894 2.2366323 520.5 0 0 0 34.916515
8.3184052 10.25383 2.2886543 457 0 0 0 35.506607
8.7076607 10.206505 2.3249748 449 0 0 0 35.905472
9.1067677 10.154179 2.1936362 424 0 0 0 36.294312
9.756484 10.095236 2.2568853 419.5 0 0 0 36.876289
10.437446 10.029016 2.3253584 416 0 0 0 37.470448
-3.6373229 10.660344 2.2100301 577.5 0 0 0 19.504721
5.7908273 10.702335 2.2619748 590 0 0 0 32.579643
-4.1831985 11.365055 2.224534 385 0 0 0 19.11087
-0.38559106 11.306997 2.2305393 588 0 0 0 24.179319
5.3449359 11.274048 2.2136595 470.33334 0 0 0 31.736971
-7.1866589 11.783577 2.3485546 500 0 0 0 15.99565
-6.6408744 11.842534 2.4830122 612.5 0 0 0 16.574785
-0.68071568 11.639743 2.297122 568 0 0 0 23.788891
4.8329506 11.9112 2.2254899 423.5 0 0 0 30.825741
5.0582399 11.637504 2.1979487 416.5 0 0 0 31.218889
-13.549795 12.155426 2.4009135 111 0 0 0 11.30415
-8.8170099 12.33847 2.3903399 113 0 0 0 14.82604
-7.017818 12.171514 2.2215261 486 0 0 0 16.3785
-6.7304006 12.363454 2.2270043 546 0 0 0 16.77107
-6.2254825 12.125711 2.4943733 696 0 0 0 17.165421
-4.7800941 12.086536 2.2240787 354 0 0 0 18.7227
-1.3400633 12.487186 2.1604176 428 0 0 0 23.01005
-0.99778259 12.041845 2.2300324 471 0 0 0 23.40439
4.3629522 12.478903 2.4505775 381 0 0 0 30.040039
4.6027822 12.19504 2.2556202 412 0 0 0 30.432739
-18.471062 12.908544 2.4050612 115 0 0 0 9.35324
-11.260029 12.900965 2.2679155 161 0 0 0 13.25205
-10.775085 12.970682 2.2352223 148 0 0 0 13.63917
-9.0492945 12.669804 2.070056 93 0 0 0 14.82604
-6.2940607 12.648396 2.2370372 583.5 0 0 0 17.355911
-5.8700824 12.97215 2.2560065 516 0 0 0 17.935169
-5.4936514 12.975477 2.2340028 342 0 0 0 18.339001
-1.7038815 12.913403 2.2386637 335 0 0 0 22.616249
1.4768603 12.828938 2.0684977 248 0 0 0 26.528179
4.20858 12.702744 2.2591994 375.33334 0 0 0 29.774727
-25.307272 13.443924 2.3459592 37 0 0 0 7.4080701
-20.963411 13.183455 2.0374291 109 0 0 0 8.57617
-17.352253 13.43344 2.346662 187 0 0 0 10.13438
-15.595863 13.336765 2.1996973 79 0 0 0 10.92043
-13.374537 13.237631 2.4847543 95 0 0 0 12.08442
-10.366196 13.117468 2.2179494 141 0 0 0 14.03866
-9.7827253 13.018115 2.1623793 120 0 0 0 14.43209
3.7452936 13.27556 2.2119226 268.5 0 0 0 29.064405
-24.826838 13.977515 2.3350756 75 0 0 0 7.7934899
-7.4074821 13.629865 2.0692487 359 0 0 0 16.77107
-3.1712847 13.614246 2.2239542 205 0 0 0 21.0623
-2.8754723 13.88493 2.2564459 153 0 0 0 21.457581
1.9058633 13.559351 2.1919632 148 0 0 0 26.92448
2.2970457 13.844782 2.2465174 176 0 0 0 27.30983
3.3487582 13.784333 2.2725096 319 0 0 0 28.476271
-7.3090415 14.278406 2.1400161 365 0 0 0 17.165421
-6.9707103 14.482115 2.1455026 348 0 0 0 17.5464
2.7679727 14.444568 2.3533602 247 0 0 0 27.702471
3.0700514 14.137553 2.3162227 334 0 0 0 28.090929
-35.663433 14.706798 2.1783602 21 0 0 0 5.8475599
-6.6126089 14.646116 2.146385 228 0 0 0 17.935169
-6.2653909 14.837004 2.1523278 299 0 0 0 18.339001
-39.239883 15.072642 2.3674386 19 0 0 0 5.4604602
68.987343 19.134449 2.4654763 13 0 0 0 45.27071
-9.075222 -52.123894 2.9784162 12 0 0 0 77.320015
12.654357 -50.674786 2.9393559 5 0 0 0 70.6716
13.409127 -48.596615 2.8386488 11 0 0 0 70.282677
1.0676224 -44.910931 2.5329218 19 0 0 0 74.190063
-15.062945 -42.023315 2.5218425 8 0 0 0 80.062531
-22.759611 -37.934444 2.5051713 9 0 0 0 83.182114
-9.1932116 -33.140255 2.8053603 6 0 0 0 78.888527
-6.5997639 -33.058998 2.7495992 9 0 0 0 77.706993
-0.83419216 -32.840733 2.6794672 17 0 0 0 74.97921
5.3364272 -30.939205 2.5621781 11 0 0 0 71.843903
-19.263418 -30.397383 2.9405262 15 0 0 0 83.573746
4.4830546 -30.435663 2.5112178 10 0 0 0 72.233994
-17.10128 -28.505756 2.7181787 7 0 0 0 83.182114
0.65829343 -28.043732 2.9741399 12 0 0 0 74.190063
-18.775124 -26.638931 2.6674492 6 0 0 0 84.355034
-10.689038 -13.681741 2.7139587 34 0 0 0 85.133263
22.492231 -13.50687 2.8123627 23 0 0 0 58.153049
5.0131159 -13.091569 2.5443635 66 0 0 0 68.716331
1.5548087 -12.867487 2.6712437 71 0 0 0 72.627937
7.158011 -12.705797 2.6482148 51 0 0 0 66.377441
-3.4096556 -12.236891 2.617589 26 0 0 0 78.888527
1.1936705 -12.442348 2.5771613 9 0 0 0 73.023827
7.2651234 -12.188355 2.5782144 102 0 0 0 65.97554
21.920155 -11.054745 2.6379054 48 0 0 0 56.986832
7.8861513 -10.691148 2.7458861 70 0 0 0 64.417297
7.9311824 -10.215643 2.9917834 50 0 0 0 64.030182
8.1227198 -10.463813 2.7387259 63 0 0 0 64.030182
8.6252851 -10.050163 2.7396145 100 0 0 0 63.249729
9.3197155 -10.330698 2.5340168 41 0 0 0 62.853359
16.420088 -10.423348 2.5732048 71 0 0 0 58.546432
8.3963003 -9.7821646 2.9837456 24 0 0 0 63.249729
16.598951 -9.9729538 2.5632184 102 0 0 0 58.153049
78.286537 -9.6439638 2.6353197 20 0 0 0 51.518433
6.7961669 -9.2191525 2.6533349 97 0 0 0 64.417297
-14.2724 -8.7933798 2.625607 29 0 0 0 90.819962
6.9211054 -8.9226913 2.8948696 116 0 0 0 64.030182
-13.314341 -7.9796457 2.8172433 19 0 0 0 91.017586
-10.122026 -7.5052309 2.9093127 23 0 0 0 89.438568
-9.8231592 -7.6634388 2.8766053 48 0 0 0 89.055405
44.102932 -6.5415139 2.5959604 42 0 0 0 51.916142
14.949728 -4.5466251 2.8611262 117 0 0 0 54.252121
24.915592 -4.9598041 2.7448325 122 0 0 0 52.68716
9.6632223 -4.0216618 2.8322635 644 0 0 0 55.80574
19.651325 -4.4168105 2.6799502 148 0 0 0 53.077858
9.8391685 -3.8129005 2.8556042 222 0 0 0 55.423901
-30.43507 -3.0012555 2.5212383 45 0 0 0 98.022842
-24.933186 -3.0782037 2.6869359 178 0 0 0 97.635918
-15.950663 -3.1772718 2.7539802 246.5 0 0 0 96.463776
7.1428752 -1.4277112 2.8034396 110 0 0 0 52.68716
11.394085 -0.55670929 2.9535985 116 0 0 0 50.352249
-1.0287201 7.4131327 2.8606508 681 0 0 0 22.616249
-0.73195052 7.1835079 2.7627976 677.5 0 0 0 23.20722
-0.46313256 7.1490707 2.7428975 510 0 0 0 23.788891
-1.2162381 7.7502041 2.8033082 733.5 0 0 0 22.327965
-0.86746532 7.6530552 2.7561271 480 0 0 0 23.01005
-1.5737209 8.1037359 2.7460861 777.25 0 0 0 21.746616
-5.8238063 8.9966965 2.7457433 546 0 0 0 15.60593
-2.0787358 8.739872 2.8734615 598.5 0 0 0 21.0623
-1.8669655 8.8027821 2.7687702 518 0 0 0 21.457581
-6.3623114 9.3302498 2.7529721 245.5 0 0 0 15.21919
-2.4406486 9.2760992 2.8277192 559 0 0 0 20.672859
-2.7117445 9.6877556 2.6761777 649.66669 0 0 0 20.41818
10.903016 9.9690619 2.739557 317 0 0 0 37.859081
11.412953 9.9278784 2.8038936 311 0 0 0 38.247566
11.918207 9.8600645 2.8660338 266 0 0 0 38.634727
12.453173 9.7940121 2.737448 273 0 0 0 39.02832
13.032052 9.7373409 2.607183 223 0 0 0 39.42009
13.628479 9.6670198 2.6763294 227 0 0 0 39.803741
14.255428 9.5907383 2.7503989 194 0 0 0 40.19492
-3.1818345 10.098959 2.8580639 505 0 0 0 19.90197
6.1859388 10.486698 2.7136805 605 0 0 0 33.167728
6.6854634 10.427063 2.7607377 527.25 0 0 0 33.744125
7.206038 10.371984 2.8144116 443 0 0 0 34.339447
7.7509131 10.31283 2.7160556 420 0 0 0 34.916515
8.3144417 10.248969 2.7776461 445 0 0 0 35.506607
8.7020445 10.199903 2.821372 388 0 0 0 35.905472
9.1071224 10.154432 2.7011724 405 0 0 0 36.294312
9.7511539 10.08956 2.7777767 409.75 0 0 0 36.876286
10.425212 10.017157 2.6820009 383 0 0 0 37.470448
-6.6637554 10.903982 2.9602289 629 0 0 0 15.99565
-3.6387796 10.653845 2.7589092 624.5 0 0 0 19.504721
5.7897182 10.702688 2.7117672 503.25 0 0 0 32.579643
-6.7216129 11.319469 2.7292931 630 0 0 0 16.187075
-6.2616529 11.146254 2.9638722 629 0 0 0 16.574785
-5.8637958 11.399791 2.9737535 654 0 0 0 17.165421
-4.167345 11.314194 2.6573858 380.5 0 0 0 19.11087
-0.39261308 11.47327 2.684854 305 0 0 0 24.179319
5.3746967 11.221449 2.7709117 405.75 0 0 0 31.802259
-6.1728749 11.660994 2.73803 603.5 0 0 0 16.968246
-5.6927452 11.775457 2.8732169 663.5 0 0 0 17.5464
-0.84064364 11.817968 2.7687256 468.5 0 0 0 23.596642
4.8302059 11.905572 2.7007976 361 0 0 0 30.825741
5.0526013 11.628649 2.8218322 403 0 0 0 31.218889
-5.9498806 12.323674 2.505497 601 0 0 0 17.5464
-5.3676486 12.241943 2.777566 634.5 0 0 0 18.137085
-4.7737947 12.066549 2.6987662 353 0 0 0 18.7227
-1.3391135 12.453323 2.7703414 417.5 0 0 0 23.01005
-0.99732804 12.027508 2.5240335 481 0 0 0 23.40439
4.3638711 12.482397 2.7773042 416 0 0 0 30.040039
4.5983062 12.184597 2.7365301 406 0 0 0 30.432739
-18.457756 12.891951 2.9538481 140 0 0 0 9.35324
-13.420919 12.644626 2.8874655 116 0 0 0 11.69692
-9.1448517 12.800775 2.8663943 97 0 0 0 14.82604
-5.6786065 12.538787 2.5212388 515 0 0 0 17.935169
-5.391942 12.728003 2.5330281 556 0 0 0 18.339001
-1.7049943 12.913819 2.7199121 403 0 0 0 22.616249
4.1246505 12.797338 2.8227136 397 0 0 0 29.642071
-20.947227 13.170624 2.6340256 118 0 0 0 8.57617
-19.616037 13.010015 2.5089769 132 0 0 0 8.9733896
-17.778072 13.07382 2.8977392 197 0 0 0 9.7496901
-17.362051 13.433774 2.884748 181 0 0 0 10.13438
-13.370317 13.231112 2.9469717 140 0 0 0 12.08442
3.742053 13.266981 2.7221215 318.75 0 0 0 29.064405
-46.223797 13.962288 2.7052367 33 0 0 0 4.2939601
-16.945177 13.786285 2.872756 177 0 0 0 10.52643
3.3428206 13.763222 2.7946582 341.5 0 0 0 28.476271
-32.195927 14.194066 2.8653169 24 0 0 0 6.2362299
-28.358269 14.192515 2.5904961 84 0 0 0 7.0142798
-16.503403 14.110968 2.8576238 201 0 0 0 10.92043
-2.9920213 14.464125 2.7141867 237 0 0 0 21.457581
2.7684329 14.449433 2.7186894 332 0 0 0 27.702471
3.0659285 14.12126 2.6717033 299 0 0 0 28.090929
-31.81111 14.964598 2.8659198 40 0 0 0 6.6214499
-15.668444 14.782498 2.839056 200 0 0 0 11.69692
-46.016453 15.14128 2.7156479 22 0 0 0 4.67418
-42.937485 15.300952 2.5608706 26 0 0 0 5.0641799
-14.868953 15.471044 2.8320534 159 0 0 0 12.46852
-26.748186 15.93958 2.5522478 58 0 0 0 8.1824198
-14.456804 15.798326 2.8283126 161 0 0 0 12.86849
34.447285 26.959908 2.6202059 34 0 0 0 39.02832
35.899025 26.698202 2.677906 28 0 0 0 39.42009
31.597708 27.340513 2.5063071 25 0 0 0 38.247566
32.896061 27.07753 2.5540683 35 0 0 0 38.634727
64.418579 38.681698 2.6213479 11 0 0 0 40.98296
62.742172 41.999645 2.6384025 97 0 0 0 40.19492
-18.050781 -54.556427 3.2355061 9 0 0 0 79.670631
-16.561512 -54.502724 3.206857 6 0 0 0 79.281715
-15.234178 -54.94503 3.2092159 10 0 0 0 78.888527
-28.930147 -54.079285 3.4575324 9 0 0 0 82.411873
-22.492104 -54.23748 3.3076816 8 0 0 0 80.842896
-21.016491 -54.413902 3.2853558 12 0 0 0 80.448509
-13.668704 -54.451328 3.1597664 9 0 0 0 78.494019
16.616964 -37.566811 3.3457153 5 0 0 0 67.944786
-8.2704897 -36.728493 3.0669987 14 0 0 0 78.103569
17.379488 -36.82135 3.3173864 7 0 0 0 67.546593
-18.227566 -36.179562 3.3030152 6 0 0 0 82.010544
-1.5111469 -30.186098 3.2018049 18 0 0 0 75.366997
2.9511652 -30.2824 3.2228246 16 0 0 0 73.023827
3.6070421 -29.50412 3.1492894 10 0 0 0 72.627937
-0.029445346 -29.269539 3.1018481 14 0 0 0 74.582176
2.1274469 -29.261471 3.1089013 25 0 0 0 73.404686
-0.7292279 -28.527052 3.0249724 12 0 0 0 74.97921
1.3751101 -28.613338 3.0364099 11 0 0 0 73.802925
-17.630062 -26.363289 3.3659694 7 0 0 0 83.969055
-18.240879 -25.880009 3.361042 7 0 0 0 84.355034
7.7981043 -10.570449 3.3602033 58 0 0 0 64.417297
8.317009 -10.185275 3.2043734 135 0 0 0 63.639
7.1094761 -9.6431189 3.3661864 57 0 0 0 64.417297
7.8746352 -9.1793032 3.400028 59 0 0 0 63.249729
-38.330151 -8.6115599 3.2261639 10 0 0 0 96.077049
-13.998828 -8.8637829 3.0047436 21 0 0 0 90.62233
8.1021404 -8.9877234 3.4025893 30 0 0 0 62.853359
8.6003809 -8.2302475 3.0540292 14 0 0 0 61.668392
9.0614367 -8.2529573 3.1440499 35 0 0 0 61.28191
30.163614 -8.354454 3.3660638 8 0 0 0 53.864498
-31.3874 -7.8653741 3.4485712 15 0 0 0 95.690727
29.946032 -7.5067267 3.3227589 58 0 0 0 53.475952
-8.9303856 -6.9685497 3.45455 63 0 0 0 89.055405
7.880815 -6.8388538 3.4596109 98 0 0 0 60.897942
8.0674171 -6.0162368 3.0910149 294 0 0 0 59.722248
8.5305824 -6.0392637 3.209389 113 0 0 0 59.327702
11.551402 -6.1984138 3.3687732 66 0 0 0 57.36974
25.300388 -6.3408074 3.4563482 25 0 0 0 53.475952
7.8198638 -5.5416312 3.1846111 36 0 0 0 59.327702
8.2926979 -5.5736604 3.3188899 394 0 0 0 58.942619
12.369417 -5.5024576 3.4803157 35 0 0 0 56.195858
38.017456 -5.6350217 3.2014418 27 0 0 0 51.916142
28.993355 -5.0321321 3.174895 69 0 0 0 52.303139
14.819227 -4.5079141 3.2189372 187 0 0 0 54.252121
24.899839 -4.9534879 3.3687942 94 0 0 0 52.68716
9.6376314 -4.01125 3.342814 488.5 0 0 0 55.80574
19.569221 -4.399477 3.166678 129 0 0 0 53.077858
-16.141808 -3.6292136 3.4115939 250 0 0 0 96.077049
9.9330416 -3.8479807 3.278656 111 0 0 0 55.423901
11.074887 -3.8751619 3.1226637 118.66666 0 0 0 54.90144
12.603261 -3.8351488 3.3927319 107 0 0 0 54.252121
29.498075 -3.63627 3.210201 40 0 0 0 51.518433
-24.892006 -3.0775492 3.2991381 124 0 0 0 97.635918
-15.89493 -3.1662025 3.3429615 173 0 0 0 96.463776
7.2001362 -3.4268744 3.0554287 261 0 0 0 56.589512
9.9577608 -3.3030751 3.231523 418 0 0 0 54.640121
9.3776903 -2.7333338 3.3754444 63 0 0 0 54.058311
9.6923828 -2.6928318 3.1024153 112 0 0 0 53.864498
10.456828 -2.6295412 3.0563335 126 0 0 0 53.475952
10.031245 -2.2625406 3.4279776 314 0 0 0 53.077858
10.702661 -2.2726545 3.2385893 317 0 0 0 52.882507
16.733604 -2.0650113 3.2983756 125 0 0 0 51.518433
30.627291 -2.2536783 3.3196785 10 0 0 0 50.73494
-12.831099 -1.5887203 3.3073945 27 0 0 0 97.635918
8.9625387 -1.5594007 3.2646375 201 0 0 0 52.303139
10.653791 -1.7198813 3.0624709 150 0 0 0 52.109642
12.666721 -1.721729 3.3005798 78.5 0 0 0 51.717285
16.634851 -1.6383578 3.4800782 17 0 0 0 51.12534
18.521381 -1.8228176 3.4100845 92 0 0 0 51.12534
8.3627815 -1.138762 3.1386981 213.5 0 0 0 51.717285
10.224228 -1.0091366 3.4296658 58 0 0 0 51.12534
10.723083 -1.3244634 3.1981406 83.5 0 0 0 51.518433
-13.237615 -0.98288321 3.3953831 71 0 0 0 98.423615
-11.297071 -0.70315582 3.4593711 140 0 0 0 98.614632
10.534711 -0.77647787 3.0016193 73 0 0 0 50.73494
-10.735579 -0.27067813 3.2838902 62 0 0 0 99.195213
-10.413635 -0.0050851516 3.4430082 65 0 0 0 99.583824
-9.831789 -0.24963345 3.494025 267 0 0 0 99.195213
12.57101 -0.30352128 3.2517669 129 0 0 0 49.951221
10.90999 0.1420119 3.3720279 90 0 0 0 49.37207
-1.6887306 8.2394724 3.1391275 662 0 0 0 21.586039
-5.8109541 8.9748831 3.0032268 359 0 0 0 15.60593
-2.0712729 8.6914625 3.2962787 557.5 0 0 0 21.0623
-6.3119364 9.250124 3.2800589 255 0 0 0 15.21919
-2.4001508 9.1072197 3.2416277 594.5 0 0 0 20.672859
14.861569 9.472971 3.2576318 24 0 0 0 40.587761
-2.7630382 9.5543737 3.1766806 523 0 0 0 20.29084
10.89096 9.9578905 3.1011808 314 0 0 0 37.859081
11.37199 9.8922396 3.1664019 329 0 0 0 38.247566
11.861567 9.8132334 3.2330015 246 0 0 0 38.634727
13.022164 9.72962 3.0091949 238 0 0 0 39.42009
13.62661 9.6652822 3.0911083 209 0 0 0 39.803741
14.246218 9.5841188 3.1752958 118 0 0 0 40.19492
-6.1772766 10.378157 3.3931623 630.5 0 0 0 16.187075
-3.1747942 10.068044 3.3689725 418 0 0 0 19.90197
6.3244123 10.425879 3.1686563 500.5 0 0 0 33.359116
6.8159943 10.351102 3.2201629 322 0 0 0 33.937752
7.7470474 10.311537 3.0323586 339.5 0 0 0 34.916515
8.3098717 10.247019 3.1010067 317 0 0 0 35.506607
8.6808186 10.178803 3.1440241 354 0 0 0 35.905472
9.2702885 10.084226 3.2186489 202.5 0 0 0 36.487553
10.425098 10.01685 3.0391645 328 0 0 0 37.470448
-6.3472266 10.670593 3.1808295 643 0 0 0 16.187075
-5.7668519 10.76051 3.3299987 643.33331 0 0 0 16.902521
-5.3029652 10.946142 3.4220629 724 0 0 0 17.5464
-3.6347995 10.634038 3.307713 488.5 0 0 0 19.504721
5.7582674 10.647728 3.1448898 481.5 0 0 0 32.579643
7.9035678 10.792279 3.4728518 176 0 0 0 34.721912
10.428445 10.52841 3.4782617 158 0 0 0 37.071781
-5.716145 11.10537 3.2031848 780 0 0 0 17.165421
-5.2234402 11.250572 3.284169 671.33331 0 0 0 17.80558
-4.6691322 11.36692 3.4610312 636 0 0 0 18.530849
-4.1578922 11.280002 3.2392879 299.5 0 0 0 19.11087
5.3482127 11.17035 3.2154994 300 0 0 0 31.802261
-39.134609 11.80443 3.3086092 46 0 0 0 4.2939601
-5.2128301 11.873106 3.0113535 619 0 0 0 18.137085
-4.8010626 11.697783 3.2477136 612 0 0 0 18.530849
4.8276811 11.906014 3.0159953 296 0 0 0 30.825741
-4.7698541 12.047678 3.0109005 352 0 0 0 18.7227
-0.85114753 12.012168 3.1091578 217.5 0 0 0 23.596642
4.3569803 12.470881 3.0986772 276 0 0 0 30.040039
4.5985503 12.192357 3.057802 282 0 0 0 30.432739
5.0190926 12.369886 3.4609444 263 0 0 0 30.825741
-38.223885 12.559788 3.258688 41 0 0 0 4.67418
-9.1594124 12.819185 3.2564969 94 0 0 0 14.82604
-1.7060061 12.89793 3.0347228 321 0 0 0 22.616249
4.0981226 12.725392 3.1347857 452 0 0 0 29.642071
4.7645593 12.624589 3.4972582 357 0 0 0 30.432739
-37.35899 13.296684 3.2155638 44 0 0 0 5.0641799
-25.322292 13.44904 3.0407729 50 0 0 0 7.4080701
-20.958382 13.169956 3.2408721 71 0 0 0 8.57617
-19.627363 13.01012 3.0862861 120 0 0 0 8.9733896
-17.7826 13.074711 3.4418495 195 0 0 0 9.7496901
-17.359022 13.428933 3.4245872 199 0 0 0 10.13438
3.8514338 13.047387 3.1884599 410 0 0 0 29.25572
-36.440266 13.98309 3.1688013 45 0 0 0 5.4604602
-24.814287 13.9675 3.0226059 101 0 0 0 7.7934899
-16.939449 13.779084 3.4094357 175 0 0 0 10.52643
-28.369257 14.194865 3.3589725 90 0 0 0 7.0142798
-16.515368 14.118733 3.3947115 220 0 0 0 10.92043
-16.106802 14.46582 3.3845682 186 0 0 0 11.30415
-2.9886186 14.442699 3.0725329 288 0 0 0 21.457581
2.7730432 14.475229 3.0865371 149 0 0 0 27.702471
3.2678645 14.203628 3.2344437 222.5 0 0 0 28.2836
-35.692123 14.70758 3.137764 30 0 0 0 5.8475599
2.4531021 14.753668 3.1307173 60 0 0 0 27.30983
3.1731544 14.6165 3.49927 237 0 0 0 28.090929
-14.857337 15.456183 3.3579602 134 0 0 0 12.46852
-26.678799 15.894832 3.2970984 26 0 0 0 8.1824198
-14.459562 15.798633 3.3564653 149 0 0 0 12.86849
-14.045491 16.121183 3.3529572 125 0 0 0 13.25205
-13.637416 16.448996 3.3526571 123 0 0 0 13.63917
-13.230753 16.778202 3.3546386 113 0 0 0 14.03866
-12.798405 17.073593 3.3519788 176 0 0 0 14.43209
2.0978131 17.895395 3.3185873 215 0 0 0 26.528179
2.7612555 17.835411 3.3257751 194.5 0 0 0 27.117155
43.152184 30.463486 3.1533735 21 0 0 0 39.803741
-33.896854 -53.493149 3.572499 12 0 0 0 83.573746
-11.182617 -44.559036 3.7354164 20 0 0 0 78.494019
-7.256247 -36.359364 3.9208496 12 0 0 0 77.706993
-9.6688938 -34.858772 3.8273239 9 0 0 0 78.888527
-10.885673 -32.887424 3.667372 18 0 0 0 79.670631
-5.7032166 -32.724659 3.516134 7 0 0 0 77.320015
-7.3081307 -32.438843 3.5201778 14 0 0 0 78.103569
-9.6481962 -31.733538 3.5123434 19 0 0 0 79.281715
1.4596131 -30.23473 3.9506752 11 0 0 0 73.802925
-0.024830146 -29.347219 3.8313956 14 0 0 0 74.582176
0.68692893 -29.021982 3.7903199 17 0 0 0 74.190063
-1.4462594 -28.956669 3.7854342 9 0 0 0 75.366997
-0.73039663 -28.760572 3.7566276 12 0 0 0 74.97921
59.884548 -19.791225 3.6284482 12 0 0 0 54.640121
15.592965 -11.597666 3.7699282 24.5 0 0 0 59.722248
15.769901 -11.137373 3.5099485 98 0 0 0 59.327702
15.395473 -10.874889 3.8924041 17 0 0 0 59.327702
7.9467888 -10.23605 3.7983348 97 0 0 0 64.030182
8.2076302 -10.052047 3.8038678 43.5 0 0 0 63.639
15.439615 -10.347016 3.8397667 21 0 0 0 58.942619
7.1439075 -9.6890545 3.8280854 49 0 0 0 64.417297
7.7651434 -9.0500164 3.646718 24 0 0 0 63.249729
-14.48903 -8.6877441 3.8915424 19 0 0 0 91.017586
6.3280101 -8.5857162 3.7898889 52 0 0 0 64.417297
15.083478 -8.0844278 3.962857 21 0 0 0 57.36974
-10.007854 -7.8077636 3.5560272 28 0 0 0 89.055405
21.829077 -7.2216177 3.6174202 17 0 0 0 54.640121
10.495127 -6.6736255 3.8123817 28 0 0 0 58.546432
10.991747 -6.6142349 3.9318047 60 0 0 0 58.153049
12.422026 -6.6643591 3.9703989 39 0 0 0 57.36974
20.155476 -6.6704154 3.8702424 43 0 0 0 54.640121
8.2064161 -6.1188965 3.9007537 27 0 0 0 59.722248
9.629096 -6.1285853 3.7857349 109 0 0 0 58.546432
23.240538 -6.4383912 3.7953515 11 0 0 0 53.864498
24.31778 -6.0963802 3.9455903 13 0 0 0 53.475952
10.274089 -5.6800423 3.8951039 98.5 0 0 0 57.568211
11.31952 -5.7202787 3.7336531 86.5 0 0 0 56.986832
11.790454 -5.5982966 3.6814084 124 0 0 0 56.589512
16.313663 -5.8524694 3.594039 14 0 0 0 55.032101
17.026655 -5.6385493 3.7189379 19 0 0 0 54.640121
8.7735891 -5.2852478 3.9067662 33 0 0 0 58.153049
9.0135775 -5.4283824 3.7532871 87 0 0 0 58.153049
10.592046 -5.0330644 3.8930466 114 0 0 0 56.589512
11.637426 -5.1789055 3.5948164 89 0 0 0 56.195858
14.484032 -5.1961403 3.573755 40 0 0 0 55.032101
34.513554 -5.1180553 3.7591124 29 0 0 0 51.916142
8.4781981 -4.8280883 3.7245884 233 0 0 0 57.766682
8.604229 -4.6228347 3.7296214 522 0 0 0 57.36974
10.313379 -4.8984237 3.5080245 67 0 0 0 56.589512
10.662215 -4.7481389 3.8758461 139 0 0 0 56.195858
14.80649 -4.9035025 3.6228123 55 0 0 0 54.640121
24.229519 -4.8217044 3.8920794 56 0 0 0 52.68716
10.593812 -4.1054058 3.7759919 172 0 0 0 55.423901
14.849981 -4.3158379 3.7857144 157 0 0 0 54.058311
15.729641 -4.3618054 3.7918103 72 0 0 0 53.864498
16.52079 -4.1475291 3.5378413 24 0 0 0 53.475952
19.470531 -4.3784142 3.6463339 226 0 0 0 53.077858
24.653347 -4.2782621 3.9432161 40 0 0 0 52.303139
28.837692 -4.273808 3.8660498 40 0 0 0 51.916142
-21.043776 -3.6576278 3.8705575 176 0 0 0 96.859283
9.6685152 -3.882652 3.7232604 285.5 0 0 0 55.614822
10.375595 -3.7263987 3.9378781 341 0 0 0 55.032101
10.738146 -3.8595853 3.7930787 113 0 0 0 55.032101
15.05026 -3.7774909 3.608022 43 0 0 0 53.475952
19.128393 -3.8096123 3.5660236 33 0 0 0 52.68716
-24.723747 -3.0567684 3.8933036 61 0 0 0 97.635918
-15.702343 -3.1307018 3.6945245 139 0 0 0 96.463776
9.422411 -3.2560308 3.8119235 217.5 0 0 0 54.836113
10.244164 -3.2612288 3.7084029 252 0 0 0 54.446121
16.041046 -3.1950765 3.803154 39 0 0 0 52.68716
18.499899 -3.2143869 3.8995383 60 0 0 0 52.303139
-16.888678 -2.5102127 3.5207267 62 0 0 0 97.254471
-16.396219 -2.8527529 3.8392458 226 0 0 0 96.859283
-11.100266 -2.7852716 3.7776003 87 0 0 0 95.690727
-10.742381 -2.6994374 3.9282868 59 0 0 0 95.690727
9.674015 -2.946413 3.8673372 182 0 0 0 54.252121
10.138322 -2.818573 3.5046694 86 0 0 0 53.864498
11.557596 -2.9035232 3.667207 141 0 0 0 53.475952
16.251257 -2.8225868 3.8362002 82 0 0 0 52.303139
