# .PCD v0.7 - Point Cloud Data file format
VERSION 0.7
FIELDS x y z intensity normal_x normal_y normal_z curvature
SIZE 4 4 4 4 4 4 4 4
TYPE F F F F F F F F
COUNT 1 1 1 1 1 1 1 1
WIDTH 933
HEIGHT 1
VIEWPOINT 0 0 0 1 0 0 0
POINTS 933
DATA ascii
-10.793182 4.4217944 -0.11430162 61 0 0 0 5.84655
-8.0574484 4.4992552 -0.082769409 195 0 0 0 7.8007398
-7.5341477 4.4471078 -0.076671623 231 0 0 0 8.1966896
-7.0767379 4.4090772 -0.071469486 292 0 0 0 8.5826302
-6.6499825 4.3675437 -0.066657744 325 0 0 0 8.9690895
-6.2705212 4.3366647 -0.062498711 418 0 0 0 9.35783
-5.7377596 4.2780128 -0.056694582 359 0 0 0 9.9483147
-5.2499328 4.2172122 -0.051460292 357 0 0 0 10.53208
-4.8426075 4.1826887 -0.047380231 329 0 0 0 11.11286
-4.2276864 4.1144261 -0.041374471 391 0 0 0 12.08735
-3.7013023 4.0627403 -0.036617488 423.5 0 0 0 13.067675
-3.2450526 4.0188951 -0.03284274 432 0 0 0 14.043488
-1.7060108 4.1700373 -0.02832067 168.8 0 0 0 18.735617
-1.2299114 4.2468395 -0.091064796 107.4 0 0 0 20.456961
-0.74443471 4.2165985 -0.19236918 65 0 0 0 22.169138
-0.2969285 4.220293 -0.28793293 72.900002 0 0 0 23.80982
0.24888121 4.2531958 -0.39264533 31.444445 0 0 0 25.851921
0.70938301 4.4622922 -0.46184045 54.200001 0 0 0 27.404026
1.1479768 4.4616861 -0.49678952 76 0 0 0 28.889549
-16.239511 4.8900237 -0.18310726 75 0 0 0 4.2975798
-14.377688 4.7101555 -0.15910158 104 0 0 0 4.67976
-12.767323 4.5256572 -0.13884714 143 0 0 0 5.0729098
-10.390222 4.5536346 -0.11002799 59 0 0 0 6.2339001
-9.8698769 4.6128731 -0.10415649 106 0 0 0 6.6343999
-9.2360878 4.5905433 -0.096662685 148 0 0 0 7.01649
-8.6272087 4.5494943 -0.089468606 216 0 0 0 7.4060898
-1.1375233 4.6426978 -0.034684163 125 0 0 0 21.080107
-0.69752985 4.7223125 -0.073633984 90 0 0 0 22.570158
-0.26611578 4.8116746 -0.097734705 128.375 0 0 0 24.006311
0.20109676 4.6735072 -0.26759404 98 0 0 0 25.569313
0.76211584 4.7268991 -0.36592084 116.75 0 0 0 27.425034
1.1454895 4.9143891 -0.42147386 214 0 0 0 28.495661
-18.648678 5.128099 -0.21436396 47 0 0 0 3.90661
0.23297432 5.1953835 -0.11021343 190.125 0 0 0 25.569311
0.77926975 5.1979299 -0.23400904 172 0 0 0 27.21579
1.2794714 5.2694831 -0.34255978 232.33333 0 0 0 28.627478
1.7349398 5.3211808 -0.41924557 170.39999 0 0 0 29.82543
2.175159 5.2640848 -0.48502702 122 0 0 0 31.041351
16.309298 5.4021602 -0.29286551 192 0 0 0 44.529259
0.75317091 5.6485691 -0.056917597 351 0 0 0 26.935913
1.2038827 5.7583733 -0.13194858 277 0 0 0 28.108265
1.6998506 5.7163148 -0.25930095 392.66666 0 0 0 29.411337
2.2397952 5.8004069 -0.37715107 518.5 0 0 0 30.647165
15.396535 5.9574604 -0.27942607 238 0 0 0 43.756081
16.325682 5.8574305 -0.29561618 193 0 0 0 44.139679
1.3856138 6.187768 -0.069601372 324.5 0 0 0 28.300266
1.8146825 6.2696381 -0.15257901 358.5 0 0 0 29.276459
2.160414 6.2663107 -0.24008836 483 0 0 0 30.062559
2.7896605 6.260488 -0.42065334 366.5 0 0 0 31.432476
3.5796554 6.4561334 -0.45844099 153 0 0 0 32.794918
10.733676 6.4696488 -0.20161995 446 0 0 0 41.013081
11.266473 6.4157734 -0.21017204 440 0 0 0 41.403969
11.832019 6.355082 -0.21934558 382 0 0 0 41.802193
12.437779 6.2888045 -0.22929808 314 0 0 0 42.192101
13.107753 6.2251282 -0.24051583 279 0 0 0 42.582722
13.802843 6.1415424 -0.25217566 295 0 0 0 42.969193
14.567044 6.0546088 -0.26517472 244 0 0 0 43.363792
1.9283056 6.6319327 -0.080702364 314 0 0 0 29.28344
2.3017535 6.6697969 -0.16991182 357.5 0 0 0 30.058121
2.6993818 6.7105999 -0.26663539 304 0 0 0 30.843
3.3245602 6.5590296 -0.45532709 188 0 0 0 32.214378
3.7431362 6.7498341 -0.38448602 227 0 0 0 32.801262
8.8178892 6.7572455 -0.3093282 638.25 0 0 0 39.25663
9.3456211 6.6259446 -0.32082728 519 0 0 0 39.844231
9.7885456 6.5814648 -0.33173844 535.5 0 0 0 40.242802
10.260534 6.5354433 -0.34360644 449.5 0 0 0 40.628231
2.4351392 7.0352831 -0.091216318 346 0 0 0 30.062559
2.7206779 7.2641902 -0.0972706 407 0 0 0 30.45133
3.2518103 7.0385451 -0.28995475 216.33333 0 0 0 31.628349
4.0285287 7.2465816 -0.3149136 427 0 0 0 32.794918
8.2635536 7.3658075 -0.30645064 702.75 0 0 0 38.082199
8.5277834 7.0521498 -0.30722404 766.5 0 0 0 38.679314
3.2214704 7.6960878 -0.1084789 295 0 0 0 31.041351
4.505898 7.6438265 -0.34018889 268 0 0 0 33.193859
7.9090638 7.7837906 -0.30608097 638.5 0 0 0 37.307335
3.7505236 8.0972557 -0.11970826 259 0 0 0 31.62525
4.1292477 8.1092815 -0.12416479 133 0 0 0 32.214378
4.6037712 8.2629223 -0.13178422 305 0 0 0 32.794918
5.0526538 8.0968266 -0.3692902 307 0 0 0 33.578339
7.4693413 8.3179865 -0.30687004 672.5 0 0 0 36.326366
7.6451674 8.1024132 -0.30639362 653.5 0 0 0 36.71505
5.1282005 8.6830244 -0.14366303 276 0 0 0 33.193859
5.6852989 8.618619 -0.40313181 180 0 0 0 33.964981
6.1288271 8.5790844 -0.4138144 161.5 0 0 0 34.559242
6.9151087 8.9526234 -0.30869284 594.5 0 0 0 35.148258
7.1702089 8.6052713 -0.30600125 554.5 0 0 0 35.738182
5.7738075 9.2366076 -0.15884991 190 0 0 0 33.578339
6.641448 9.2907391 -0.17073813 558.5 0 0 0 34.559242
6.3583202 9.6270332 -0.17127688 443 0 0 0 33.964981
37.387913 -62.419548 0.40046206 18 0 0 0 66.01638
29.787596 -59.226761 0.36911193 12 0 0 0 67.201401
26.100967 -58.936783 0.36079922 11 0 0 0 67.982971
27.859587 -58.955563 0.36408541 17 0 0 0 67.593933
31.02911 -58.098751 0.36650366 10 0 0 0 66.805672
32.865955 -58.061867 0.37042156 10 0 0 0 66.4151
35.39241 -55.933216 0.36713901 13 0 0 0 65.629478
37.912601 -53.871601 0.36514071 12 0 0 0 64.844513
20.697718 -50.030624 0.30904701 6 0 0 0 68.374123
17.935749 -46.564171 0.28797805 11 0 0 0 68.759995
-24.828577 -46.446339 0.35868192 8 0 0 0 82.451614
-15.345882 -46.425777 0.32012457 15 0 0 0 79.708282
-11.616055 -46.32906 0.30708247 13 0 0 0 78.533287
-25.986498 -45.869656 0.3613295 12 0 0 0 82.841721
-20.246359 -45.662247 0.33530325 15 0 0 0 81.278954
-18.953129 -45.741055 0.33041051 14 0 0 0 80.878304
-17.70282 -45.873688 0.3261697 20 0 0 0 80.49131
-16.380058 -45.756104 0.32059985 30 0 0 0 80.10231
-5.6793289 -45.926735 0.28853947 22 0 0 0 76.58017
-4.5160131 -45.694351 0.28463396 21 0 0 0 76.18792
-3.3875313 -45.704987 0.28228846 22 0 0 0 75.802917
-0.017900091 -45.843334 0.27685729 21 0 0 0 74.624702
1.10022 -45.576275 0.27441049 28 0 0 0 74.234795
-28.803707 -45.486691 0.37294248 10 0 0 0 83.624207
-22.710794 -45.110676 0.34313813 20 0 0 0 82.053154
13.757358 -45.433865 0.27712148 23 0 0 0 69.930847
-29.934652 -44.802345 0.37550071 15 0 0 0 84.010483
3.2979429 -44.980293 0.27043512 18 0 0 0 73.446556
4.4016476 -44.900002 0.26983324 31 0 0 0 73.056992
7.7169647 -44.603058 0.26868695 36 0 0 0 71.889069
9.9806671 -44.550617 0.26949054 17 0 0 0 71.105377
11.151577 -44.615433 0.27064121 16 0 0 0 70.722771
-32.67725 -44.064411 0.38601795 19 0 0 0 84.788254
5.466383 -44.492878 0.2676841 28 0 0 0 72.672112
6.5496845 -44.30204 0.26682377 34 0 0 0 72.286148
8.8103571 -44.408291 0.2681171 5 0 0 0 71.495537
-12.737613 -41.954002 0.28871661 36 0 0 0 79.321838
-1.0301157 -41.208225 0.25405487 15 0 0 0 75.012009
-31.237349 -38.065495 0.35342741 6 0 0 0 85.580002
-22.860466 -38.134384 0.31219772 21 0 0 0 83.233437
46.73418 -36.502491 0.34222984 15 0 0 0 60.145351
-1.6864284 -33.924984 0.21685547 43 0 0 0 75.408386
-22.691088 -32.214668 0.28574461 31 0 0 0 84.400253
70.734161 -25.328829 0.43537584 18 0 0 0 55.074379
47.503998 -23.935942 0.31558159 15 0 0 0 57.02132
71.014732 -23.479061 0.43426692 14 0 0 0 54.693607
47.978176 -13.294608 0.30114359 14 0 0 0 53.90416
78.207642 -9.6600018 0.45965722 9 0 0 0 51.568249
16.534412 -9.3950462 0.13431983 14 0 0 0 57.809673
-43.153168 -8.5899477 0.34338653 47 0 0 0 96.511871
-8.121562 -8.5173702 0.40576473 45 0 0 0 86.760971
2.4138117 -8.8451023 0.19642392 408 0 0 0 70.318367
16.695896 -8.9513817 0.13413 21 0 0 0 57.41301
-33.189407 -8.3184032 0.27470896 57 0 0 0 95.732872
-13.986665 -8.3821974 0.147017 184 0 0 0 91.053726
2.4147816 -7.4162073 0.17197968 1209 0 0 0 69.546707
2.5468633 -7.2186513 0.2640399 805 0 0 0 69.153931
34.533821 -6.0050888 0.2229052 78 0 0 0 52.347672
35.376465 -5.2595005 0.22694091 32 0 0 0 51.956902
-25.972052 -4.5103183 0.22020593 80 0 0 0 96.900169
19.261784 -4.8403831 0.1406834 254 0 0 0 53.52174
24.897539 -4.9659257 0.17065938 161 0 0 0 52.733513
4.4035273 -4.1150947 0.18455657 785.79999 0 0 0 61.480507
4.6704493 -4.069869 0.14354718 893 0 0 0 60.931847
9.4426155 -4.2107038 0.21815339 972 0 0 0 56.249599
14.651588 -4.4639225 0.30775827 288 0 0 0 54.290359
-50.319077 -3.7180429 0.38849431 26 0 0 0 98.468979
-35.9049 -3.5411024 0.28814945 57 0 0 0 98.071037
-5.5956631 -3.5381441 0.24541195 214 0 0 0 90.668205
-5.4032645 -3.6057107 0.079715833 496 0 0 0 90.276573
-1.0245832 -3.9944077 0.26130405 13 0 0 0 78.533287
-0.85379821 -3.9184246 0.2876755 62.166668 0 0 0 77.951042
4.5317707 -3.951169 0.36351258 1142 0 0 0 60.931847
-25.552765 -3.1552315 0.21596441 185 0 0 0 97.685165
-15.501454 -3.4831364 0.14687768 191 0 0 0 96.121872
-5.5348039 -3.4996963 0.4028495 570 0 0 0 90.668205
57.994072 -1.4325768 0.34845769 10 0 0 0 49.993961
59.496807 2.9166639 0.35778037 14 0 0 0 48.824913
-3.1388016 3.9836998 0.090305485 403 0 0 0 14.24146
-2.7425864 3.9438818 0.086646833 301.66666 0 0 0 15.221253
-2.2509451 3.8974485 0.082267359 175.25 0 0 0 16.58489
-1.9651254 3.939676 0.080431446 183 0 0 0 17.55722
-3.4056978 4.018456 0.092769869 283 0 0 0 13.64754
-1.7007077 4.1546884 0.080440283 194.2 0 0 0 18.735617
-1.3801872 4.4224319 0.080715179 188 0 0 0 20.106827
60.813984 4.4804697 0.36577547 11 0 0 0 48.440006
-1.1358737 4.6333966 0.081178114 185.66667 0 0 0 21.080107
-0.81758589 4.8816962 0.081733234 226 0 0 0 22.244247
-0.592888 5.0690866 0.082353316 263 0 0 0 23.023859
-0.3505775 5.2879486 0.083301812 369.33334 0 0 0 23.810087
16.288443 5.3977876 0.12804835 248 0 0 0 44.529259
-0.09014561 5.7389808 0.23102237 881.33331 0 0 0 24.59498
0.15595388 5.7996955 0.20996639 869.85712 0 0 0 25.260361
0.50149089 5.9944577 0.086400725 281 0 0 0 26.156919
16.286129 5.8458219 0.12919408 22 0 0 0 44.139679
-0.5663228 6.4429507 0.33492917 881 0 0 0 23.414579
-0.3174268 6.1316495 0.31888279 1055.75 0 0 0 24.007839
0.75549483 6.2033825 0.087467156 346.5 0 0 0 26.740015
1.0283062 6.4283538 0.088683069 353 0 0 0 27.327709
1.3289242 6.6785679 0.090136975 330 0 0 0 27.912868
1.65477 6.9466872 0.091762409 325 0 0 0 28.495661
1.8968248 7.1601348 0.093151279 314 0 0 0 28.88801
2.143105 7.3418336 0.094282813 406 0 0 0 29.28344
59.09967 7.2860641 0.35857132 17 0 0 0 47.65699
-1.6691804 7.9210739 0.31586295 1739 0 0 0 21.472469
2.4163878 7.5669112 0.095803194 388 0 0 0 29.664909
2.711803 7.8101544 0.097480886 345 0 0 0 30.062559
7.8145332 7.8855109 0.10263395 621 0 0 0 37.10957
8.1191292 7.6054964 0.24125782 397 0 0 0 37.696693
-14.466429 8.1272068 0.22686753 195 0 0 0 7.8007398
-13.882096 8.2493715 0.22174327 95 0 0 0 8.1966896
-13.081849 8.2093697 0.21351963 163 0 0 0 8.5826302
-12.279749 8.1269732 0.20507377 127 0 0 0 8.9690895
-11.583884 8.0766191 0.1979457 132 0 0 0 9.35783
-10.931044 8.0216589 0.19126368 137 0 0 0 9.75453
-10.242599 8.1051121 0.18530008 305 0 0 0 10.33709
-9.7503166 8.3134365 0.18219198 311 0 0 0 10.91655
-9.4324074 8.4475393 0.1802551 374 0 0 0 11.30917
-1.9225042 8.1423426 0.32607085 936 0 0 0 21.080379
-1.4914656 8.0597649 0.31876385 1243 0 0 0 21.852039
3.208837 8.2217064 0.10043316 298.5 0 0 0 30.647165
7.458715 8.3090744 0.104298 606 0 0 0 36.326366
7.6339774 8.0934153 0.10340387 571 0 0 0 36.71505
-16.866003 8.9502068 0.25617817 57 0 0 0 7.4060898
-9.1123428 8.5697508 0.17826754 301 0 0 0 11.70237
-8.7919779 8.681428 0.17625944 383 0 0 0 12.08524
-8.3512325 8.8710403 0.1738777 394 0 0 0 12.67204
1.000497 8.8055725 0.33205327 104 0 0 0 26.54669
3.7625561 8.6701202 0.10373452 297 0 0 0 31.2397
4.1736436 8.9934225 0.10618515 249 0 0 0 31.62525
6.9128737 8.9527807 0.10728198 634 0 0 0 35.148258
7.1887751 8.6307735 0.1057335 603 0 0 0 35.738182
60.303303 8.9427757 0.36662799 14 0 0 0 47.270439
-18.154821 9.0766106 0.27010548 45 0 0 0 7.01649
-7.9144602 9.0493088 0.17155032 310 0 0 0 13.26571
-6.6609674 9.3114672 0.44739714 374 0 0 0 14.82871
0.83711237 9.3716612 0.35151431 1045 0 0 0 26.156919
4.6657858 9.4265728 0.10956413 197 0 0 0 32.0201
6.6513996 9.3036737 0.25269008 479.75 0 0 0 34.559242
19.943905 9.4584284 0.15783477 208 0 0 0 42.582722
-8.2646036 9.6964817 0.49591255 371 0 0 0 13.456625
-7.805212 9.8681049 0.48960817 364 0 0 0 14.04669
-7.3577666 9.7812233 0.47677606 267 0 0 0 14.43623
-3.222106 9.8625088 0.39979279 1089.5 0 0 0 19.716206
0.62348861 9.6237621 0.36049083 1040 0 0 0 25.76923
1.3699663 9.8052998 0.36608937 456 0 0 0 26.93334
5.156117 9.7930679 0.11245269 189 0 0 0 32.408661
6.2578664 9.7343149 0.25697365 617.25 0 0 0 33.77166
10.909355 9.9448795 0.49350193 327 0 0 0 37.888287
-2.8020442 10.276298 0.40789828 477 0 0 0 20.495384
1.8060982 10.138891 0.37786376 455.5 0 0 0 27.524288
5.8634248 10.191117 0.26287496 515.5 0 0 0 32.994389
7.970695 10.302382 0.44458416 437 0 0 0 35.148258
8.3548698 10.263971 0.45036447 509 0 0 0 35.54298
8.7575979 10.230994 0.45689207 484 0 0 0 35.93338
9.1630249 10.183611 0.46338192 492 0 0 0 36.326366
9.5761747 10.12748 0.47008482 462 0 0 0 36.71505
10.235332 10.050373 0.30049506 342 0 0 0 37.307335
-3.8873131 10.595698 0.43343604 599 0 0 0 19.12904
2.2808797 10.523743 0.39186609 329 0 0 0 28.10487
2.6193087 10.782393 0.40161839 320 0 0 0 28.495661
5.3594131 10.797047 0.42227635 543 0 0 0 32.0201
5.5606036 10.543071 0.41678637 550 0 0 0 32.408661
-4.4519362 11.291149 0.46470398 477 0 0 0 18.736481
-1.7453647 11.151456 0.42607123 371 0 0 0 22.24021
-1.4887403 11.336466 0.43018058 447 0 0 0 22.64049
2.9846311 11.076836 0.4128896 348 0 0 0 28.88801
3.3799281 11.405553 0.42566395 303 0 0 0 29.28344
4.9516606 11.343319 0.43514761 504 0 0 0 31.2397
5.1593742 11.06913 0.42859384 544 0 0 0 31.62525
-1.2275544 11.551338 0.43551686 647 0 0 0 23.023859
3.7843263 11.694751 0.43744788 302 0 0 0 29.664909
4.6219196 11.753775 0.44532245 527.5 0 0 0 30.647165
4.2619352 12.129779 0.45467383 260 0 0 0 30.062559
-35.065716 14.470405 0.47579831 67 0 0 0 5.84655
-32.397526 14.303815 0.44699278 82 0 0 0 6.2339001
-31.171034 14.682848 0.43633667 38 0 0 0 6.6343999
60.586742 15.177912 0.37617624 9 0 0 0 45.700649
62.393284 18.930214 0.39207864 12 0 0 0 44.924999
35.267792 24.875046 0.28770131 16 0 0 0 39.844231
35.482464 26.354702 0.2958028 20 0 0 0 39.45068
35.627159 27.845381 0.30394933 28 0 0 0 39.06258
35.824013 29.444298 0.31309414 25 0 0 0 38.679314
2.0882287 -28.701689 0.90327883 18 0 0 0 73.446556
26.410316 -10.967952 0.9010613 46 0 0 0 55.85268
2.4691741 -9.0420904 0.77888221 503 0 0 0 70.318367
16.520882 -9.391675 0.60941231 170 0 0 0 57.809673
-7.8319082 -8.6289463 0.83040762 397.5 0 0 0 86.357422
2.45152 -8.9843893 0.54242063 381 0 0 0 70.318367
-14.180016 -8.3373594 0.82701832 107.66666 0 0 0 91.183502
-8.1038237 -8.499012 0.69181871 59 0 0 0 86.760971
8.69806 -8.3258209 0.8429476 843 0 0 0 61.709152
-26.066568 -4.5221338 0.88099349 81 0 0 0 96.900169
19.330748 -4.8617802 0.63969219 111 0 0 0 53.52174
24.690348 -4.9298682 0.79914129 161 0 0 0 52.733513
9.3861189 -4.1861773 0.72647727 736 0 0 0 56.249599
14.644442 -4.4637442 0.87487298 365 0 0 0 54.290359
19.712811 -4.4452391 0.64816684 10 0 0 0 53.127407
-3.6642547 -3.7444828 0.97044599 1007 0 0 0 86.95311
-3.2690914 -3.7744005 0.92600846 892.66669 0 0 0 85.967628
-2.7280731 -3.793859 0.91669858 598.85712 0 0 0 84.511703
-2.224165 -3.7848387 0.92399979 576.5 0 0 0 83.03775
-1.7453101 -3.7677665 0.92552662 406 0 0 0 81.468788
-1.2718792 -3.7883861 0.80928797 205.22223 0 0 0 79.709068
-0.7718206 -3.8883331 0.68821758 78.75 0 0 0 77.655838
0.4483287 -3.8788457 0.87039208 119 0 0 0 72.672112
0.745866 -3.9027648 0.88608009 193.3 0 0 0 71.499779
1.2655693 -3.9285827 0.91977674 253.39999 0 0 0 69.541969
1.7339332 -3.9381268 0.92611152 257.60001 0 0 0 67.905312
2.1697309 -3.8978367 0.93779343 356.33334 0 0 0 66.412384
4.3407245 -3.8789618 0.71105862 1164.625 0 0 0 61.129955
8.2576723 -3.9317601 0.98768693 970 0 0 0 56.63504
9.4796476 -3.950104 0.85461986 454 0 0 0 55.85268
9.5899277 -3.9974947 0.60469019 131 0 0 0 55.85268
-25.559748 -3.1516173 0.85861278 190 0 0 0 97.685165
-20.99052 -3.113008 0.7137121 50 0 0 0 97.302269
-15.733963 -3.2623999 0.6806221 159.33333 0 0 0 96.381874
-5.5087771 -3.4846516 0.5628683 522 0 0 0 90.668205
-5.4417505 -3.4429846 0.79098928 639 0 0 0 90.668205
16.246799 5.3798938 0.76602322 234.5 0 0 0 44.529259
-0.11949867 5.860301 0.75184071 1140.6 0 0 0 24.517332
0.12686664 5.8415065 0.7345621 1159.25 0 0 0 25.175547
16.307844 5.8493161 0.77542734 82 0 0 0 44.139679
-0.56415468 6.4077363 0.72793269 1068.3334 0 0 0 23.414579
-0.31718716 6.1166482 0.71899778 1091.5 0 0 0 24.007841
-1.6719404 7.9351707 0.71368188 1554.6666 0 0 0 21.472467
-14.465219 8.1293554 0.63844681 258 0 0 0 7.8007398
-1.9226111 8.1428804 0.73579115 902 0 0 0 21.080379
-1.4891056 8.0465021 0.71915746 1052.3334 0 0 0 21.852041
-11.366907 8.7845974 0.55696785 247 0 0 0 10.1421
-10.749534 8.7317533 0.53791553 195 0 0 0 10.53208
-10.179441 8.9038773 0.52586865 241.5 0 0 0 11.11286
-14.263477 9.4555302 0.65797538 119 0 0 0 8.9690895
-13.440782 9.3874588 0.63159537 106 0 0 0 9.35783
-12.670431 9.3147373 0.60700917 88 0 0 0 9.75453
-9.6814137 9.1147671 0.51728457 291 0 0 0 11.70237
-9.1949883 9.31285 0.50935251 309.5 0 0 0 12.27984
-6.6006441 9.224781 0.85950786 357 0 0 0 14.82871
0.83434522 9.3414755 0.69677067 1024 0 0 0 26.156919
1.0573599 9.2631044 0.69200915 929 0 0 0 26.54669
19.850168 9.4088058 0.7068916 142 0 0 0 42.582722
-15.12083 9.5036278 0.6853379 109 0 0 0 8.5826302
-11.661631 9.9654655 0.96596903 114 0 0 0 10.91655
-10.659428 9.5629549 0.90347171 134 0 0 0 11.30917
-10.245289 9.6518507 0.88838112 332 0 0 0 11.70237
-9.7594204 9.8915319 0.87721109 288 0 0 0 12.27984
-8.7261448 9.5109196 0.50238836 375 0 0 0 12.86964
-3.2159727 9.8436642 0.77999383 1011.25 0 0 0 19.716206
0.6232664 9.6178761 0.71614158 1042 0 0 0 25.76923
7.5490685 9.7613697 0.72590959 234 0 0 0 35.148258
10.912382 9.9464569 0.85608834 292 0 0 0 37.888287
-16.947796 10.090091 0.75377685 56 0 0 0 8.1966896
-12.319172 10.020169 0.99910301 141 0 0 0 10.53208
-9.2498827 10.08921 0.86414617 215 0 0 0 12.86964
-8.76614 10.293024 0.8536104 301 0 0 0 13.456625
-8.286994 10.486115 0.84369338 326 0 0 0 14.04669
-3.7195489 10.123999 0.94614148 207 0 0 0 19.12904
6.2164063 10.492048 0.72258502 439 0 0 0 33.193859
6.7229109 10.441406 0.73356962 533 0 0 0 33.77166
7.3417587 10.252665 0.7422787 306.5 0 0 0 34.559242
8.3554182 10.263288 0.77522665 360 0 0 0 35.54298
8.7449293 10.215012 0.78635067 499 0 0 0 35.93338
9.1457911 10.163339 0.79819512 452 0 0 0 36.326366
9.581708 10.132037 0.81265092 431 0 0 0 36.71505
10.234298 10.045454 0.83362567 388 0 0 0 37.307335
-7.9718733 10.610084 0.83764046 378 0 0 0 14.43623
-3.8776581 10.570345 0.70706958 738 0 0 0 19.12904
-3.0794067 10.789205 0.7022472 372 0 0 0 20.303301
-2.8385344 10.96092 0.70752203 394 0 0 0 20.687469
1.4976829 10.658217 0.65865898 324 0 0 0 26.93334
1.8047435 10.876784 0.67279714 330 0 0 0 27.327709
5.36373 10.803659 0.71841359 601 0 0 0 32.0201
5.731658 10.545925 0.71343106 486 0 0 0 32.601791
-4.4215393 11.21387 0.75574863 528 0 0 0 18.736481
1.5475328 11.000536 0.95546389 369 0 0 0 26.93334
2.3059387 11.266327 0.69860339 326 0 0 0 27.912868
4.9514651 11.34062 0.73852903 481 0 0 0 31.2397
5.1600399 11.068439 0.72811025 576 0 0 0 31.62525
-1.7023499 11.88002 0.74380147 509 0 0 0 22.44035
-1.2619232 11.909738 0.74075812 37 0 0 0 23.023859
2.8590035 11.733684 0.73009789 416 0 0 0 28.495661
3.240593 11.996568 0.74899065 409 0 0 0 28.88801
4.6176805 11.740551 0.75421524 506 0 0 0 30.647165
-44.450214 12.261577 0.56537354 22 0 0 0 3.90661
-22.777725 12.113778 0.97666949 51 0 0 0 7.4060898
-5.1208625 12.130037 0.66265237 262 0 0 0 18.345659
3.6684535 12.351733 0.77406478 240 0 0 0 29.28344
4.1626301 12.328918 0.77948493 421.5 0 0 0 29.863735
-42.552731 12.865639 0.54801786 21 0 0 0 4.2975798
-41.974957 13.820784 0.54670084 35 0 0 0 4.67976
-10.197292 15.110792 0.69370604 140 0 0 0 15.2252
-46.234653 16.493338 0.60415554 38 0 0 0 5.0729098
-46.078442 17.721838 0.60871571 21 0 0 0 5.4655499
-12.328246 19.312731 0.86284679 227 0 0 0 15.60985
-11.672734 19.311333 0.84881157 228 0 0 0 16.0023
-10.982437 19.2148 0.83166951 230 0 0 0 16.38847
-10.34071 19.165022 0.81735498 303 0 0 0 16.77387
-9.8513212 19.380322 0.81450987 192 0 0 0 17.174919
-9.4062548 19.68619 0.81576025 76 0 0 0 17.55722
-8.7779942 19.588964 0.8015101 122 0 0 0 17.944839
-2.3936229 -48.232819 1.4988822 23 0 0 0 75.408386
-1.2022775 -47.966629 1.4875484 11 0 0 0 75.012009
-0.025387814 -47.981041 1.4856865 19 0 0 0 74.624702
4.5604892 -46.589878 1.4471214 17 0 0 0 73.056992
6.890739 -46.652615 1.4562622 21 0 0 0 72.286148
8.0439873 -46.532726 1.457554 18 0 0 0 71.889069
11.675953 -46.741531 1.4845353 21 0 0 0 70.722771
5.691649 -46.380859 1.4439371 18 0 0 0 72.672112
9.2035179 -46.424469 1.4601034 19 0 0 0 71.495537
10.39041 -46.411098 1.4664986 14 0 0 0 71.105377
1.0763032 -44.916782 1.3923204 33 0 0 0 74.234795
2.0641346 -42.569984 1.3218647 25 0 0 0 73.845078
-12.746021 -41.957737 1.383033 89 0 0 0 79.321838
-18.205381 -38.461105 1.3545657 22 0 0 0 81.664734
-22.296499 -31.643515 1.2471936 11 0 0 0 84.400253
2.3676832 -13.816679 1.4886968 29 0 0 0 71.889069
22.474119 -13.506189 1.4698248 9 0 0 0 58.19796
5.0438886 -13.16495 1.4963204 13 0 0 0 68.759995
-6.2962799 -11.752995 1.4297731 11 0 0 0 82.451614
-6.6697922 -9.9635754 1.2911165 21 0 0 0 84.010483
2.4911485 -9.1184006 1.1309955 458.5 0 0 0 70.318367
2.6713476 -9.1790152 1.4177532 373 0 0 0 70.06002
5.7381415 -9.1209698 1.4169747 52 0 0 0 65.629478
16.627733 -9.4526958 1.0820342 74 0 0 0 57.809673
-7.6432228 -8.6332512 1.2453609 416 0 0 0 86.161446
-32.856697 -8.2290964 1.1175534 55 0 0 0 95.732872
-14.369348 -8.1401796 1.3749436 81 0 0 0 91.443047
8.7412682 -8.3659525 1.2914531 817 0 0 0 61.709152
43.990795 -6.5469556 1.3854115 26 0 0 0 51.956902
34.463032 -5.9999576 1.0969299 13 0 0 0 52.347672
23.920258 -4.7771354 1.3734226 47 0 0 0 52.733513
11.450501 -4.1185169 1.3026668 364 0 0 0 55.074379
11.629959 -4.182436 1.0214292 347 0 0 0 55.074379
12.91884 -4.2881875 1.4529396 262 0 0 0 54.693607
13.074468 -4.3392692 1.1344956 261 0 0 0 54.693607
14.661671 -4.4665718 1.258329 337 0 0 0 54.290359
19.397951 -4.3749776 1.1261256 274 0 0 0 53.127407
-5.2983136 -3.5379577 1.2521993 536.75 0 0 0 90.276573
-3.6789768 -3.6692042 1.3017033 928.11108 0 0 0 87.146629
-3.2279975 -3.7155023 1.2651041 872 0 0 0 85.99453
-2.7382481 -3.7505944 1.2425375 672.23529 0 0 0 84.630333
-2.2214839 -3.7575977 1.2492596 606.33331 0 0 0 83.084068
-1.7366492 -3.7518401 1.2753501 402.20001 0 0 0 81.468773
-1.2435446 -3.7343705 1.2364771 311.07407 0 0 0 79.666512
-0.79905796 -3.7278934 1.3413306 238.4375 0 0 0 77.901085
-0.22260396 -3.7835631 1.3696904 283.79999 0 0 0 75.459328
0.27349448 -3.840219 1.2587527 205.44444 0 0 0 73.378471
0.72871131 -3.8646953 1.2454889 241.28572 0 0 0 71.541595
1.2507114 -3.8819437 1.2596768 248.2 0 0 0 69.541969
1.7480166 -3.8914294 1.2374753 270.95001 0 0 0 67.788109
2.1538887 -3.8680966 1.2571874 408.20001 0 0 0 66.412384
4.2493587 -3.7970667 1.2606407 971.375 0 0 0 61.129955
5.8434048 -3.9373314 1.2911972 862.66669 0 0 0 58.974407
6.2792587 -3.9340794 1.2965423 933.66669 0 0 0 58.458271
6.7510958 -3.9397686 1.1976321 1050.8 0 0 0 57.964985
7.3029518 -3.9308295 1.2061985 825.5 0 0 0 57.41301
7.7181416 -3.9110188 1.2570099 943 0 0 0 57.02132
8.1862507 -3.8965592 1.3157798 837.5 0 0 0 56.63504
8.7260599 -3.8919659 1.265483 776.66669 0 0 0 56.249599
9.3078632 -3.8783646 1.2092385 652.5 0 0 0 55.85268
10.199446 -3.9560599 1.3084733 435.5 0 0 0 55.46172
-30.738611 -3.0262702 1.0226688 72 0 0 0 98.071037
-25.482628 -3.1421571 1.4843376 84 0 0 0 97.685165
-20.997505 -3.1140966 1.2332205 181 0 0 0 97.302269
-15.952217 -3.1755865 1.3575989 192 0 0 0 96.511871
-5.6160274 -3.3645179 1.0457065 426 0 0 0 91.053726
-5.3683858 -3.3365695 1.2944283 602.5 0 0 0 90.796715
-0.14836927 5.8899779 1.2780435 1250.6 0 0 0 24.439686
0.12716635 5.8355222 1.2367164 966 0 0 0 25.17555
-0.56231707 6.3901939 1.199348 1199 0 0 0 23.414579
-0.36352056 6.1612935 1.2157763 1231.4 0 0 0 23.8885
-1.6717279 7.9307237 1.2100302 1504.5 0 0 0 21.472469
-14.500362 8.1488028 1.0445786 56 0 0 0 7.8007398
-1.9189219 8.1231766 1.2455432 913.5 0 0 0 21.080379
-1.4845387 8.0164213 1.216337 695.5 0 0 0 21.852039
-6.5101004 9.0951786 1.2569948 345 0 0 0 14.82871
0.83481234 9.3440323 1.0416235 1086 0 0 0 26.156919
1.055907 9.2495785 1.0330863 991 0 0 0 26.54669
7.3172803 9.466815 1.0037127 531 0 0 0 35.148258
-14.241777 9.9514351 1.0906197 87 0 0 0 9.35783
-3.217545 9.8464584 1.2865963 957.5 0 0 0 19.716206
-2.8562255 9.9790392 1.1609251 250 0 0 0 20.303301
0.63061535 9.7208052 1.2025959 792.5 0 0 0 25.76923
7.2451949 9.697835 1.2115955 385.33334 0 0 0 34.885555
7.7672453 9.548934 1.1800652 337.5 0 0 0 35.54298
10.423492 9.986146 1.1988981 433 0 0 0 37.5051
10.87871 9.9182663 1.2212344 424 0 0 0 37.888287
11.374548 9.8665066 1.247576 372 0 0 0 38.276112
11.888949 9.8082895 1.275437 347 0 0 0 38.679314
12.411915 9.7343359 1.3037655 329 0 0 0 39.06258
13.002358 9.687993 1.3384923 280 0 0 0 39.45068
13.592946 9.6149616 1.372731 231 0 0 0 39.844231
14.237356 9.5518646 1.4117614 221 0 0 0 40.242802
-12.960159 10.028145 1.0301934 150 0 0 0 10.1421
5.8620834 10.477821 1.3050051 844 0 0 0 32.794918
6.2438521 10.343725 1.2153351 400.33334 0 0 0 33.322021
6.7608428 10.408704 1.1436762 544 0 0 0 33.836102
7.189568 10.30932 1.207351 429 0 0 0 34.364288
8.719738 10.187454 1.2818472 469.5 0 0 0 35.93338
9.127183 10.144459 1.3031936 431 0 0 0 36.326366
9.6728868 10.061163 1.2740763 447.66666 0 0 0 36.846554
-14.408695 10.604008 1.1222829 108 0 0 0 9.75453
-11.287035 10.640343 1.3605187 193 0 0 0 11.70237
-10.79715 10.68691 1.3328533 189 0 0 0 12.08524
-10.254057 10.919731 1.3144548 196.5 0 0 0 12.67204
-4.2764826 10.833368 1.0201765 98 0 0 0 18.736481
-3.8722179 10.552644 1.2570118 493 0 0 0 19.12904
5.3594646 10.796928 1.1653492 564.5 0 0 0 32.0201
5.6736388 10.544469 1.1076008 584 0 0 0 32.537415
-16.875717 11.200968 1.2670414 78 0 0 0 8.9690895
-12.418791 11.154123 1.4623194 115 0 0 0 11.30917
-9.6930161 11.112074 1.2939368 248 0 0 0 13.26571
-9.2752018 11.171626 1.2743182 173 0 0 0 13.64754
-8.7573395 11.08553 1.2402806 240 0 0 0 14.04669
-8.4179325 11.208238 1.2305578 366 0 0 0 14.43623
-4.4192185 11.205224 1.3457634 482 0 0 0 18.736481
-3.2420764 11.37268 1.0321716 372 0 0 0 20.303301
4.9398661 11.316404 1.1953162 452.5 0 0 0 31.2397
5.1533957 11.056225 1.1800675 560.5 0 0 0 31.62525
-2.9957316 11.583828 1.0431111 341 0 0 0 20.687469
-1.2672164 11.954506 1.1881716 564.5 0 0 0 23.023859
1.8033946 11.729787 1.1629776 328 0 0 0 27.130524
2.3018754 11.987182 1.0441768 167 0 0 0 27.720869
4.4861975 11.830823 1.2267566 303 0 0 0 30.45133
4.723341 11.588803 1.2121606 377 0 0 0 30.843
-24.477343 12.262843 1.0343184 22 0 0 0 7.01649
-8.1780787 12.084189 1.2786771 262 0 0 0 15.2252
-5.0933537 12.06075 1.3025661 369.5 0 0 0 18.345659
-3.1429532 12.175208 1.399546 309 0 0 0 20.687469
-1.720848 12.379028 1.1848464 295.66666 0 0 0 22.507063
2.0304172 12.175076 1.3567873 216 0 0 0 27.327709
2.6727366 12.266311 1.0717509 377 0 0 0 28.10487
4.1553311 12.309654 1.2601234 340.5 0 0 0 29.863735
14.33512 12.415154 1.0885348 42 0 0 0 38.276112
-8.0953217 12.621516 1.3125345 528 0 0 0 15.60985
-1.9971192 12.854419 1.4430901 271 0 0 0 22.24021
2.4770055 12.860641 1.4363575 355 0 0 0 27.720869
3.0722852 12.588412 1.1038547 385 0 0 0 28.495661
3.69996 12.837242 1.2429967 331.33334 0 0 0 29.151628
-8.0298347 13.226848 1.3527795 483 0 0 0 16.0023
2.8693354 13.135436 1.4723538 416 0 0 0 28.10487
3.5447848 13.094617 1.4826245 363 0 0 0 28.88801
-7.9751458 13.899646 1.3991581 343 0 0 0 16.38847
-32.374214 14.298812 1.3276007 65 0 0 0 6.2339001
-7.7671428 14.343718 1.4227488 241 0 0 0 16.77387
-35.942818 14.839286 1.4550653 25 0 0 0 5.84655
-7.6225905 14.946047 1.4615673 355 0 0 0 17.174919
-10.204865 15.123001 1.1393405 105 0 0 0 15.2252
-7.427012 15.494756 1.4951169 520 0 0 0 17.55722
-6.949409 15.456921 1.473897 536 0 0 0 17.944839
-34.705799 16.360256 1.4376427 24 0 0 0 6.6343999
-10.796697 16.893988 1.2481699 33 0 0 0 15.60985
-10.445365 17.263702 1.254783 33 0 0 0 16.0023
-9.6850605 17.939198 1.2649298 34 0 0 0 16.77387
-9.3318043 18.349308 1.275625 20 0 0 0 17.174919
-8.9505186 18.723923 1.2843485 32 0 0 0 17.55722
-8.4985552 18.9603 1.2843707 33 0 0 0 17.944839
-10.979732 19.211561 1.3719263 23 0 0 0 16.38847
35.131584 30.337856 1.4756765 27 0 0 0 38.276112
31.021368 -54.830795 1.9246333 6 0 0 0 66.4151
-17.365925 -52.518242 1.7380462 13 0 0 0 79.708282
-20.140814 -52.174683 1.7619392 5 0 0 0 80.49131
-18.769445 -52.413696 1.7515914 12 0 0 0 80.10231
-27.614384 -51.64233 1.8564334 11 0 0 0 82.451614
-22.979933 -51.811783 1.7902889 13 0 0 0 81.278954
-21.481487 -51.826805 1.7698575 12 0 0 0 80.878304
-32.309307 -51.008507 1.9209024 8 0 0 0 83.624207
-29.16983 -51.473984 1.8777875 9 0 0 0 82.841721
-25.855459 -51.342419 1.8203614 17 0 0 0 82.053154
-14.237184 -51.382236 1.6717755 10 0 0 0 78.925926
-33.951633 -50.800735 1.9460397 12 0 0 0 84.010483
20.415682 -49.375271 1.6393524 33 0 0 0 68.374123
-6.0052004 -48.509319 1.5227119 21 0 0 0 76.58017
-3.5876465 -48.318687 1.5056882 21 0 0 0 75.802917
-12.02409 -47.927376 1.5496398 14 0 0 0 78.533287
20.36075 -46.016682 1.5455421 11 0 0 0 67.982971
21.643496 -45.841152 1.5563956 18 0 0 0 67.593933
22.993622 -45.756943 1.5715311 5 0 0 0 67.201401
24.145674 -45.246788 1.5735205 14 0 0 0 66.805672
-31.996447 -37.084045 1.5755984 16 0 0 0 85.965469
2.4378951 -33.434856 1.8668729 31 0 0 0 73.446556
-10.784457 -32.589745 1.9314886 8 0 0 0 79.708282
2.8588765 -29.324875 1.6445085 18 0 0 0 73.056992
57.76598 -27.358355 1.9696081 11 0 0 0 56.63504
-21.263937 -25.898521 1.9075841 6 0 0 0 85.580002
2.380024 -13.873212 1.8405246 26 0 0 0 71.889069
2.6955059 -13.691193 1.8247825 30 0 0 0 71.495537
4.4661598 -13.61571 1.6972654 23.5 0 0 0 69.546707
5.5672884 -13.51836 1.9097973 18 0 0 0 68.374123
1.5959754 -13.153875 1.7347274 20 0 0 0 72.672112
2.9369061 -13.20598 1.7700917 20 0 0 0 71.105377
3.2607241 -13.133954 1.7705454 45 0 0 0 70.722771
4.8797045 -13.221584 1.6672535 37 0 0 0 68.956963
-6.6961045 -12.507428 1.8675165 30 0 0 0 82.451614
-7.8755479 -12.418247 1.5754519 24 0 0 0 83.624207
-7.3753057 -12.284008 1.5352725 33 0 0 0 83.233437
5.7570925 -12.243744 1.7699491 103 0 0 0 67.593933
-6.5863633 -11.607796 1.7593119 33 0 0 0 82.841721
-4.2812757 -11.059782 1.8566393 36 0 0 0 80.49131
7.4842567 -10.6808 1.7077664 39 0 0 0 64.844513
8.4839554 -10.920937 1.8092667 53 0 0 0 64.067741
8.5825958 -10.506081 1.7758878 71 0 0 0 63.673882
-9.6013088 -10.080279 1.8391008 17 0 0 0 86.760971
-6.614686 -10.429968 1.6315486 7 0 0 0 83.624207
7.6944485 -10.426707 1.6972433 68 0 0 0 64.458061
21.842505 -10.357225 1.9617095 90 0 0 0 56.63504
-6.534513 -9.7650118 1.5542279 10 0 0 0 84.010483
-6.3814068 -9.5359631 1.8018647 76 0 0 0 84.010483
-3.6614947 -9.804739 1.9005679 38 0 0 0 80.296814
2.6157122 -9.1287613 1.7221422 407.5 0 0 0 70.124603
3.0034311 -9.1898422 1.7526805 309 0 0 0 69.546707
5.0379195 -9.4929667 1.9449908 75 0 0 0 66.805672
16.580641 -9.4226542 1.5544817 87 0 0 0 57.809673
-14.333425 -8.5910711 1.7959255 49 0 0 0 91.053726
-7.6546388 -8.6482487 1.6731842 341.5 0 0 0 86.161446
-4.1662831 -8.7785263 1.7680711 30 0 0 0 81.664734
5.2502785 -8.8221855 1.8597832 19 0 0 0 66.01638
-14.502283 -8.2157459 1.7917483 87 0 0 0 91.443047
8.7577515 -8.3791695 1.7422721 867.5 0 0 0 61.709152
34.363033 -5.983511 1.9487181 29 0 0 0 52.347672
11.385139 -4.0931811 1.5937313 340 0 0 0 55.074379
12.805755 -4.2486753 1.7731266 281 0 0 0 54.693607
14.679523 -4.4723778 1.6334575 342 0 0 0 54.290359
19.344824 -4.3600063 1.6177912 313 0 0 0 53.127407
-50.207569 -3.7010288 1.6443347 33 0 0 0 98.468979
-4.0799503 -3.5158584 1.8553684 832.5 0 0 0 88.316467
-3.7404373 -3.5538161 1.7775493 721.41669 0 0 0 87.533241
-3.2728443 -3.61444 1.6906004 702.75 0 0 0 86.329163
-2.7775388 -3.6601019 1.6517131 568.27271 0 0 0 84.934303
-2.2909036 -3.6955347 1.6072054 555 0 0 0 83.42746
-1.8127521 -3.7170155 1.5630383 413.16666 0 0 0 81.796394
-1.3516383 -3.7273321 1.5148348 407 0 0 0 80.100632
0.88096756 -3.8389282 1.5067658 313.5 0 0 0 70.914078
1.2364011 -3.8364406 1.5430417 293.60001 0 0 0 69.541969
1.7462718 -3.8328633 1.5675304 273.57144 0 0 0 67.704391
2.1851671 -3.8096895 1.6269442 302.125 0 0 0 66.21666
4.1690178 -3.7252328 1.7904528 848.125 0 0 0 61.129959
5.7739592 -3.889904 1.7056768 762 0 0 0 58.974407
6.2573385 -3.9051158 1.6771877 976.40002 0 0 0 58.432243
6.8615599 -3.9154439 1.7368011 881 0 0 0 57.809673
7.2774916 -3.9176359 1.6122959 916 0 0 0 57.41301
7.7047391 -3.9047058 1.6834078 754 0 0 0 57.02132
8.211956 -3.9090564 1.6584111 795 0 0 0 56.63504
8.6981726 -3.8794727 1.7350789 723 0 0 0 56.249599
9.3199463 -3.8829191 1.7124977 691 0 0 0 55.85268
10.140075 -3.9325438 1.7062763 435 0 0 0 55.46172
-30.773012 -3.0296955 1.7804382 61 0 0 0 98.071037
-20.981871 -3.1155717 1.7601491 193 0 0 0 97.302269
-16.069494 -3.1989954 1.7649781 233 0 0 0 96.511871
-5.2650857 -3.3341694 1.7614741 568 0 0 0 90.666168
60.536476 4.4475069 1.8809209 14 0 0 0 48.440006
-0.13814627 5.8725185 1.725742 1064.6666 0 0 0 24.465567
0.12752591 5.8317566 1.7385539 713.375 0 0 0 25.175549
-0.56098378 6.3735189 1.7464149 1084.5 0 0 0 23.414579
-0.35507166 6.14922 1.7584851 987 0 0 0 23.90839
-1.6709207 7.930542 1.7086154 1541.6666 0 0 0 21.472467
-1.4806199 7.9982495 1.515084 482 0 0 0 21.852039
-1.909134 8.0829306 1.7503439 917 0 0 0 21.080379
-6.4633427 9.0261192 1.6557784 338.5 0 0 0 14.82871
-14.225203 9.935791 1.5190066 81 0 0 0 9.35783
-3.205771 9.8113022 1.7907134 825.25 0 0 0 19.716206
7.4069414 9.5824594 1.6093554 376 0 0 0 35.148258
10.39785 9.9617252 1.7243867 444 0 0 0 37.5051
10.879692 9.919157 1.7613988 391.5 0 0 0 37.888287
11.360704 9.8546124 1.7978108 397 0 0 0 38.276112
11.886732 9.8053627 1.6505172 333 0 0 0 38.679314
12.414498 9.735261 1.6882801 358 0 0 0 39.06258
12.97862 9.6693287 1.7303027 289 0 0 0 39.45068
13.575302 9.6014881 1.7759589 246 0 0 0 39.844231
14.230069 9.5459538 1.8283648 261 0 0 0 40.242802
-41.542278 10.375198 1.591432 20 0 0 0 3.5191901
-14.122606 10.387535 1.9584483 191 0 0 0 9.75453
-3.851896 10.49334 1.8000356 512 0 0 0 19.12904
5.8612757 10.478032 1.7498205 721 0 0 0 32.794918
6.1814156 10.436144 1.7664826 714 0 0 0 33.193859
6.6777792 10.374654 1.7947987 629.75 0 0 0 33.77166
7.2929993 10.276456 1.7781539 512 0 0 0 34.494259
8.3013067 10.200643 1.7436732 573 0 0 0 35.54298
8.6850996 10.148958 1.769739 552 0 0 0 35.93338
9.0899763 10.105082 1.7994001 515 0 0 0 36.326366
9.8016853 10.029025 1.7381908 485 0 0 0 36.978062
-3.8657577 10.530438 1.5295098 526 0 0 0 19.12904
5.3583889 10.795565 1.7584248 489.5 0 0 0 32.0201
5.5613403 10.545048 1.7388529 714.5 0 0 0 32.408661
-13.070482 11.177094 1.5059142 163 0 0 0 10.91655
-4.4121122 11.183376 1.78601 471.5 0 0 0 18.736481
4.9375548 11.311998 1.8020949 468 0 0 0 31.2397
5.149025 11.047777 1.7790049 531.5 0 0 0 31.62525
-14.394391 11.719409 1.6234813 110 0 0 0 10.53208
-11.312281 11.767013 1.8248844 130 0 0 0 12.47444
-10.855893 11.858218 1.797603 154 0 0 0 12.86964
-7.9604959 11.757273 1.7625219 592.5 0 0 0 15.2252
-1.2645059 11.921656 1.7733719 542 0 0 0 23.023859
4.4961343 11.858743 1.6958637 497 0 0 0 30.45133
4.7237892 11.59071 1.8281276 454 0 0 0 30.843
-44.398964 12.253279 1.7118064 36 0 0 0 3.90661
-24.50296 12.274821 1.7037885 59 0 0 0 7.01649
-22.727182 12.085963 1.6022487 57 0 0 0 7.4060898
-15.800823 12.240952 1.7463583 66 0 0 0 10.1421
-12.37711 12.267014 1.9468578 115 0 0 0 12.08524
-10.285409 12.095721 1.7754416 271.5 0 0 0 13.456625
-9.507782 12.047727 1.7164959 194 0 0 0 14.04669
-9.1191978 12.154474 1.6994298 325 0 0 0 14.43623
-7.8980007 12.308643 1.8139341 538.5 0 0 0 15.60985
-5.0818481 12.02935 1.7777706 382 0 0 0 18.345659
-1.6144698 12.353197 1.8424081 476.5 0 0 0 22.64049
1.2723923 12.225904 1.6567621 250.5 0 0 0 26.351805
4.1521263 12.303031 1.7373886 463 0 0 0 29.863735
-7.8401451 12.911197 1.6869165 485 0 0 0 16.0023
-3.6116669 12.70647 1.7939869 190 0 0 0 20.303301
-1.9945728 12.82737 1.7590171 441 0 0 0 22.24021
1.7919854 12.645981 1.718348 243 0 0 0 26.93334
3.7907743 12.759753 1.7818817 394 0 0 0 29.28344
-22.296415 13.295902 1.6162773 67 0 0 0 8.1966896
-20.933159 13.18446 1.5416986 105 0 0 0 8.5826302
-17.970667 13.241207 1.9475213 67 0 0 0 9.75453
-3.3606567 13.039104 1.827258 254 0 0 0 20.687469
2.2366307 13.367843 1.8201801 180 0 0 0 27.327709
3.2751279 13.395247 1.6776513 309.5 0 0 0 28.495661
3.5399182 13.082075 1.8148892 375 0 0 0 28.88801
-7.7622175 13.524718 1.7398727 474 0 0 0 16.38847
2.6491523 13.730883 1.8755993 181 0 0 0 27.720869
3.0053136 13.745867 1.8856514 357 0 0 0 28.10487
-46.567822 14.089597 1.8086939 22 0 0 0 4.2975798
-7.7008457 14.220882 1.8025537 451 0 0 0 16.77387
-7.6249151 14.95211 1.8688012 430 0 0 0 17.174919
-46.397263 15.287844 1.8179228 40 0 0 0 4.67976
-6.9359183 15.42827 1.8811835 529 0 0 0 17.944839
-7.4291668 15.500958 1.9122638 504 0 0 0 17.55722
-45.955383 16.400137 1.8162079 26 0 0 0 5.0729098
39.768818 29.517836 1.5650803 13 0 0 0 39.45068
43.006912 30.307915 1.6581517 21 0 0 0 39.844231
37.31686 30.65432 1.5315182 22 0 0 0 38.679314
39.880878 31.148449 1.6007026 40 0 0 0 39.06258
-39.391502 -50.468163 2.0446062 7 0 0 0 85.183914
-37.399635 -50.419125 2.0033822 10 0 0 0 84.788254
2.0354965 -41.983337 2.3327019 22 0 0 0 73.845078
9.3982 -41.993649 2.3833625 18 0 0 0 71.105377
-18.204107 -36.138527 2.2816141 5 0 0 0 82.053154
-61.208096 -34.672855 2.2733035 12 0 0 0 91.443047
-22.892859 -30.854702 2.1795261 16 0 0 0 84.788254
-21.575613 -30.62077 2.1244144 6 0 0 0 84.400253
-3.7630491 -30.364706 2.4758658 17 0 0 0 76.58017
3.6905735 -30.120977 2.4475226 14 0 0 0 72.672112
4.4895401 -30.434742 2.4803801 8 0 0 0 72.286148
2.1221523 -29.088213 2.3543661 13 0 0 0 73.446556
2.8342247 -29.021706 2.3535218 11 0 0 0 73.056992
1.3672912 -28.301886 2.2886667 11 0 0 0 73.845078
70.612961 -25.301302 2.3083525 14 0 0 0 55.074379
22.592802 -14.338902 2.1657779 12 0 0 0 58.588432
2.6672916 -13.549579 2.1476667 62 0 0 0 71.495537
3.0697784 -13.796554 2.1972618 52 0 0 0 71.105377
4.7590194 -13.919796 2.2855582 32.5 0 0 0 69.350319
1.591447 -13.116928 2.0565493 26 0 0 0 72.672112
2.2553291 -13.156069 2.4070868 40 0 0 0 71.889069
2.7654505 -13.202908 2.4323602 91 0 0 0 71.300461
0.59943467 -12.705729 2.2956724 14 0 0 0 73.845078
1.7792249 -12.898158 2.2412937 38 0 0 0 72.414803
2.2269955 -12.993329 2.0517526 66 0 0 0 71.889069
3.2150919 -12.952129 2.2420003 45.5 0 0 0 70.722771
4.9746628 -12.979222 2.1612611 28 0 0 0 68.759995
6.7138858 -12.625901 2.2226293 42 0 0 0 66.805672
7.1034765 -12.601772 2.2480865 20 0 0 0 66.4151
-7.3896666 -12.313843 2.2460561 50 0 0 0 83.233437
-6.500329 -12.14119 2.1539805 60 0 0 0 82.451614
0.87590539 -12.2211 2.2124197 20 0 0 0 73.446556
5.3055649 -12.044676 2.2108073 67.5 0 0 0 67.982971
5.7588558 -12.247704 2.1053429 29 0 0 0 67.593933
6.0423951 -12.072682 2.100234 29 0 0 0 67.201401
-7.4439621 -11.741601 2.1759505 38 0 0 0 83.624207
-5.9021988 -11.702465 2.2118559 35.5 0 0 0 82.053154
1.1459703 -11.902262 2.1598427 31 0 0 0 73.056992
-6.6956553 -11.154908 2.3591509 71 0 0 0 83.233437
-6.3164158 -11.13112 2.0045145 74 0 0 0 82.841721
-5.9657259 -11.140127 2.291244 37 0 0 0 82.451614
6.9797182 -11.080635 2.0386121 41 0 0 0 65.629478
7.0507855 -11.193092 2.3864377 88 0 0 0 65.629478
7.7973046 -11.125363 2.1137972 106 0 0 0 64.844513
-6.7027125 -10.569976 2.2712677 76 0 0 0 83.624207
-6.2314272 -10.981348 2.2898772 36 0 0 0 82.841721
-4.5653157 -10.987364 2.1569812 20 0 0 0 80.878304
7.2038836 -10.837697 2.0261502 45 0 0 0 65.24575
7.6673484 -10.941275 2.4101112 29 0 0 0 64.844513
8.1366749 -10.746222 2.4318612 131 0 0 0 64.262901
8.5840397 -10.777037 2.1441684 50.5 0 0 0 63.870811
7.7433786 -10.492975 2.0306602 121 0 0 0 64.458061
8.7725277 -10.216856 2.265264 37.5 0 0 0 63.28688
9.2192268 -10.217069 2.1424878 9 0 0 0 62.887367
16.099535 -10.224143 2.4873862 129 0 0 0 58.588432
77.903915 -9.6385145 2.4189441 18 0 0 0 51.568249
5.7379899 -9.1181993 2.4788389 48 0 0 0 65.629478
6.2748127 -9.44835 2.0512769 58 0 0 0 65.24575
-37.793789 -8.485857 2.2210307 23 0 0 0 96.121872
-14.755317 -8.362792 2.2392213 127 0 0 0 91.443047
8.7415199 -8.3641739 2.1887815 741 0 0 0 61.709152
43.740368 -6.5109329 2.4613111 25 0 0 0 51.956902
24.541943 -4.8971844 2.0322073 170 0 0 0 52.733513
9.3450375 -4.1655788 2.2389934 217.5 0 0 0 56.249599
14.648195 -4.4606628 2.1970513 326 0 0 0 54.290359
19.290224 -4.3482533 2.0946031 334 0 0 0 53.127407
4.1274166 -3.6874058 2.1143911 573.5 0 0 0 61.129959
9.3508263 -3.8952584 2.2173929 732 0 0 0 55.85268
-25.414894 -3.1383557 2.1177897 119 0 0 0 97.685165
-21.024225 -3.1219134 2.2796338 189 0 0 0 97.302269
-16.158247 -3.2196562 2.1794248 229 0 0 0 96.511871
-5.2141323 -3.3033926 2.1997635 418.88889 0 0 0 90.666168
-4.0596881 -3.4997392 2.0429564 653 0 0 0 88.316467
-0.17751311 5.9092817 2.1539531 879.79999 0 0 0 24.362036
0.12701471 5.8321881 2.1695256 530.75 0 0 0 25.175549
-0.56021523 6.3671355 2.2953465 847.66669 0 0 0 23.414579
-0.39318171 6.1717525 2.2218273 859.33331 0 0 0 23.808939
-1.6726861 7.9408903 2.2086248 1259 0 0 0 21.472469
-1.902704 8.0554218 2.2525954 832.5 0 0 0 21.080379
-6.4129281 8.9554596 2.1846647 524 0 0 0 14.82871
-3.2007744 9.7964582 2.2941585 825.5 0 0 0 19.716206
10.39406 9.9580688 2.2585444 394 0 0 0 37.5051
10.856329 9.8979836 2.303627 395 0 0 0 37.888287
11.352519 9.8475733 2.354948 378 0 0 0 38.276112
11.883192 9.8042583 2.2213492 334.5 0 0 0 38.679314
12.401793 9.7271948 2.2710457 324.5 0 0 0 39.06258
12.976397 9.6701202 2.1292439 310 0 0 0 39.45068
13.5615 9.5942631 2.1839821 264 0 0 0 39.844231
14.208267 9.5339441 2.2476778 256 0 0 0 40.242802
-3.8349571 10.448448 2.2035637 519 0 0 0 19.12904
5.857604 10.468054 2.3427844 661.5 0 0 0 32.794918
6.1742091 10.421618 2.21507 723 0 0 0 33.193859
6.6728964 10.364799 2.2522273 581 0 0 0 33.77166
7.1815734 10.296619 2.2913091 523 0 0 0 34.364288
7.7317147 10.251487 2.1823754 481.75 0 0 0 34.951229
8.2911806 10.186281 2.2303066 473 0 0 0 35.54298
8.6716433 10.131397 2.2633774 474.5 0 0 0 35.93338
9.2231445 10.081038 2.260114 466 0 0 0 36.455929
9.9474239 10.013452 2.216043 385 0 0 0 37.10957
5.3512821 10.777529 2.3518622 508.5 0 0 0 32.0201
5.5593753 10.537695 2.3281665 698.5 0 0 0 32.408661
-4.4082384 11.17574 2.2300076 412 0 0 0 18.736481
4.9338813 11.300306 2.2591596 463 0 0 0 31.2397
5.1462789 11.038805 2.2309303 463 0 0 0 31.62525
-7.7998724 11.82799 2.2816067 563.5 0 0 0 15.417524
-5.0587959 11.976023 2.2512085 364 0 0 0 18.345659
-1.262831 11.916804 2.2170541 491 0 0 0 23.023859
4.4984837 11.860825 2.1679847 430 0 0 0 30.45133
4.7204103 11.578875 2.2915306 376 0 0 0 30.843
-7.2009192 12.178835 2.2772996 533 0 0 0 16.195385
-1.6134517 12.354886 2.3048377 431 0 0 0 22.64049
4.1501427 12.292582 2.2184556 451.25 0 0 0 29.863733
-14.216192 12.783123 2.1339304 95 0 0 0 11.30917
-13.45694 12.706293 2.0664153 63 0 0 0 11.70237
-7.841496 12.909279 2.0571022 464 0 0 0 16.0023
-6.7880826 12.509386 2.2895865 503 0 0 0 16.77387
-6.3439226 12.793255 2.2962537 568.5 0 0 0 17.36607
-5.847116 12.967314 2.2862194 302 0 0 0 17.944839
-1.9926603 12.822928 2.2397866 396 0 0 0 22.24021
0.84491241 12.60527 2.0162868 226 0 0 0 25.76923
1.1829504 12.864834 2.0599928 275 0 0 0 26.156919
3.7869899 12.74206 2.2735462 413 0 0 0 29.28344
-22.267097 13.27241 2.2572057 72 0 0 0 8.1966896
-20.92045 13.170764 2.1539094 96 0 0 0 8.5826302
-19.587801 13.008085 2.0500252 68 0 0 0 8.9690895
-15.524398 13.29363 2.2798231 62 0 0 0 10.91655
-10.830728 13.063457 2.3115458 153 0 0 0 13.64754
-10.24143 13.316965 2.2884607 160 0 0 0 14.24146
-3.7959168 13.375718 2.2303641 223 0 0 0 20.303301
3.270617 13.37575 2.1859152 214 0 0 0 28.495661
3.5376761 13.06818 2.3162038 425.5 0 0 0 28.88801
-17.541864 13.599277 2.4740074 171 0 0 0 10.1421
-17.107613 13.945716 2.460288 193 0 0 0 10.53208
-7.6622782 13.737558 2.1403344 378.5 0 0 0 16.581169
-3.5312843 13.724295 2.271848 141 0 0 0 20.687469
1.7828982 13.722606 2.202486 157.5 0 0 0 26.740015
3.0053432 13.741116 2.2335038 383 0 0 0 28.10487
-32.35807 14.290275 2.1904373 61 0 0 0 6.2339001
-7.2014928 14.105713 2.1534052 202 0 0 0 17.174919
-6.8329763 14.234774 2.1460993 308 0 0 0 17.55722
-6.4969492 14.432222 2.1502037 238 0 0 0 17.944839
2.3890681 14.237897 2.2942305 179 0 0 0 27.327709
2.7192843 14.07714 2.2772903 298 0 0 0 27.720869
-35.941158 14.83698 2.4044185 35 0 0 0 5.84655
-32.225185 15.185554 2.2065001 18 0 0 0 6.6343999
68.406685 18.916119 2.1966045 14 0 0 0 45.320259
68.47348 20.757313 2.2146156 6 0 0 0 44.924999
34.4006 26.872868 2.4553089 29 0 0 0 39.06258
32.924843 27.050404 2.3996446 36 0 0 0 38.679314
68.466103 28.349787 2.297951 8 0 0 0 43.363792
64.115601 38.429527 2.3321366 16 0 0 0 41.013081
64.080154 40.579681 2.3688412 8 0 0 0 40.628231
12.65925 -50.666328 2.8845346 10 0 0 0 70.722771
-3.7012074 -49.86673 2.7764649 9 0 0 0 75.802917
-2.4665282 -49.728546 2.7627046 14 0 0 0 75.408386
7.0691185 -47.853756 2.6767402 7 0 0 0 72.286148
8.2527676 -47.734989 2.6799295 6 0 0 0 71.889069
9.4282351 -47.553589 2.6812887 7 0 0 0 71.495537
-16.126442 -41.766109 2.5128198 9 0 0 0 80.49131
-1.6341683 -32.873455 2.6568446 18 0 0 0 75.408386
-0.80391109 -31.927444 2.5777662 28 0 0 0 75.012009
-2.3196268 -31.18866 2.5274394 7 0 0 0 75.802917
5.3508039 -30.984484 2.5339944 11 0 0 0 71.889069
-20.156128 -30.161982 2.9595797 13 0 0 0 84.010483
-17.160177 -28.621252 2.7223282 7 0 0 0 83.233437
-0.71011764 -28.071491 2.9521446 10 0 0 0 75.012009
-0.021646092 -28.114683 2.9546633 10 0 0 0 74.624702
-21.206598 -25.838737 2.7346551 9 0 0 0 85.580002
22.606436 -14.348186 2.818069 12 0 0 0 58.588432
4.7584133 -13.386411 2.5597129 68 0 0 0 69.153931
5.1756544 -13.499911 2.6043644 21 0 0 0 68.759995
6.2871079 -12.950306 2.5936422 37 0 0 0 67.397667
21.273829 -12.782681 2.6152117 47 0 0 0 58.19796
6.8365841 -12.131266 2.5099764 80 0 0 0 66.4151
14.828221 -12.204788 2.9782989 26 0 0 0 60.535751
-11.038597 -11.591866 2.5053756 30 0 0 0 86.760971
7.4959202 -10.698318 2.6787255 83 0 0 0 64.844513
6.7549438 -10.347367 2.6356769 80.333336 0 0 0 65.373657
7.3590522 -10.235194 2.7418263 91 0 0 0 64.651291
8.4390802 -10.332307 2.7360826 50 0 0 0 63.673882
8.008976 -9.8052797 2.9084382 67 0 0 0 63.673882
6.2454667 -9.157691 2.8221178 114 0 0 0 65.045135
7.2581329 -9.3488894 2.7209013 15 0 0 0 64.067741
-11.321087 -8.1837902 2.8823028 32 0 0 0 89.685638
8.1935663 -8.2345457 2.815846 21 0 0 0 62.109047
4.9416823 -7.8622961 2.6002893 45 0 0 0 65.629478
-10.605638 -7.4732857 2.996192 51 0 0 0 89.887001
25.520838 -6.4111252 2.7745793 14 0 0 0 53.52174
-26.523726 -5.9604349 2.905772 31 0 0 0 96.121872
24.517725 -4.8930202 2.6384959 162 0 0 0 52.733513
9.3098755 -4.1495304 2.7334318 201 0 0 0 56.249599
14.54993 -4.431448 2.7487838 319 0 0 0 54.290359
19.224791 -4.3305373 2.5730941 288 0 0 0 53.127407
9.3524227 -3.8954682 2.7177525 634.5 0 0 0 55.85268
-20.876364 -3.1037333 2.7826393 59 0 0 0 97.302269
-16.290512 -3.2460747 2.607722 177 0 0 0 96.511871
6.6457534 -2.7728157 2.7449455 162 0 0 0 55.85268
9.282135 -2.5829866 2.9461725 60 0 0 0 53.90416
10.190216 -2.8357322 2.9690533 177 0 0 0 53.90416
11.110132 -0.55015439 2.845063 129 0 0 0 50.392033
-1.2630343 7.2623005 2.8238864 692 0 0 0 22.046124
-0.88085413 7.1160555 2.74773 419.5 0 0 0 22.832174
-1.656407 7.8579946 2.6784832 1030.6666 0 0 0 21.472467
-1.3130963 7.5794415 2.7576361 568.5 0 0 0 22.046124
-2.2013156 8.4165344 2.9027843 567 0 0 0 20.687469
-1.8968416 8.0282679 2.7527282 659.66669 0 0 0 21.080379
-6.3725204 8.8956947 2.7053328 697 0 0 0 14.82871
-2.5416517 8.8381844 2.8403373 567 0 0 0 20.303301
-2.2697024 8.6815767 2.7718239 529 0 0 0 20.687469
-2.8067155 9.3507166 2.7746553 540 0 0 0 20.106827
