# .PCD v0.7 - Point Cloud Data file format
VERSION 0.7
FIELDS x y z intensity normal_x normal_y normal_z curvature
SIZE 4 4 4 4 4 4 4 4
TYPE F F F F F F F F
COUNT 1 1 1 1 1 1 1 1
WIDTH 890
HEIGHT 1
VIEWPOINT 0 0 0 1 0 0 0
POINTS 890
DATA ascii
-9.518651 -1.4143467 -1.0751833 120 0 0 0 97.190712
-9.4741507 -1.1708599 -1.0662037 135 0 0 0 97.579216
-20.073471 -0.98297596 -1.2922394 23 0 0 0 98.754074
-12.886241 -0.79041374 -1.1364621 108.5 0 0 0 98.56105
-9.376792 -0.81034279 -1.0506418 169.5 0 0 0 98.16967
-9.2634401 -0.45712659 -1.0346593 158 0 0 0 98.754074
-11.032124 2.1875474 -1.0186607 125 0 0 0 2.74158
-49.726196 15.122288 -1.0157779 26 0 0 0 4.3004999
13.967193 -50.609253 -0.95597267 12 0 0 0 70.25029
12.149639 -48.652279 -0.91258305 10 0 0 0 70.643837
10.524673 -47.029137 -0.87659514 14 0 0 0 71.038406
15.487823 -47.000206 -0.89665312 13 0 0 0 69.471245
14.131601 -46.711327 -0.88497806 18 0 0 0 69.866669
9.1276503 -46.064705 -0.85412294 11 0 0 0 71.434357
-22.640377 -44.93792 -0.89532864 8 0 0 0 81.97464
-21.112253 -44.593945 -0.879076 17 0 0 0 81.57988
7.7695827 -44.975033 -0.82990026 20 0 0 0 71.815163
-29.468323 -44.074871 -0.93487883 16 0 0 0 83.92308
-18.389275 -44.34325 -0.85783195 15 0 0 0 80.805168
-17.065357 -44.182892 -0.84763229 26 0 0 0 80.403214
-15.821486 -44.154987 -0.84065992 19 0 0 0 80.015953
-14.518427 -43.878338 -0.82935685 26 0 0 0 79.633995
-12.126064 -43.731525 -0.81664401 25 0 0 0 78.847
-10.942079 -43.585888 -0.80966973 24 0 0 0 78.460602
-8.6448154 -43.333019 -0.79804546 32 0 0 0 77.683235
-5.3329663 -43.020691 -0.78554416 42 0 0 0 76.509918
-0.029788096 -43.021706 -0.78319591 18 0 0 0 74.551323
-22.844296 -42.701847 -0.85843605 23 0 0 0 82.372063
-4.2555685 -42.929195 -0.78255552 25 0 0 0 76.110863
-3.1917555 -42.890602 -0.78096163 41 0 0 0 75.723808
-2.1337192 -42.852669 -0.77979225 21 0 0 0 75.340393
-1.083814 -42.963604 -0.78194767 28 0 0 0 74.938248
3.1301684 -42.860973 -0.78145719 25 0 0 0 73.381409
4.1910887 -42.878185 -0.78308117 33 0 0 0 72.987
-23.975998 -42.289646 -0.85997349 16 0 0 0 82.759155
-9.3279991 -41.43042 -0.76442057 11 0 0 0 78.069504
-6.1781301 -41.47398 -0.75767261 20 0 0 0 76.899193
-16.897257 -38.074257 -0.73810261 28 0 0 0 81.188271
4.7127104 -38.467106 -0.70039773 13 0 0 0 72.595245
-31.102314 -37.879028 -0.85350651 9 0 0 0 85.483261
1.7940093 -37.123405 -0.6713261 24 0 0 0 73.767479
0.87533724 -36.843925 -0.66561663 14 0 0 0 74.162079
-6.2365012 -35.800835 -0.65092212 41 0 0 0 77.291183
-10.381416 -34.151501 -0.63349938 20 0 0 0 79.24015
-45.966476 -29.101229 -0.92369735 15 0 0 0 90.573486
-5.2524805 -9.5135689 -0.69548416 167 0 0 0 82.565613
-4.9539433 -9.8099709 -0.84046704 276.5 0 0 0 81.97464
-4.3051481 -9.0683851 -0.76448119 449 0 0 0 81.57988
-0.024338461 -9.1089973 -0.69521415 127.5 0 0 0 74.551323
0.19815749 -9.0789299 -0.80551028 212 0 0 0 74.162079
1.6554639 -9.0404396 -0.58816183 349.5 0 0 0 71.624756
11.482909 -9.0017252 -0.57934135 228 0 0 0 60.089642
-7.8612723 -8.6607304 -0.74678719 238 0 0 0 86.267532
-5.5035677 -8.6689653 -0.65402406 59 0 0 0 83.528519
-5.2473135 -8.7316589 -0.83788913 396.25 0 0 0 83.142426
-4.7546015 -8.8667336 -0.88990772 179 0 0 0 82.372063
-3.5556724 -8.5437841 -0.81697422 299 0 0 0 80.805168
-3.3109889 -8.538949 -0.80849373 441 0 0 0 80.403214
-2.7565701 -8.643692 -0.80146301 212 0 0 0 79.437073
-2.3373713 -8.796752 -0.8048268 279 0 0 0 78.653801
-1.1941364 -8.6398735 -0.77105474 195.5 0 0 0 76.704559
-0.67142314 -8.7956123 -0.78079879 322 0 0 0 75.723808
-0.45442158 -8.7801189 -0.77829444 210 0 0 0 75.340393
0.72302103 -8.6980095 -0.66435134 289.75 0 0 0 73.184204
1.1944261 -8.7243767 -0.70674485 219.33333 0 0 0 72.335213
1.8594723 -8.7361269 -0.71631193 313 0 0 0 71.170387
2.2938104 -8.8142967 -0.58218551 250.5 0 0 0 70.447067
2.8090978 -8.9617682 -0.60113293 103.5 0 0 0 69.668961
3.2473412 -8.822485 -0.60139924 125 0 0 0 68.88533
5.4711366 -8.6985388 -0.65813488 308 0 0 0 65.564873
6.8289528 -8.8019228 -0.71446282 137 0 0 0 64.001984
7.5896254 -8.8469467 -0.74786037 278 0 0 0 63.226101
9.1260309 -8.7329969 -0.50040472 186 0 0 0 61.662792
10.106567 -8.760128 -0.53007972 141 0 0 0 60.877487
10.559599 -8.7071228 -0.54228568 98 0 0 0 60.487087
11.824152 -8.8086739 -0.58475131 112 0 0 0 59.703598
13.373396 -8.5051126 -0.62755734 118 0 0 0 58.53458
1.1868443 -8.183279 -0.62755424 675.5 0 0 0 72.211685
7.3075638 -8.1092825 -0.69753641 270 0 0 0 62.829762
7.6661477 -8.0973091 -0.71260095 311 0 0 0 62.443539
8.2522964 -8.093689 -0.73893666 249 0 0 0 61.857742
13.722322 -8.2603559 -0.6333406 90 0 0 0 58.1441
-3.8352745 -7.8320179 -0.98179483 472 0 0 0 81.77726
-3.2671175 -7.8518615 -0.95747733 481.33334 0 0 0 80.798882
-2.7230008 -7.8719864 -0.93769455 408 0 0 0 79.824974
-2.2989831 -7.8732891 -0.92336184 383.5 0 0 0 79.043579
-1.7905213 -7.8976493 -0.91200584 343.66666 0 0 0 78.071114
-1.2881966 -7.8945322 -0.90092772 385 0 0 0 77.095184
-0.79806995 -7.9078012 -0.8956725 434 0 0 0 76.114868
-0.21490489 -7.9181838 -0.89315444 485.33334 0 0 0 74.943321
0.27061701 -7.9335566 -0.89526331 508 0 0 0 73.964783
0.76123953 -7.9565377 -0.9018237 418 0 0 0 72.987885
1.2583762 -7.9695816 -0.91051924 254.5 0 0 0 72.013428
1.7396483 -7.8610616 -0.90851164 270 0 0 0 71.038872
8.6620846 -7.7018147 -0.73959827 154 0 0 0 61.074402
13.58139 -7.7280135 -0.61585635 51 0 0 0 57.750233
5.5139389 -7.1150589 -0.79364669 169 0 0 0 64.001984
8.7687254 -7.2352843 -0.72355121 164 0 0 0 60.487087
13.670381 -7.3401084 -0.61008114 57 0 0 0 57.365261
-3.2135444 -6.5560045 -0.9966079 247.5 0 0 0 81.77726
-2.765193 -6.6389642 -0.98195267 232.33333 0 0 0 80.798889
-2.2434368 -6.7413344 -0.97045726 200.66667 0 0 0 79.630035
-1.7190485 -6.7919183 -0.95723873 192 0 0 0 78.459038
-1.202237 -6.8181229 -0.9462232 181.33333 0 0 0 77.291206
-0.6915102 -6.812571 -0.93614656 171 0 0 0 76.114868
-0.18655097 -6.7060127 -0.91697949 187 0 0 0 74.943321
0.30169764 -6.6223049 -0.90594006 169.33333 0 0 0 73.770325
0.62522757 -6.5912046 -0.90462685 127 0 0 0 72.987
5.7305002 -6.6896024 -0.77498281 208 0 0 0 63.226101
8.845583 -6.9409142 -0.7144779 134 0 0 0 60.089642
13.808846 -6.562058 -0.59820962 64 0 0 0 56.575161
-5.0153389 -6.1021199 -0.88248426 87 0 0 0 85.483261
0.85412973 -6.4702029 -0.89128327 134 0 0 0 72.403465
1.2451062 -6.3885303 -0.88890189 61.666668 0 0 0 71.429314
1.6584455 -6.0929413 -0.86124372 181 0 0 0 70.253593
5.8552475 -6.3481522 -0.75851017 205.5 0 0 0 62.63665
6.0470529 -6.0890951 -0.75272536 255 0 0 0 62.052689
-4.6533761 -5.6563325 -0.63528609 189 0 0 0 85.483398
-2.150243 -5.5300345 -0.94600391 221 0 0 0 80.403214
-1.7832873 -5.5705729 -0.9329685 177 0 0 0 79.434273
-1.2829235 -5.6252351 -0.92042685 145.33333 0 0 0 78.071114
-0.7884866 -5.6422081 -0.90928084 123.25 0 0 0 76.702789
-0.2972106 -5.5808797 -0.89181489 119.66666 0 0 0 75.334152
4.233614 -5.6094666 -0.78592181 284 0 0 0 64.196304
6.285429 -5.7364564 -0.74528629 269 0 0 0 61.270535
6.6833377 -5.5219588 -0.75870162 547 0 0 0 60.487087
9.2743826 -5.7474527 -0.68890923 142 0 0 0 58.33934
11.558104 -5.8486328 -0.50270867 108 0 0 0 56.968418
-5.0830736 -5.0740795 -0.62090653 246 0 0 0 87.056091
-4.9780984 -5.2187572 -0.62395692 243 0 0 0 86.660034
-3.1178536 -5.1782489 -0.96266037 267 0 0 0 83.141006
-2.7708182 -5.3090234 -0.95439893 258.75 0 0 0 82.171432
-2.3495188 -5.4427357 -0.94484138 241.5 0 0 0 80.996719
-0.023757473 -5.481318 -0.87410927 101 0 0 0 74.551323
0.24359734 -5.4645958 -0.87253565 109 0 0 0 73.770325
0.69591546 -5.326448 -0.8565138 92.75 0 0 0 72.402275
1.1965818 -5.1606913 -0.8443135 163.25 0 0 0 70.841721
1.7586727 -5.0004592 -0.84455079 193 0 0 0 69.078384
3.8212547 -5.4731679 -0.74508172 133 0 0 0 64.791847
4.3985353 -5.4045677 -0.69247377 1100 0 0 0 63.620461
4.6812291 -5.2059484 -0.78180271 279.33334 0 0 0 62.833134
6.8343568 -5.3695197 -0.76015794 409 0 0 0 60.089642
9.4783039 -5.4004002 -0.68751287 151 0 0 0 57.750233
9.5748978 -5.1478286 -0.68420345 149 0 0 0 57.365261
-8.0291681 -4.545156 -0.57667923 79 0 0 0 91.35363
-4.0758581 -4.5968208 -0.97728407 214 0 0 0 86.073677
-2.6233132 -4.6077404 -0.97293669 253 0 0 0 82.759155
-2.2508516 -4.6258698 -0.94384903 186.33333 0 0 0 81.713409
-1.7773322 -4.7398977 -0.92888558 127.75 0 0 0 80.214584
-1.2893572 -4.8198934 -0.91582471 77.5 0 0 0 78.654312
-0.80016297 -4.8516259 -0.90284276 71.5 0 0 0 77.095886
-0.25801831 -4.7749462 -0.87801725 50.400002 0 0 0 75.332932
0.26314825 -4.6787906 -0.86003375 38.25 0 0 0 73.574493
0.68681461 -4.5467281 -0.84355229 45 0 0 0 72.080429
1.3507875 -4.6846046 -0.61630791 73.666664 0 0 0 69.994545
1.637694 -4.7729626 -0.76274776 67.333336 0 0 0 69.211586
2.4604464 -4.6661038 -0.84015661 229 0 0 0 66.743118
2.5507076 -4.831553 -0.73972595 130 0 0 0 66.743118
3.4087884 -4.8889842 -0.80964291 222 0 0 0 64.791847
3.6180239 -4.6819992 -0.80331951 198.33333 0 0 0 64.004356
4.9333992 -4.851018 -0.77125674 210.5 0 0 0 61.857742
5.0745535 -4.6343479 -0.76523507 193 0 0 0 61.27132
6.6937718 -4.7477422 -0.61258024 607.5 0 0 0 59.314774
7.1177497 -4.5386653 -0.73513585 533 0 0 0 58.53458
9.6561947 -4.7416868 -0.67554867 160 0 0 0 56.77179
14.074642 -4.6752701 -0.57329416 108 0 0 0 54.63102
-8.3172255 -4.3147392 -0.58584321 251 0 0 0 91.92009
-7.5717549 -4.2878971 -0.86382473 178.5 0 0 0 91.35363
-7.368113 -4.4127545 -0.74675262 140 0 0 0 90.958443
-4.2788019 -4.3750143 -0.97283745 222.5 0 0 0 86.858063
-3.5834363 -4.1450963 -0.958175 301.66666 0 0 0 85.876869
-3.1660767 -4.1305957 -0.82509023 376.42856 0 0 0 84.922157
-2.8561337 -4.2777247 -0.78345507 339.75 0 0 0 83.887917
-2.2566774 -4.4557652 -0.91461653 256 0 0 0 81.97464
-1.7537065 -4.0538397 -0.91288126 80.75 0 0 0 80.994141
-1.2816938 -4.1640425 -0.90103281 37.799999 0 0 0 79.239548
-0.75218642 -4.2196999 -0.88678265 27.6 0 0 0 77.290604
-0.2287025 -4.1878734 -0.86784238 25 0 0 0 75.332932
0.27569371 -4.0786438 -0.84555626 18.6 0 0 0 73.378647
0.74240446 -4.2466621 -0.83818388 28.25 0 0 0 71.720108
1.2617412 -4.2637496 -0.77267683 67.800003 0 0 0 69.862083
1.7841396 -4.2528586 -0.74032313 118.66666 0 0 0 68.140038
2.1133873 -4.262156 -0.75474095 202 0 0 0 67.129181
2.7465696 -4.1981063 -0.71618748 195.83333 0 0 0 65.241356
3.0188382 -4.1202965 -0.81202948 184 0 0 0 64.390617
3.9054592 -4.3513074 -0.79272342 215.66667 0 0 0 62.833134
4.1028819 -4.1414862 -0.78963655 211 0 0 0 62.052689
5.2958384 -4.2714658 -0.7566309 258.75 0 0 0 60.289455
7.1987748 -4.2279816 -0.72586626 427 0 0 0 57.947166
9.8216553 -4.2366934 -0.6698823 178.5 0 0 0 55.993431
14.021996 -4.2782044 -0.56506968 100 0 0 0 54.238449
-17.814915 -3.5406415 -0.72066754 62 0 0 0 96.40329
-3.6574192 -3.649225 -0.94495565 202 0 0 0 87.055443
-2.590142 -3.5679109 -0.90915424 103.5 0 0 0 84.504211
-2.2720697 -3.7670777 -0.90819645 99.800003 0 0 0 83.14476
-1.7200485 -3.6464055 -0.90669727 45.599998 0 0 0 81.504517
-1.4209845 -3.644254 -0.89945161 29 0 0 0 80.403214
0.85909128 -3.9479036 -0.83545345 36.666668 0 0 0 71.038872
1.2710668 -3.7836993 -0.82583952 32.5 0 0 0 69.277107
1.6528374 -3.5620902 -0.81161213 24 0 0 0 67.521515
2.1941209 -3.7638278 -0.7259357 61.444443 0 0 0 66.047127
2.5549202 -3.583667 -0.80601937 68.5 0 0 0 64.591232
3.2762177 -3.7514918 -0.791179 170.33333 0 0 0 63.029087
4.2839165 -3.7315621 -0.76838481 185.60001 0 0 0 60.877666
5.4351926 -3.8574529 -0.73926163 276 0 0 0 59.320049
5.5806465 -3.6585066 -0.73964757 276.5 0 0 0 58.727627
7.3726025 -3.7394724 -0.71707195 279.33334 0 0 0 56.969616
9.928153 -3.8544233 -0.66554701 176 0 0 0 55.416992
10.010765 -3.6056025 -0.66407073 122 0 0 0 55.023849
14.123568 -3.7459679 -0.56124008 104 0 0 0 53.659241
-23.170931 -3.4331539 -0.93935168 53 0 0 0 97.190712
-18.305517 -3.1733043 -0.73767871 29 0 0 0 96.806313
-5.1993532 -3.1997194 -0.96839637 185 0 0 0 90.765961
-3.7985039 -3.4360392 -0.93590897 151 0 0 0 87.824715
-3.1711075 -3.1621995 -0.92351329 90.199997 0 0 0 87.051712
-2.8200252 -3.4221604 -0.91431236 79.666664 0 0 0 85.483398
-2.3379314 -3.1384139 -0.89914501 37.5 0 0 0 84.703171
-1.9038038 -3.435544 -0.90241998 50.5 0 0 0 82.565613
1.9018759 -3.4158745 -0.80805904 28 0 0 0 66.352219
2.8173494 -3.3097661 -0.79575664 74.599998 0 0 0 63.224373
3.0991559 -3.0621877 -0.79694808 68 0 0 0 61.857742
3.6532974 -3.2677035 -0.77681959 131.25 0 0 0 61.074673
4.6113243 -3.1942654 -0.75685191 177.5 0 0 0 59.119724
5.7389245 -3.2768781 -0.73126882 217.66667 0 0 0 57.753201
7.4428306 -3.3242204 -0.70529723 198 0 0 0 56.191673
7.5400372 -3.1472166 -0.70642674 263 0 0 0 55.795193
10.079752 -3.2160354 -0.65894139 190 0 0 0 54.434734
14.135176 -3.1958575 -0.55440623 85 0 0 0 53.067688
-55.310566 -2.7166989 -0.91465664 38 0 0 0 98.754074
-38.42878 -2.8343523 -0.62559897 38 0 0 0 98.368019
-5.3324242 -2.9315057 -0.96478081 117 0 0 0 91.54158
-4.3113065 -2.7263415 -0.93142003 117.4 0 0 0 90.571136
-3.6524532 -2.5678349 -0.91907781 60 0 0 0 89.787827
-3.3627653 -2.8939419 -0.91351604 53 0 0 0 88.219902
-2.7886462 -2.7805133 -0.90417618 26.285715 0 0 0 87.051186
3.3137226 -2.7532885 -0.78772992 60.799999 0 0 0 60.485828
3.8913965 -2.9188442 -0.76988596 116.66666 0 0 0 59.704433
4.0848007 -2.6174116 -0.7671147 142 0 0 0 58.533115
4.8610845 -2.7021432 -0.74889815 232 0 0 0 57.557003
5.9397035 -2.8322248 -0.72674149 279.33334 0 0 0 56.578419
6.0069952 -2.5086432 -0.71758509 261 0 0 0 55.795193
7.6397929 -2.7560644 -0.70097429 241.66667 0 0 0 55.023956
10.038054 -2.6666467 -0.64452124 162.5 0 0 0 53.659241
14.070642 -2.8194644 -0.54740983 66 0 0 0 52.681679
-4.5960126 -2.3119297 -0.9388749 89.333336 0 0 0 92.115761
-3.8579071 -2.2454054 -0.91935211 59.166668 0 0 0 91.151337
-3.2911453 -2.1190689 -0.89693546 16.666666 0 0 0 90.439919
3.4833736 -2.4202988 -0.77416956 56 0 0 0 59.120361
3.6085119 -2.1907566 -0.77007025 61.666668 0 0 0 58.142971
4.2202616 -2.2170496 -0.75259864 131.25 0 0 0 57.164768
4.9565349 -2.3674736 -0.73817593 214 0 0 0 56.575161
5.0089788 -2.1692538 -0.73293477 174.5 0 0 0 55.993431
6.0524158 -2.1846561 -0.70821863 222.33333 0 0 0 55.023956
7.631073 -2.2329655 -0.68397409 211 0 0 0 54.047314
9.9737377 -2.2582967 -0.63273597 163 0 0 0 53.067688
13.890123 -2.2548628 -0.53434646 89.5 0 0 0 52.099464
-4.0291662 -1.843797 -0.91123533 51 0 0 0 92.703827
-3.5480745 -1.6771609 -0.89880365 21.333334 0 0 0 92.506104
-3.4380748 -1.8903521 -0.89856637 20 0 0 0 91.54158
3.7261436 -1.7867506 -0.7528615 42.200001 0 0 0 56.57914
4.3540792 -1.7633464 -0.74021751 84.25 0 0 0 55.606926
5.1030736 -1.7747741 -0.72439748 128.25 0 0 0 54.827576
6.0772157 -1.6981901 -0.69256526 156.33333 0 0 0 53.85231
7.603559 -1.7251498 -0.66861135 184 0 0 0 53.070557
9.9013309 -1.860935 -0.6216532 186.5 0 0 0 52.487373
13.752335 -1.7135626 -0.52387804 104 0 0 0 51.508518
-7.2039337 -1.2514259 -0.98949629 195.33333 0 0 0 96.800102
-6.0066047 -1.3474141 -0.97512859 22 0 0 0 96.015053
-5.8569508 -1.0894988 -0.94246304 143 0 0 0 96.604797
-4.901269 -1.1642879 -0.91776764 92 0 0 0 95.826721
-4.1927495 -1.0494937 -0.88754207 45 0 0 0 95.63839
3.8546746 -1.2916025 -0.73929965 25.799999 0 0 0 54.633301
4.4275632 -1.2439048 -0.72308773 44.200001 0 0 0 53.851124
5.1279922 -1.2324022 -0.70500535 76.75 0 0 0 53.26696
6.0931926 -1.2249178 -0.68027884 143 0 0 0 52.680813
7.5447826 -1.2285857 -0.65327156 190 0 0 0 52.099464
9.850585 -1.3533428 -0.61142761 185 0 0 0 51.707191
13.621017 -1.1894281 -0.51467478 103 0 0 0 50.92709
-7.1723685 -0.70774299 -0.97466272 178.33333 0 0 0 97.972847
-5.8410316 -0.71967888 -0.9306373 134.33333 0 0 0 97.580414
-4.9142685 -0.79160404 -0.90661335 78.75 0 0 0 96.994881
-4.2464595 -0.73609674 -0.88547742 34 0 0 0 96.798912
3.8993745 -0.7891227 -0.72188181 15.6 0 0 0 52.682117
4.4308515 -0.72589195 -0.70382994 29.5 0 0 0 52.097282
5.1624665 -0.71193206 -0.69481963 88.5 0 0 0 51.706749
6.0780988 -0.75919026 -0.66861504 133 0 0 0 51.511307
7.4766455 -0.65512371 -0.63901323 190.5 0 0 0 50.92709
7.5110683 -0.93903416 -0.64561403 206 0 0 0 51.508518
9.7653828 -0.85401338 -0.60067922 180 0 0 0 50.92709
13.403343 -0.67247361 -0.50277799 113 0 0 0 50.348129
-7.089797 -0.26185852 -0.95869708 132.5 0 0 0 98.946304
-5.780951 -0.28272808 -0.91462541 128.33333 0 0 0 98.75354
-4.8740854 -0.29987687 -0.88876367 60 0 0 0 98.557991
-4.2254272 -0.2592302 -0.86902112 28 0 0 0 98.557983
3.9250095 -0.25902921 -0.71255606 22.6 0 0 0 50.574326
4.4422007 -0.22620752 -0.69585913 51.200001 0 0 0 50.342247
5.1341619 -0.19591323 -0.68315715 106.25 0 0 0 50.147926
6.0506186 -0.22941004 -0.6590994 164.5 0 0 0 50.147926
7.4281058 -0.19088781 -0.63093323 209.66667 0 0 0 49.952358
9.6527987 -0.2478586 -0.58927369 190.33333 0 0 0 49.952358
3.8710511 0.33330637 -0.70179784 28 0 0 0 48.203346
4.4170694 0.26880157 -0.69068015 44.5 0 0 0 48.586597
5.0703092 0.30972996 -0.67364955 101.75 0 0 0 48.586597
5.9855685 0.29257789 -0.65030271 174.33333 0 0 0 48.782253
7.396225 0.26687765 -0.62675142 241.5 0 0 0 48.979218
9.5562687 0.3446306 -0.58120883 192.5 0 0 0 48.979218
-4.59831 0.89671731 -0.85016459 41 0 0 0 2.74158
-4.0401058 0.8357867 -0.84022689 24 0 0 0 2.93349
-3.9900489 0.9760589 -0.83582914 18 0 0 0 3.5156801
4.3263092 0.7537474 -0.68404669 37.599998 0 0 0 46.834282
4.9747982 0.93155628 -0.66909671 87.5 0 0 0 46.637993
5.0154815 0.6836012 -0.66988528 87 0 0 0 47.421028
5.9248624 0.73281211 -0.64639574 162 0 0 0 47.613903
7.325995 0.71910292 -0.62185997 209 0 0 0 48.002079
9.456192 0.80927265 -0.57507408 188.5 0 0 0 48.193977
-6.5321074 1.2835764 -0.90898573 157 0 0 0 2.74158
-6.4440923 1.4286194 -0.90017468 175 0 0 0 3.1254001
-5.3284111 1.2449477 -0.86696559 87.75 0 0 0 3.3238151
-4.5390325 1.1136869 -0.84740275 48.666668 0 0 0 3.5178936
-4.4160633 1.3691795 -0.83675241 48.5 0 0 0 4.493125
-3.8714035 1.2213678 -0.82527155 19.75 0 0 0 4.5908875
4.1927381 1.2250701 -0.67878383 46.75 0 0 0 45.079193
4.9018822 1.301614 -0.66971648 117.5 0 0 0 45.469383
5.8362656 1.2427936 -0.64467949 169 0 0 0 46.24897
7.2025642 1.2511022 -0.61569446 142.66667 0 0 0 46.833252
9.2765007 1.2571708 -0.56532204 210.5 0 0 0 47.421028
-8.1412706 1.7070857 -0.9441722 170.5 0 0 0 2.93349
-6.2895908 1.7987627 -0.89011085 181 0 0 0 4.1065502
-5.1057024 1.725608 -0.85122496 137 0 0 0 4.8805976
-4.843576 1.9695061 -0.82287377 71 0 0 0 5.8572998
-4.1805434 1.7506105 -0.81861836 41.5 0 0 0 6.048305
-3.7355983 1.5083414 -0.81732726 21 0 0 0 5.8572998
3.9281464 1.9385731 -0.67876554 102.5 0 0 0 42.347694
4.0812593 1.648204 -0.68312114 92 0 0 0 43.516212
4.7187071 1.7694824 -0.66399753 154.5 0 0 0 43.907135
5.7085452 1.7433051 -0.64329821 200.66667 0 0 0 44.883419
6.9723792 1.9366724 -0.6069209 124 0 0 0 45.275318
7.0812998 1.6865625 -0.61153555 127.5 0 0 0 45.859947
9.1225357 1.6987994 -0.55866611 181 0 0 0 46.637993
-10.500816 2.3476112 -0.97141421 119 0 0 0 3.1254001
-8.9095745 2.4469295 -0.8258183 45 0 0 0 3.9126
-7.8602843 2.2551398 -0.92466772 185.5 0 0 0 4.1065502
-6.1002445 2.0680633 -0.87444568 199.5 0 0 0 4.8785954
-5.9156313 2.3297288 -0.86123347 206 0 0 0 5.6610003
-4.7189307 2.2587266 -0.82259411 114.5 0 0 0 6.8291202
-4.4955149 2.4961345 -0.80627722 127 0 0 0 7.8022599
-3.8048458 2.2855229 -0.79886526 58 0 0 0 8.3909636
3.7312646 2.2644777 -0.67577112 67.400002 0 0 0 40.978291
4.3929176 2.3736989 -0.65598541 136.66667 0 0 0 41.760654
4.5611286 2.1097682 -0.66099131 189.5 0 0 0 42.735855
5.4352727 2.3491282 -0.63624907 192 0 0 0 43.129074
5.5578966 2.0819054 -0.63847631 198.5 0 0 0 43.903351
6.8332138 2.2672856 -0.60283661 140.33333 0 0 0 44.490368
8.9324484 2.2410648 -0.55258048 159.33333 0 0 0 45.66507
-13.390994 2.6599684 -0.91071153 66 0 0 0 2.74158
-9.1914663 2.7664306 -0.62360835 507 0 0 0 4.3004999
-8.7225075 2.7798765 -0.7391054 467.33334 0 0 0 4.5573335
-8.2890663 2.9388354 -0.7809186 517 0 0 0 5.0714402
-7.6051092 2.5864859 -0.90576702 213 0 0 0 4.8785954
-7.3459353 2.9026074 -0.88812935 329.5 0 0 0 5.6610003
-5.6536999 2.6307015 -0.84235638 189.66667 0 0 0 6.6321297
-5.4145794 2.9303741 -0.82947606 234 0 0 0 7.6111751
-4.2530117 2.7807186 -0.79550207 150.39999 0 0 0 8.97542
-3.5303404 2.5501895 -0.78129148 65 0 0 0 9.7536697
-3.2689111 2.8100493 -0.77275831 64.166664 0 0 0 11.117873
-2.9230347 2.9762621 -0.74491507 37 0 0 0 12.48198
3.3302293 2.7761097 -0.66976076 54.400002 0 0 0 38.637951
3.5338247 2.5242536 -0.67113042 46 0 0 0 39.803558
4.1909122 2.7593307 -0.65857995 119.75 0 0 0 40.391411
5.2334356 2.7401767 -0.63395178 226 0 0 0 41.956188
6.6174417 2.7558324 -0.59882158 217 0 0 0 43.322895
8.7327766 2.7739298 -0.54793501 223.5 0 0 0 44.687469
-8.6655121 3.1917143 -0.59568757 537.5 0 0 0 5.2680702
-8.2383652 3.2656076 -0.67514241 585.5 0 0 0 5.6610003
-7.8279333 3.3208065 -0.75123882 455.5 0 0 0 6.0490799
-7.0628314 3.1945524 -0.86907303 514 0 0 0 6.4357901
-6.8612199 3.4092839 -0.85712701 495 0 0 0 7.0248098
-5.1527863 3.2056539 -0.81560403 258.66666 0 0 0 8.584836
-4.9316359 3.4102819 -0.80400556 274 0 0 0 9.3689203
-4.0139208 3.0636795 -0.78857458 141 0 0 0 10.14637
-3.7186925 3.2088225 -0.76519972 151 0 0 0 11.118782
-3.4320135 3.42836 -0.75395155 163.5 0 0 0 12.28386
-2.7290876 3.2186341 -0.75407094 71.800003 0 0 0 13.656507
-2.376013 3.4275491 -0.74388027 58.666668 0 0 0 15.22104
2.8073032 3.320781 -0.67047906 105.4 0 0 0 35.898781
3.1078839 3.086134 -0.67579556 87 0 0 0 37.267921
3.8280261 3.2669339 -0.65946478 139 0 0 0 38.441696
4.07024 3.0577219 -0.66771919 126 0 0 0 39.422981
4.8719134 3.3783572 -0.6346972 208.5 0 0 0 40.002533
5.0399671 3.1366851 -0.63610458 242 0 0 0 40.780285
6.3917923 3.2377183 -0.59736937 268.66666 0 0 0 42.151012
8.4046211 3.4942164 -0.54214072 203 0 0 0 43.329239
8.5602961 3.1925268 -0.54512525 227.5 0 0 0 43.903351
-11.734546 3.5414693 -0.50993699 65 0 0 0 4.3004999
-8.1710043 3.5862393 -0.57154465 654 0 0 0 6.24086
-7.77879 3.7186306 -0.61752409 627 0 0 0 6.7620835
-7.2057595 3.8058817 -0.71501023 518 0 0 0 7.41572
-6.6465893 3.609098 -0.84439385 538 0 0 0 7.6111751
-6.3742981 3.8728542 -0.83049178 501.5 0 0 0 8.3896799
-4.6846614 3.5855372 -0.78941512 251.66667 0 0 0 10.145343
-4.3484235 3.8608348 -0.77595693 238.33333 0 0 0 11.313046
-3.1565988 3.6491072 -0.74899197 172.5 0 0 0 13.460253
-2.7407026 3.8707392 -0.73443842 135.75 0 0 0 15.026163
-2.1084909 3.5729568 -0.73945242 57.666668 0 0 0 16.383856
-1.7339811 3.7225652 -0.73149788 48 0 0 0 17.947536
-1.260318 3.8877778 -0.72752941 47.599998 0 0 0 19.899906
-0.76936263 3.9817195 -0.72146708 27.799999 0 0 0 21.84483
-0.23921448 3.9941788 -0.71156973 26 0 0 0 23.92835
0.21908335 3.958231 -0.70473284 17.4 0 0 0 25.751862
0.60664099 3.9077551 -0.70307344 31.666666 0 0 0 27.311209
1.934757 3.9694495 -0.67902452 59 0 0 0 31.989599
2.2435994 3.7406042 -0.67164344 66.5 0 0 0 33.35709
2.5754662 3.552525 -0.67588723 112 0 0 0 34.72728
3.2999814 3.7978523 -0.6581555 186.75 0 0 0 36.095547
3.571187 3.5392821 -0.65801215 161.5 0 0 0 37.267921
4.4560423 3.891413 -0.63214922 219 0 0 0 38.24292
4.6482034 3.6693146 -0.63340974 220.33333 0 0 0 39.029079
5.9294844 3.99248 -0.59407753 259 0 0 0 40.201511
6.1250672 3.6973152 -0.59538692 267.33334 0 0 0 40.977432
8.2389975 3.7890973 -0.53932077 196.5 0 0 0 42.735855
-7.6251478 4.0313993 -0.54801863 723 0 0 0 7.4200902
-7.2684455 4.3048239 -0.53401023 762 0 0 0 8.1938734
-6.7182078 4.199945 -0.69129664 534 0 0 0 8.584836
-6.2098022 4.238934 -0.7723313 678 0 0 0 9.2376633
-5.8147144 4.3565874 -0.80481029 603 0 0 0 9.9500198
-4.1226368 4.0350342 -0.76826847 290 0 0 0 12.08574
-3.7827702 4.1772661 -0.74866939 326 0 0 0 13.068997
-3.3692443 4.4271512 -0.7368831 297.66666 0 0 0 14.438861
-2.2827017 4.1156225 -0.72764111 132.60001 0 0 0 16.773041
-1.7478672 4.3218355 -0.71944106 100 0 0 0 18.729385
-1.2518785 4.451345 -0.7123971 90.5 0 0 0 20.48543
-0.32218844 4.0091362 -0.71482408 38.5 0 0 0 23.60351
0.33273488 4.4724073 -0.68885016 30.333334 0 0 0 26.013029
0.75525129 4.4304199 -0.69050282 68 0 0 0 27.504551
1.2272911 4.2684274 -0.68255907 72.400002 0 0 0 29.261353
1.6759598 4.0609522 -0.67525315 55.25 0 0 0 31.019543
2.3896291 4.4559212 -0.65987235 108.5 0 0 0 32.576782
2.7616642 4.225131 -0.65966457 156 0 0 0 33.943249
3.0783637 4.0211692 -0.66200036 166 0 0 0 35.111721
3.9733636 4.4482055 -0.6366148 261 0 0 0 36.292198
4.2310085 4.1844897 -0.63578689 264 0 0 0 37.26976
5.758615 4.3061595 -0.59731179 272.33334 0 0 0 39.418667
7.9397359 4.3910046 -0.5382123 223 0 0 0 41.564682
8.0910683 4.0908504 -0.53843021 202 0 0 0 42.152592
-6.7704663 4.7077785 -0.51739836 846 0 0 0 9.3659134
-6.2701263 4.7477927 -0.61614466 768 0 0 0 10.01547
-5.7770023 4.7509723 -0.70405459 646.33331 0 0 0 10.663989
-5.2542233 4.6816134 -0.77573436 541.66669 0 0 0 11.313046
-4.8833437 4.9154034 -0.76128054 624.5 0 0 0 12.28386
-3.0590873 4.5719481 -0.7271089 237.5 0 0 0 15.417536
-2.6938405 4.741734 -0.71961838 202 0 0 0 16.578552
-2.2659042 4.9274807 -0.71412039 201.33333 0 0 0 17.94722
-0.75166237 4.5513487 -0.71020478 55.799999 0 0 0 22.235117
-0.24190235 4.5699492 -0.70366442 80.5 0 0 0 23.993896
0.15066722 4.5463676 -0.6990298 54 0 0 0 25.360106
1.4384954 4.9656682 -0.67443258 145 0 0 0 29.26141
1.7817005 4.793807 -0.66749156 139.39999 0 0 0 30.433197
2.1860275 4.6115413 -0.666031 134 0 0 0 31.798401
3.4167309 4.9381409 -0.64045399 259 0 0 0 34.340099
3.708647 4.7088509 -0.63981873 248.5 0 0 0 35.311348
5.396657 4.8163133 -0.60005951 343.5 0 0 0 38.051262
5.5728931 4.6138082 -0.60051334 324 0 0 0 38.634792
7.7298107 4.7880058 -0.5385921 252 0 0 0 40.780285
-6.2766533 5.0818858 -0.50292516 784 0 0 0 10.53599
-5.5783482 5.1040592 -0.65141952 673 0 0 0 11.509575
-5.290257 5.3363314 -0.64550471 715.5 0 0 0 12.28386
-4.5997815 5.1042824 -0.75324976 584 0 0 0 13.068225
-4.2378693 5.3204298 -0.74373966 389.33334 0 0 0 14.048697
-3.9448678 5.4814296 -0.73672944 337 0 0 0 14.82805
-2.0314035 5.0565071 -0.7169137 193 0 0 0 18.733391
-1.7124276 5.1526394 -0.71373618 185.25 0 0 0 19.704889
-1.2545341 5.2390542 -0.70674753 164 0 0 0 21.067436
-0.79630619 5.2962923 -0.70170236 146 0 0 0 22.429573
-0.26964498 5.2943387 -0.69334388 158.25 0 0 0 23.993896
0.25191656 5.2710123 -0.68948913 122.25 0 0 0 25.556889
0.76412755 5.1844978 -0.68428361 96.75 0 0 0 27.116344
1.2005428 5.0687814 -0.67985517 136.66667 0 0 0 28.478302
2.7385025 5.4015913 -0.64564115 205.5 0 0 0 32.187592
3.171253 5.1062913 -0.64092183 222 0 0 0 33.549622
4.9157019 5.3488731 -0.60199416 172 0 0 0 36.4879
5.163085 5.0884466 -0.601008 247 0 0 0 37.267921
7.3212276 5.3231068 -0.53491867 177.5 0 0 0 39.61327
7.5590086 5.0788703 -0.53885478 293 0 0 0 40.201511
-5.083745 5.5178199 -0.64320129 749 0 0 0 12.87131
-4.7242451 5.8005924 -0.63951534 815.75 0 0 0 13.852808
-3.6940732 5.5484557 -0.72588283 342.5 0 0 0 15.417536
-3.2433391 5.7402802 -0.71612269 259.25 0 0 0 16.578552
-2.7008486 5.908638 -0.70312923 290.66666 0 0 0 17.94722
1.7232156 5.9059844 -0.65589976 133.33333 0 0 0 29.261068
2.1993611 5.66642 -0.64781344 202.25 0 0 0 30.628132
3.9193294 5.9519029 -0.58904332 109 0 0 0 33.941792
4.2422366 5.7951961 -0.59429318 115.66666 0 0 0 34.726368
4.6490898 5.5895796 -0.6021933 151 0 0 0 35.703194
6.2264862 5.9749484 -0.50693142 703 0 0 0 37.465618
6.6704445 5.7938733 -0.52038842 254.33333 0 0 0 38.245773
7.0192137 5.5132093 -0.52648032 164 0 0 0 39.029461
-4.2220235 6.1985016 -0.63847154 908.66669 0 0 0 15.22104
-3.9315572 6.4261999 -0.63993782 820 0 0 0 15.99404
-2.2508039 6.0654736 -0.69859618 265.33334 0 0 0 19.11875
-1.7871841 6.1729102 -0.69232851 224 0 0 0 20.292223
-1.2463632 6.2780704 -0.68807375 195.5 0 0 0 21.650665
-0.69954157 6.3375397 -0.68384331 185.33333 0 0 0 23.016876
-0.22901966 6.2966666 -0.6743533 225 0 0 0 24.187643
0.23770805 6.3109851 -0.67522973 85.333336 0 0 0 25.361526
0.76679546 6.172112 -0.66402429 115 0 0 0 26.727348
1.2957929 6.0768356 -0.66286713 90.666664 0 0 0 28.088503
2.2488239 6.4608436 -0.56371182 698.66669 0 0 0 30.043489
2.7713134 6.3897099 -0.57448244 563 0 0 0 31.214241
3.3210285 6.3237133 -0.59012741 313 0 0 0 32.381058
3.71787 6.1283875 -0.59249651 114.5 0 0 0 33.353535
-3.7107823 6.5986443 -0.64224678 818 0 0 0 16.578766
-3.4185081 6.8445492 -0.64804339 735 0 0 0 17.356815
0.9526239 6.8790097 -0.57353276 499 0 0 0 26.917521
1.2470945 6.6106801 -0.55432761 645 0 0 0 27.700226
1.7379154 6.5150108 -0.55532986 696.66669 0 0 0 28.870581
-3.1111119 7.0785112 -0.65393448 720.5 0 0 0 18.145336
-2.7150199 7.3787341 -0.66395599 523.33331 0 0 0 19.118752
0.48079163 7.4446654 -0.6193642 468 0 0 0 25.750731
0.72492373 7.1592689 -0.59588367 460 0 0 0 26.33736
-2.2682276 7.5637097 -0.66525686 246.5 0 0 0 20.098351
-1.7946692 7.6632481 -0.66147739 372.33334 0 0 0 21.067436
-1.2188492 7.72896 -0.65563101 256.33334 0 0 0 22.233938
-0.73554564 7.7148018 -0.64759302 196 0 0 0 23.214569
-0.25768992 7.6164818 -0.63508719 227.66667 0 0 0 24.187643
0.21147941 7.6094189 -0.63322389 232 0 0 0 25.166925
-1.5195984 8.3407831 -0.50459033 488 0 0 0 21.84816
-1.3311687 8.4910297 -0.51131463 486 0 0 0 22.232161
-1.136578 8.6399813 -0.51822501 579 0 0 0 22.62149
-0.83322632 8.8717155 -0.5296905 474.5 0 0 0 23.214569
-0.49314341 8.6223736 -0.51132345 252 0 0 0 23.794359
-5.2217565 -9.7400665 -0.43775135 185 0 0 0 82.372063
15.332397 -9.7444334 -0.27957746 17 0 0 0 58.53458
-5.3680711 -9.4493647 -0.42942712 335 0 0 0 82.759155
3.5545619 -9.3000431 -0.3949956 37 0 0 0 68.692268
8.2203417 -9.1180305 -0.48771787 126 0 0 0 62.829762
8.6413727 -9.1211472 -0.19170029 464 0 0 0 62.443539
12.24726 -9.120594 -0.23298332 18 0 0 0 59.703598
-15.938496 -8.5174227 -0.28067493 127 0 0 0 91.72953
-5.2886772 -8.8013344 -0.27766174 388 0 0 0 83.141006
8.0650711 -8.517539 -0.46374166 184 0 0 0 62.443539
8.8593693 -8.9049664 -0.49825889 282 0 0 0 62.052689
-16.211033 -8.1583757 -0.28144494 98 0 0 0 92.110649
1.1838286 -8.1610546 -0.22163995 1337 0 0 0 72.211685
9.3274117 -8.4968653 -0.49897438 149 0 0 0 61.27132
13.123502 -7.8990846 -0.2291263 115 0 0 0 58.1441
14.976248 -7.5690923 -0.25028577 21 0 0 0 56.968418
3.7687838 -7.1141901 -0.11466753 104 0 0 0 66.743118
13.157675 -7.2747741 -0.22250763 117.5 0 0 0 57.557747
3.7707651 -6.7169251 -0.10792863 162 0 0 0 66.355659
4.8410358 -6.9280124 -0.32728678 71 0 0 0 64.791847
-5.2439461 -6.2712874 -0.37633577 324.33334 0 0 0 85.615448
3.326967 -6.2902226 -0.44568074 180.66667 0 0 0 66.742653
3.8701982 -6.3378458 -0.10239279 257.5 0 0 0 65.761368
4.289948 -6.3045325 -0.10548854 240.5 0 0 0 64.983673
-24.532927 -5.5089006 -0.39757362 21 0 0 0 96.015053
-5.7331419 -5.7228546 -0.35529193 193.25 0 0 0 87.055603
-5.4434338 -5.9947348 -0.30757073 186 0 0 0 86.267532
3.8335347 -5.7920179 -0.43325555 278 0 0 0 65.175499
4.0812402 -5.6511154 -0.3776423 435.66666 0 0 0 64.524361
17.07052 -5.6645603 -0.26185626 146 0 0 0 54.63102
21.429377 -5.9556198 -0.32799593 94 0 0 0 53.856178
1.8713453 -5.1146793 -0.46809775 97 0 0 0 68.88533
4.2405457 -5.3908715 -0.20342505 1128.1666 0 0 0 63.875992
11.206889 -5.1599684 -0.32581186 250.5 0 0 0 56.383415
17.202774 -5.2427969 -0.26026842 73 0 0 0 54.238449
21.415251 -5.3885989 -0.32343489 46 0 0 0 53.462299
-26.401205 -4.5809417 -0.42517194 194 0 0 0 96.806313
1.2853718 -4.5269365 -0.28323364 23 0 0 0 70.057541
2.6494856 -4.7391553 -0.46600914 102 0 0 0 66.352219
6.8070445 -4.7030745 -0.21086255 699.5 0 0 0 59.120361
11.191769 -4.8230247 -0.16992125 134 0 0 0 55.993431
11.623309 -4.619206 -0.37815747 249.66667 0 0 0 55.54306
21.233171 -4.7913918 -0.31637156 32 0 0 0 53.067688
-8.3355474 -4.1930728 -0.35479298 373 0 0 0 92.110649
-3.1207788 -4.1027589 -0.21937005 510.57144 0 0 0 84.865562
-2.944622 -4.2388692 -0.2891393 473.5 0 0 0 84.180382
1.315017 -4.3385372 -0.40973157 60 0 0 0 69.764862
1.8279047 -4.2957187 -0.20794189 111.92857 0 0 0 68.051956
2.173027 -4.3821015 -0.41640875 148 0 0 0 67.129181
11.768685 -4.2348428 -0.17272125 140 0 0 0 55.023849
21.879175 -4.3747058 -0.32315877 21 0 0 0 52.681679
-18.317467 -3.6436973 -0.28558457 125 0 0 0 96.40329
1.409575 -3.8697388 -0.44678393 19.5 0 0 0 68.88533
1.7020457 -3.6614997 -0.43750995 20 0 0 0 67.522293
2.1969364 -3.7801266 -0.33382359 22.428572 0 0 0 66.071419
2.6239879 -3.7767582 -0.38891742 37.333332 0 0 0 64.785988
21.948828 -3.8302279 -0.32066134 23 0 0 0 52.293072
21.784443 -3.2521222 -0.31464598 28 0 0 0 51.905861
21.560413 -2.6788621 -0.3079575 26 0 0 0 51.508518
21.41114 -2.1274064 -0.30275115 27 0 0 0 51.119541
21.190109 -1.5805757 -0.29669538 31 0 0 0 50.734638
21.059181 -1.0510147 -0.29230404 26 0 0 0 50.348129
20.885157 -0.5280633 -0.28747639 33 0 0 0 49.951328
13.338253 -0.17620806 -0.49787521 96.5 0 0 0 49.754471
20.743288 -0.014282575 -0.28338996 32 0 0 0 49.55761
13.278961 0.31528175 -0.49389267 111 0 0 0 49.170033
20.612898 0.49282464 -0.27972007 26 0 0 0 49.170033
13.159374 0.79875302 -0.48835981 116 0 0 0 48.58836
20.423285 0.99127716 -0.2753883 27 0 0 0 48.788406
12.963552 1.2696744 -0.48046392 93 0 0 0 47.999641
20.206776 1.4796464 -0.27085039 43 0 0 0 48.388313
12.749893 1.725955 -0.47267851 119 0 0 0 47.421028
19.99766 1.9598821 -0.26666722 32 0 0 0 47.999641
12.456877 2.4758139 -0.46365067 108 0 0 0 46.444519
12.548828 2.174129 -0.46600682 121 0 0 0 46.83147
19.757435 2.4283521 -0.26224884 39 0 0 0 47.618286
12.389903 2.7815216 -0.4626008 119 0 0 0 46.053368
19.496494 2.8847845 -0.25771683 39 0 0 0 47.223766
12.209362 3.2190838 -0.45844889 118.5 0 0 0 45.470924
19.270527 3.3377559 -0.25392249 50 0 0 0 46.83147
-11.225443 3.6870863 -0.48865983 109 0 0 0 4.68575
-10.216091 3.7723646 -0.31035784 189 0 0 0 5.2680702
-9.6941566 3.9806378 -0.17165703 389 0 0 0 5.8572998
-9.2578011 3.7999408 -0.40452924 452.33334 0 0 0 5.8542867
11.915992 3.9412825 -0.45325962 127 0 0 0 44.492607
12.023849 3.6508415 -0.45469666 123 0 0 0 44.882328
19.101868 3.7948372 -0.25119701 33 0 0 0 46.444519
-13.116011 4.3109555 -0.24242994 83 0 0 0 4.68575
-11.61696 4.1298347 -0.21121748 153 0 0 0 5.0714402
-9.3613415 4.2478685 -0.16576838 415 0 0 0 6.4357901
-8.735713 4.2235279 -0.388017 450 0 0 0 6.827765
-8.4237661 4.4587932 -0.37865293 586 0 0 0 7.4200902
11.814222 4.2334404 -0.45244983 133 0 0 0 44.096161
18.995638 4.2620687 -0.24959779 26 0 0 0 46.053368
-9.0450697 4.5094967 -0.16041882 435 0 0 0 7.0248098
-8.7329903 4.7581563 -0.1553811 412 0 0 0 7.6111751
-8.1428719 4.6969233 -0.37121969 520.5 0 0 0 8.0000353
-7.8572621 4.9228549 -0.36386895 426 0 0 0 8.5815496
11.697033 4.6861725 -0.45335662 131 0 0 0 43.51989
18.71311 4.6852064 -0.24557649 34 0 0 0 45.666527
-8.2415972 5.1619115 -0.14803573 465.66666 0 0 0 8.584836
-7.7647839 5.2714 -0.25112784 550 0 0 0 9.1720352
-7.3411674 5.2444062 -0.35027069 253 0 0 0 9.5612946
-6.8145876 5.3843002 -0.33365625 245 0 0 0 10.34118
-6.2864685 5.3498859 -0.41128826 661.5 0 0 0 10.91999
-5.8982964 5.4011335 -0.49536955 738.5 0 0 0 11.509575
8.748229 5.1678605 -0.27348712 433.33334 0 0 0 41.107952
11.388999 5.3991299 -0.45169646 120 0 0 0 42.542793
11.502081 5.109416 -0.45167568 130 0 0 0 42.928913
18.455116 5.1064086 -0.24211073 45 0 0 0 45.275318
-7.6639891 5.6192961 -0.1401227 832 0 0 0 9.7536697
-7.3883882 5.8431606 -0.13676256 732.5 0 0 0 10.34118
-6.2078853 5.688117 -0.31922311 547.5 0 0 0 11.509575
-5.722074 5.7298741 -0.43265507 729.33331 0 0 0 12.21782
-5.3042164 5.9050503 -0.48770678 863 0 0 0 13.068225
5.9491496 5.9994826 -0.28761995 1005 0 0 0 37.070221
6.2269201 5.9764557 -0.18882349 858.5 0 0 0 37.465618
6.6550612 5.9260616 -0.19631374 817.5 0 0 0 38.051262
7.2658787 5.8504615 -0.2076599 806.5 0 0 0 38.832127
7.7669907 5.7932239 -0.21748884 773 0 0 0 39.422981
8.2441216 5.733593 -0.18514304 736 0 0 0 39.936207
8.6685553 5.6141419 -0.27717867 577.33331 0 0 0 40.456837
11.19598 5.8241162 -0.451386 108 0 0 0 41.95512
18.133547 5.7453537 -0.2382936 35 0 0 0 44.687469
-7.1110349 6.0592093 -0.13352379 592 0 0 0 10.91999
-6.7547913 6.3484216 -0.12985936 690.33331 0 0 0 11.70163
-5.7248592 6.0725212 -0.31303698 835 0 0 0 12.676645
-5.2972093 6.247303 -0.36854017 858.33331 0 0 0 13.526753
-4.7734361 6.3266754 -0.48386583 812.33331 0 0 0 14.438859
1.9027185 6.4908442 -0.22345716 834 0 0 0 29.261408
2.2439363 6.4511714 -0.22583424 832.55554 0 0 0 30.043491
2.7707379 6.3910942 -0.23069552 803.22223 0 0 0 31.214241
3.2272723 6.3376365 -0.23616397 778.66669 0 0 0 32.182926
3.7046254 6.2775812 -0.24297911 863.55554 0 0 0 33.161461
4.2044978 6.2114563 -0.25112495 918.5 0 0 0 34.140945
4.7467136 6.1505795 -0.26154399 872.22223 0 0 0 35.114212
5.3249326 6.0811996 -0.27372465 924.83331 0 0 0 36.097485
5.8002634 6.0256772 -0.28454381 884.40002 0 0 0 36.838249
17.798191 6.3715944 -0.234779 29 0 0 0 44.096161
-6.2286277 6.7778893 -0.12517719 665.66669 0 0 0 12.87281
-5.6439381 6.773602 -0.11619337 654 0 0 0 13.65756
-5.2152691 6.6868033 -0.24386637 1131 0 0 0 14.17851
-4.782299 6.8523993 -0.30756366 787 0 0 0 15.024765
-4.2371359 6.7476673 -0.48381725 829.5 0 0 0 15.801917
0.94858789 6.8621325 -0.23105049 607 0 0 0 26.917521
1.2447246 6.6054368 -0.22269017 654 0 0 0 27.700228
1.6507983 6.5172944 -0.22220458 682.33331 0 0 0 28.675165
17.553848 6.7760701 -0.23241307 32 0 0 0 43.710541
-5.1855812 7.057992 -0.11248012 1264.5 0 0 0 14.63479
-4.7433839 7.2270565 -0.17619359 827.33331 0 0 0 15.482887
-4.215694 7.3018947 -0.30744183 728.66669 0 0 0 16.383858
-3.6935117 7.1834602 -0.48800763 967.33331 0 0 0 17.1642
-3.3764586 7.4422808 -0.49245828 677 0 0 0 17.94533
0.47913626 7.4456844 -0.25247177 705.33331 0 0 0 25.750731
0.72185206 7.1476579 -0.24135773 729.83331 0 0 0 26.337362
17.290298 7.1682386 -0.22994277 35 0 0 0 43.329239
-4.5926762 7.5246611 -0.10979933 807 0 0 0 15.99404
-4.248673 7.7979026 -0.10882717 634.66669 0 0 0 16.77339
-3.7180538 7.6974168 -0.3094351 719.66669 0 0 0 17.552986
-3.2023363 7.7203851 -0.43314984 447.33334 0 0 0 18.474691
-2.7115293 7.6599293 -0.48679036 199 0 0 0 19.31143
-2.2277822 7.7839241 -0.48315361 425.66666 0 0 0 20.292223
0.21455818 7.7722821 -0.26517847 659.5 0 0 0 25.166925
16.868801 7.987854 -0.22714108 34 0 0 0 42.542793
17.062035 7.5710077 -0.22816989 44 0 0 0 42.928913
-3.7245357 8.2243834 -0.10815874 648.66669 0 0 0 17.94722
-3.1113224 8.1659918 -0.31390256 615 0 0 0 18.924896
-2.7386715 8.4067993 -0.3162604 415.5 0 0 0 19.70503
-2.2910063 8.4062967 -0.30948457 276.5 0 0 0 20.486534
-1.8561769 8.2505379 -0.43340683 544.33331 0 0 0 21.195797
-0.21739806 8.2538881 -0.28490764 591.14288 0 0 0 24.300007
16.664522 8.3993483 -0.22613198 42 0 0 0 42.152592
-3.269567 8.5859699 -0.10814169 580 0 0 0 18.924896
-2.8926167 8.8886185 -0.10864186 518.5 0 0 0 19.70503
-1.6985297 8.7356596 -0.3143855 517 0 0 0 21.652725
-1.4061251 8.9958601 -0.32122102 422 0 0 0 22.232161
-0.72970581 8.9211063 -0.2038562 572 0 0 0 23.412661
-0.4966003 8.6275272 -0.089343123 600 0 0 0 23.794359
16.429949 8.7948284 -0.22483802 35 0 0 0 41.757648
-2.6002724 9.120388 -0.10924954 495 0 0 0 20.2931
-2.2987065 9.3647881 -0.11020726 418 0 0 0 20.872509
-1.1986566 9.1426649 -0.32495138 453 0 0 0 22.62149
-0.98084474 9.2308416 -0.21339309 520.5 0 0 0 23.016479
16.222614 9.2045631 -0.22417821 54 0 0 0 41.371719
-1.7645167 9.7513895 -0.11181913 351 0 0 0 21.845871
-1.2497444 9.54037 -0.10579079 527 0 0 0 22.62149
19.494131 -59.108421 0.38389537 10 0 0 0 69.471245
21.073248 -58.989155 0.3878279 12 0 0 0 69.078384
27.937105 -55.57523 0.39532757 12 0 0 0 67.129181
28.675438 -53.718624 0.39000228 5 0 0 0 66.743118
-27.35409 -51.157616 0.38160664 10 0 0 0 82.372063
-32.061111 -50.618084 0.39996919 7 0 0 0 83.528519
12.529243 -50.138756 0.32106456 11 0 0 0 70.643837
28.06151 -49.602848 0.36945349 8 0 0 0 66.355659
31.493177 -49.796288 0.38558894 9 0 0 0 65.564873
-18.547115 -48.046917 0.33317295 16 0 0 0 80.403214
-17.213474 -48.069202 0.32885754 20 0 0 0 80.015953
-14.424664 -47.501114 0.31746608 16 0 0 0 79.24015
-13.094151 -47.258301 0.31247818 9 0 0 0 78.847
-11.803029 -47.053806 0.30804831 22 0 0 0 78.460602
-10.584244 -47.056667 0.30507308 25 0 0 0 78.069504
8.156848 -47.168606 0.2973125 21 0 0 0 71.815163
-9.2860165 -46.593712 0.29973289 19 0 0 0 77.683235
9.2824898 -46.808491 0.29731834 17 0 0 0 71.434357
-5.6667585 -45.783695 0.28859755 13 0 0 0 76.509918
-4.5015473 -45.496521 0.28527763 15 0 0 0 76.110863
-3.3584008 -45.241791 0.28243512 34 0 0 0 75.723808
4.4205074 -45.142708 0.28173015 28 0 0 0 72.987
5.5831881 -45.480595 0.28478935 38 0 0 0 72.595245
-2.2246726 -44.840687 0.27905381 13 0 0 0 75.340393
-1.1239406 -44.869305 0.27816778 26 0 0 0 74.938248
-18.032066 -43.502476 0.30940562 13 0 0 0 80.805168
-14.389686 -43.513668 0.29732332 15 0 0 0 79.633995
2.0998008 -43.237858 0.26967198 17 0 0 0 73.767479
3.1515863 -43.063076 0.26944876 21 0 0 0 73.381409
-6.3973541 -42.998158 0.275011 30 0 0 0 76.899193
1.0293517 -42.897011 0.26732805 17 0 0 0 74.162079
-21.06382 -41.825188 0.31308284 37 0 0 0 81.97464
37.357162 -41.269814 0.38817787 12 0 0 0 62.829762
-16.831289 -37.943233 0.27841857 26 0 0 0 81.188271
-6.0955524 -35.02343 0.23224777 34 0 0 0 77.291183
38.339069 -33.117966 0.37398359 24 0 0 0 60.877487
39.496548 -32.45961 0.38081962 16 0 0 0 60.487087
-42.346607 -25.386141 0.3728568 15 0 0 0 90.958443
-43.571423 -24.687935 0.37941042 16 0 0 0 91.35363
39.344299 -23.621122 0.36668679 25 0 0 0 58.1441
39.98093 -21.407463 0.37012559 23 0 0 0 57.365261
41.224834 -19.533516 0.37962785 6 0 0 0 56.575161
18.485367 -10.503571 0.19032155 97 0 0 0 57.750233
-5.1661129 -9.0987358 0.22866283 291.5 0 0 0 82.759155
8.6629152 -9.2960958 0.32852188 236.33333 0 0 0 62.572281
12.2812 -9.1436224 0.14081402 271 0 0 0 59.703598
-5.3634453 -8.9295969 0.22902277 344.5 0 0 0 83.141006
51.018047 -8.8821745 0.47591755 16 0 0 0 52.293072
-15.850883 -8.4741869 0.15983924 184 0 0 0 91.72953
0.79937339 -8.3776379 0.49637467 7 0 0 0 72.987
1.1477149 -8.2664366 0.33957675 57 0 0 0 72.307571
-45.757504 -7.9468632 0.37090552 39 0 0 0 96.806313
36.595879 -7.3046875 0.34930572 25 0 0 0 52.681679
21.92749 -6.0910625 0.22042345 71 0 0 0 53.856178
3.8745759 -5.5544543 0.24504144 7 0 0 0 64.791847
4.079422 -5.5524368 0.41783884 380 0 0 0 64.390617
17.064373 -5.6604266 0.17825796 49 0 0 0 54.63102
4.1725292 -5.3610225 0.22499576 886.375 0 0 0 63.95607
11.447582 -5.1014709 0.28749955 506.5 0 0 0 56.191673
17.142912 -5.2225299 0.17936902 193 0 0 0 54.238449
6.8068209 -4.7030153 0.19663405 785.25 0 0 0 59.120361
11.545162 -4.8082542 0.28800583 663 0 0 0 55.795193
19.861208 -4.9962654 0.2036954 293 0 0 0 53.462299
-3.1587212 -4.098815 0.19558327 455.89999 0 0 0 84.972221
1.7815944 -4.2275949 0.23099242 134.375 0 0 0 68.107857
43.293625 -4.2886357 0.41713184 34 0 0 0 51.119541
-18.356371 -3.6546388 0.17079797 84 0 0 0 96.40329
-3.3039033 -3.9495327 0.4069576 770.33331 0 0 0 85.615448
-38.543674 -2.8491578 0.31661972 23 0 0 0 98.368019
-28.759937 -2.8372324 0.24562809 38 0 0 0 97.971321
-23.636549 -2.9192379 0.20853271 95 0 0 0 97.579216
8.5945435 5.1765294 0.26707271 546 0 0 0 40.97607
-7.5986395 5.8588161 0.21038091 1717 0 0 0 10.14637
6.6783867 5.9503946 0.13214587 478 0 0 0 38.051262
7.2475872 5.8389339 0.13561298 688.5 0 0 0 38.832127
7.7482061 5.7823081 0.13907944 669 0 0 0 39.422981
8.3009472 5.7246914 0.14305189 604.5 0 0 0 40.002533
8.6553116 5.5080395 0.27281293 582.5 0 0 0 40.584499
-7.6681113 6.2189293 0.21725897 600 0 0 0 10.53599
3.6801898 6.2446103 0.11440235 7 0 0 0 33.158409
6.38412 6.2812295 0.13264683 111 0 0 0 37.267921
34.705669 6.8929 0.38171521 24 0 0 0 46.444519
0.80780315 7.1338401 0.28946862 30 0 0 0 26.53175
-9.3222551 7.9675875 0.26361781 1169.5 0 0 0 10.91999
0.30263409 7.7010918 0.11439992 571.66669 0 0 0 25.361526
-9.3457556 8.3933821 0.1151719 219 0 0 0 11.31839
-0.17715792 8.2282257 0.11834641 554.5 0 0 0 24.384285
-17.934797 8.9935322 0.13517623 119 0 0 0 7.0248098
-6.596354 8.7805777 0.11635865 147 0 0 0 14.44153
-6.3604403 8.9121513 0.11751686 134 0 0 0 14.82805
-4.2211137 8.7503433 0.11617965 322 0 0 0 17.550989
-3.7413118 8.8335142 0.11736938 484 0 0 0 18.341352
-0.73319626 8.9226799 0.23579085 426.5 0 0 0 23.412661
-0.49844608 8.616848 0.12135755 516 0 0 0 23.794359
-20.012892 9.4364948 0.14285147 44 0 0 0 6.6307201
-17.325533 9.2234344 0.1355477 132 0 0 0 7.4200902
-16.772493 9.4610996 0.13616276 119 0 0 0 7.8022599
-13.932353 9.2572002 0.12921688 345 0 0 0 8.9751501
-6.6010866 9.2554846 0.40301934 1296 0 0 0 14.82805
-3.2231913 9.1375322 0.1209569 596.5 0 0 0 19.31143
-2.9247777 9.3803062 0.12380823 560 0 0 0 19.903601
-0.82777262 9.1590834 0.27832952 452.33334 0 0 0 23.275772
-21.754118 9.6186399 0.14802922 34 0 0 0 6.24086
-16.224339 9.6809206 0.13672428 131 0 0 0 8.1978102
-15.686613 9.8866415 0.13726741 167 0 0 0 8.5815496
-10.798417 9.7137728 0.48869777 374 0 0 0 11.31839
-6.5845284 9.7313881 0.27275628 583.5 0 0 0 15.22148
-6.1695881 9.8798504 0.12652192 574 0 0 0 15.803815
-2.6150413 9.6272583 0.12681454 521 0 0 0 20.486534
-2.2983241 9.8905039 0.13007645 362 0 0 0 21.06505
-1.5411565 9.8802738 0.25606328 541 0 0 0 22.232161
-1.2507888 9.5295095 0.24838099 530 0 0 0 22.62149
2.3039556 9.9810457 0.27319774 768.5 0 0 0 28.283285
2.8096058 9.9131861 0.27538833 742 0 0 0 29.064875
3.191292 9.8551826 0.2772384 803 0 0 0 29.65346
-24.987305 10.332293 0.16035606 25 0 0 0 5.8572998
-14.800713 10.370741 0.13945849 111 0 0 0 9.3689203
-10.687373 10.097962 0.13129087 119 0 0 0 11.70076
-10.423001 10.342081 0.13311304 266 0 0 0 12.08574
-6.3070564 10.104518 0.42461979 608.5 0 0 0 15.803815
-5.801702 10.29322 0.22981735 513.66669 0 0 0 16.51203
-2.0846145 10.094838 0.13260104 366 0 0 0 21.457291
-1.8510139 10.23168 0.26414356 489 0 0 0 21.84816
-0.19824457 10.286995 0.39633316 635.5 0 0 0 24.384285
0.30612084 10.233244 0.39619321 448.5 0 0 0 25.166925
0.84650749 10.154967 0.31133571 691.66669 0 0 0 26.012222
1.3455464 10.104877 0.22765152 846.33331 0 0 0 26.788931
1.8028165 10.046285 0.2713657 846.25 0 0 0 27.508051
-10.137869 10.563392 0.1347671 267 0 0 0 12.48198
-9.7307501 10.647182 0.13515419 391 0 0 0 12.87131
-9.3863125 10.787967 0.13615014 976 0 0 0 13.26514
-5.7420397 10.593251 0.43295151 411 0 0 0 16.778971
-5.3783188 10.747642 0.33607709 446.66666 0 0 0 17.292089
-2.1984117 10.673718 0.40977207 513 0 0 0 21.457291
10.313422 10.883541 0.19934137 90 0 0 0 36.683601
-9.1181002 11.012737 0.13800558 756 0 0 0 13.65756
-8.8401566 11.225345 0.13979694 527 0 0 0 14.047
-5.0255866 11.161083 0.44381848 374 0 0 0 17.94533
-4.7743616 11.338849 0.44739851 223 0 0 0 18.345341
-2.5860178 11.181472 0.42860296 458 0 0 0 21.06505
8.8708229 11.433774 0.19411905 162 0 0 0 35.111721
9.0882597 11.136881 0.19298071 360 0 0 0 35.50362
9.7247572 11.052299 0.19663009 345.5 0 0 0 36.097481
-15.825127 11.682983 0.15159711 157 0 0 0 9.7536697
-4.5263472 11.534321 0.45182535 481 0 0 0 18.733391
-4.1396208 11.813396 0.45834789 474.5 0 0 0 19.31143
-3.0115774 11.72384 0.44898197 428 0 0 0 20.67997
-3.751848 12.120204 0.4662641 409 0 0 0 19.903601
-3.4755244 12.289302 0.47055101 357 0 0 0 20.2931
-43.406803 15.541313 0.23890057 52 0 0 0 5.0714402
-53.875793 16.370003 0.26972476 22 0 0 0 4.3004999
-53.574989 17.723469 0.27798685 25 0 0 0 4.68575
8.4309855 21.988644 0.29385933 136 0 0 0 30.43545
7.9542766 22.374195 0.295533 114 0 0 0 30.041559
11.785814 25.014582 0.34036124 93 0 0 0 31.607201
11.283325 25.557474 0.34321877 86 0 0 0 31.2145
15.545675 27.511553 0.38455939 67 0 0 0 32.777309
15.087386 28.300652 0.38977161 32 0 0 0 32.376259
19.545071 29.301754 0.42426777 47 0 0 0 33.941792
17.160421 34.159931 0.4579007 11 0 0 0 31.989599
22.31072 35.276772 0.49681458 17 0 0 0 33.54866
-4.3947005 -29.461327 0.94280231 16 0 0 0 76.899193
18.493029 -11.123101 0.73021668 25 0 0 0 58.1441
8.6280689 -9.5691423 0.75419611 312 0 0 0 62.829762
-5.3464489 -9.1530466 0.7548368 268.25 0 0 0 82.950081
1.4503516 -8.5111532 0.93279159 1540 0 0 0 71.815163
1.6669939 -8.5159168 0.83244771 1595 0 0 0 71.434357
-15.725689 -8.40376 0.60362446 120 0 0 0 91.72953
0.6997022 -8.403039 0.80927515 1424.25 0 0 0 73.184204
1.183038 -8.4281788 0.79599535 1228.8 0 0 0 72.285812
-27.022472 -6.0675225 0.92606634 17 0 0 0 96.015053
21.896427 -6.0881071 0.78837383 181 0 0 0 53.856178
26.810492 -6.0499849 0.95099658 9 0 0 0 53.067688
4.1034627 -5.5834508 0.59261858 7 0 0 0 64.390617
