# .PCD v0.7 - Point Cloud Data file format
VERSION 0.7
FIELDS x y z intensity normal_x normal_y normal_z curvature
SIZE 4 4 4 4 4 4 4 4
TYPE F F F F F F F F
COUNT 1 1 1 1 1 1 1 1
WIDTH 940
HEIGHT 1
VIEWPOINT 0 0 0 1 0 0 0
POINTS 940
DATA ascii
2.3556414 -12.211125 0.41940141 300 0 0 0 71.458199
2.8473341 -11.665283 0.40549296 156 0 0 0 70.688049
-17.853199 -11.281771 0.18180481 137 0 0 0 90.616463
1.6324126 -11.448768 0.10468166 214 0 0 0 72.241402
-17.877441 -10.693904 0.1800267 168 0 0 0 91.013535
1.2770468 -10.862515 0.10122642 280 0 0 0 72.628967
2.3946302 -10.977899 0.38196671 218 0 0 0 71.069366
2.9210484 -10.819934 0.38039392 460 0 0 0 70.291031
-18.833172 -10.048311 0.1839699 173 0 0 0 91.778809
-17.827198 -10.079657 0.17777665 151 0 0 0 91.396606
-1.5920166 -10.395921 0.10180476 172 0 0 0 76.935448
1.7553312 -10.485904 0.098759726 306 0 0 0 71.858871
2.5237112 -10.346951 0.097935647 464 0 0 0 70.688049
3.1206172 -10.081591 0.3597343 532 0 0 0 69.7043
-19.603935 -9.8508606 0.18826534 94 0 0 0 92.158997
1.9121871 -9.9336586 0.095364571 344 0 0 0 71.458199
2.1364443 -9.8020916 0.094565026 266 0 0 0 71.069366
2.7852807 -9.8463802 0.094917223 471.5 0 0 0 70.094765
3.2747235 -9.7229328 0.22444107 615 0 0 0 69.315002
3.763787 -9.603735 0.35142675 518.5 0 0 0 68.535095
3.3256671 -9.4941587 0.093028784 386 0 0 0 69.119911
3.63972 -9.2857943 0.092050649 527.5 0 0 0 68.535095
4.1314497 -9.1946125 0.34364885 570.5 0 0 0 67.750397
3.9111671 -8.9922037 0.090627097 582 0 0 0 67.945747
4.2630239 -8.8022318 0.17161335 623 0 0 0 67.289673
4.719408 -8.7195072 0.21463379 587 0 0 0 66.57608
5.2160416 -8.6843567 0.17703469 631.66669 0 0 0 65.854309
5.6954365 -8.8163834 0.26973459 711.33331 0 0 0 65.337303
6.1308985 -8.8413057 0.36259151 534 0 0 0 64.812737
6.7748952 -8.812521 0.37309983 346 0 0 0 64.030167
7.1833735 -8.6641827 0.37713489 572.5 0 0 0 63.444931
5.8890595 -8.4916105 0.091534525 572 0 0 0 64.812737
6.7776217 -8.3811131 0.093407027 263 0 0 0 63.638367
7.1690855 -8.2261486 0.09390904 590.5 0 0 0 63.0509
7.574389 -8.2086878 0.28238985 369.33334 0 0 0 62.595806
5.6801286 -7.647779 0.16520678 382.33334 0 0 0 64.29435
-26.969749 -6.0528731 0.22904234 61 0 0 0 96.067955
-25.691494 -6.4307256 0.22093114 176 0 0 0 95.680885
6.2693572 -6.2158022 0.19277877 460.75 0 0 0 61.874176
6.7204909 -6.0882335 0.23529126 958.66669 0 0 0 61.157192
7.1722565 -5.9816208 0.20218262 728 0 0 0 60.50679
-26.950571 -5.3588915 0.22791776 65 0 0 0 96.463959
9.8169785 -5.3418441 0.37662259 287 0 0 0 57.390598
10.20961 -5.234025 0.38602617 451 0 0 0 56.991791
10.601821 -5.1096349 0.39543095 31 0 0 0 56.596619
11.097866 -5.0157938 0.40835592 84 0 0 0 56.209648
18.558624 -5.263093 0.14770664 200 0 0 0 53.87664
19.47471 -5.0091438 0.15326615 144 0 0 0 53.48991
-26.901867 -4.6674023 0.22669116 74 0 0 0 96.852119
11.55771 -4.8846998 0.42006573 59 0 0 0 55.827271
12.083653 -4.7599082 0.43399167 95 0 0 0 55.429161
12.635578 -4.6213775 0.44879109 42 0 0 0 55.043179
4.9051762 -4.3106837 0.069940656 215 0 0 0 60.900761
5.4297414 -4.1891642 0.27629468 1201 0 0 0 59.882313
5.6516776 -4.1634169 0.20420189 680.75 0 0 0 59.532227
13.167847 -4.4518399 0.46299306 597 0 0 0 54.663631
5.8376961 -3.9757781 0.16200759 776 0 0 0 58.951366
6.2201996 -3.9061503 0.16722584 1364.75 0 0 0 58.35799
6.7379227 -3.8170834 0.14186223 1062 0 0 0 57.648548
7.2538533 -3.7248204 0.080409519 1078 0 0 0 56.991791
7.5849032 -3.6611617 0.082148813 818 0 0 0 56.596619
8.1140938 -3.671967 0.085133158 556 0 0 0 56.209648
8.6020393 -3.6395242 0.087875068 573 0 0 0 55.827271
9.0362291 -3.5630255 0.090308569 656 0 0 0 55.429161
9.631424 -3.5254409 0.093754321 527 0 0 0 55.043179
10.728481 -3.628366 0.10028707 387 0 0 0 54.663631
11.16841 -3.4743576 0.24831006 736.5 0 0 0 54.267712
13.177679 -3.0531926 0.28414053 489 0 0 0 53.097927
-17.396095 -2.5811529 0.15877952 343 0 0 0 97.247421
13.845846 -2.850791 0.29585078 436 0 0 0 52.70919
14.592359 -2.6318836 0.30915427 364.5 0 0 0 52.31736
15.401646 -2.3864477 0.12919703 330 0 0 0 51.924591
16.247286 -2.1096289 0.13474143 224 0 0 0 51.534447
17.491951 -1.8349017 0.14286557 220 0 0 0 51.13747
18.881752 -1.5121807 0.15190169 175 0 0 0 50.75
25.199896 -1.3943219 0.19173385 124 0 0 0 50.367752
22.425249 -0.68995553 0.17510238 55 0 0 0 49.967602
23.620798 -0.14640962 0.18333621 95 0 0 0 49.581619
26.002264 0.47742549 0.19921954 115 0 0 0 49.193649
-17.157383 1.040343 0.14971377 88 0 0 0 0.39761999
-12.563015 1.0658958 0.27487439 393 0 0 0 0.78236997
-17.124451 1.8781228 0.15122792 349 0 0 0 1.17426
39.921059 1.7141589 0.28874436 14 0 0 0 48.801449
-17.092512 2.2969005 0.15198566 300 0 0 0 1.56536
30.864208 2.0847657 0.23240682 67 0 0 0 48.416714
-17.070932 2.7155895 0.15593842 239 0 0 0 1.95101
-17.044857 3.1388679 0.15663089 231 0 0 0 2.35026
35.944412 3.3151579 0.26652241 11 0 0 0 48.020634
-17.015759 3.7816012 0.15785304 338 0 0 0 2.9264998
8.6750126 3.9224467 0.33800071 814 0 0 0 42.754974
-16.982302 4.4307985 0.15919439 222 0 0 0 3.5174899
6.8198442 4.427959 0.25272211 893.40002 0 0 0 40.368061
8.4379759 4.2009606 0.21619162 1186.5 0 0 0 42.165161
8.5853949 4.0141702 0.098924175 1232 0 0 0 42.556072
6.6234412 4.6346784 0.29156217 859.66669 0 0 0 39.829338
0.28149143 5.2284918 0.26531258 362.9375 0 0 0 25.566221
0.74646181 5.2526631 0.26878706 272.16666 0 0 0 26.932495
1.0352628 5.3671384 0.072877496 393 0 0 0 27.71233
9.3734407 5.2540836 0.24233198 1135.5 0 0 0 41.391579
9.5201883 5.0320234 0.24317865 1009.5 0 0 0 41.779449
45.445309 5.3174977 0.3299377 22 0 0 0 47.62944
-0.12170627 5.7366633 0.26931232 402.875 0 0 0 24.340672
5.1630015 5.970458 0.08989846 827 0 0 0 35.917019
-0.65406489 6.3697104 0.23679318 538.33331 0 0 0 23.019739
-0.41825756 6.0753055 0.19811121 571 0 0 0 23.569479
1.3618453 6.1705961 0.078956909 582 0 0 0 28.097099
1.688189 6.1762409 0.079562917 504.33334 0 0 0 28.87932
2.1988065 6.1920929 0.080733709 595.66669 0 0 0 30.053114
2.766288 6.2655768 0.082637407 611 0 0 0 31.226397
3.3102341 6.3907824 0.085114866 506 0 0 0 32.20583
6.2022943 6.3273106 0.096550621 709.5 0 0 0 36.900444
6.7228093 6.366003 0.099216826 236 0 0 0 37.487141
7.7443695 6.4694138 0.10476637 698 0 0 0 38.46352
-1.0491855 6.9371891 0.34432721 387 0 0 0 22.245529
-0.85466975 6.7445168 0.24996559 546.66669 0 0 0 22.63798
1.3798424 6.7374439 0.3108519 521.66669 0 0 0 27.840586
1.7418619 6.6753821 0.29863012 622.5 0 0 0 28.683765
2.2439256 6.5604591 0.25682089 706 0 0 0 29.854176
2.7782629 6.7231426 0.26782373 506.33334 0 0 0 30.838013
3.3586082 6.8831239 0.28018159 616.5 0 0 0 31.812405
3.829432 6.5691991 0.088006176 540.5 0 0 0 32.984375
4.2323675 6.6777024 0.090135515 402 0 0 0 33.570232
4.6610341 6.778636 0.09238518 628 0 0 0 34.155647
5.263298 6.8941665 0.095488541 623 0 0 0 34.932327
5.7013674 6.9200296 0.097491413 524 0 0 0 35.525433
7.5621114 6.8089595 0.10552509 361 0 0 0 37.873798
8.9429588 6.9218731 0.11301703 608 0 0 0 39.042473
9.2391415 6.9658332 0.25781959 507.5 0 0 0 39.235695
16.577383 6.7555871 0.15531231 180 0 0 0 43.341881
-1.2743984 7.2253013 0.08588139 334.33334 0 0 0 21.855963
1.8525451 7.4316239 0.46769571 357 0 0 0 28.491159
2.0309551 7.3695331 0.46694264 389 0 0 0 28.88133
3.8021963 7.1068621 0.29309642 640 0 0 0 32.402988
4.2400732 7.2572861 0.30423081 528.5 0 0 0 32.984375
4.7765512 7.3179359 0.31497377 535 0 0 0 33.762634
5.2240233 7.3888311 0.32491079 577 0 0 0 34.356258
5.6847038 7.4346571 0.33484843 534 0 0 0 34.932327
6.449595 7.079927 0.10167961 506 0 0 0 36.311848
9.6199217 7.068131 0.41633391 268 0 0 0 39.428913
-3.1840162 7.9525285 0.094942614 270 0 0 0 18.542664
-2.7099462 7.8552346 0.093018614 231 0 0 0 19.319115
-2.2672918 7.7828221 0.091485903 188 0 0 0 20.105381
-1.8697965 7.8274527 0.090943336 176.5 0 0 0 20.886555
2.2967544 7.5880551 0.48306781 559 0 0 0 29.265471
2.5426149 7.7042766 0.49359903 328 0 0 0 29.656229
6.2712159 7.5999765 0.35063076 482 0 0 0 35.525433
6.6418128 7.6542511 0.35958782 398 0 0 0 35.917019
7.2220078 7.7203484 0.37354347 393 0 0 0 36.508934
7.8162513 7.7597775 0.38756284 444 0 0 0 37.094872
8.3683968 7.905333 0.40339535 353 0 0 0 37.487141
13.24342 7.8444839 0.14010176 269 0 0 0 40.993729
-16.278692 8.3664188 0.16679108 27 0 0 0 7.01862
-4.1563177 8.2733316 0.10007055 52 0 0 0 17.172791
-3.7204304 8.1262951 0.097694218 86.5 0 0 0 17.754456
8.9083157 8.0070267 0.418181 404 0 0 0 37.873798
9.6317835 8.2343559 0.44022545 357 0 0 0 38.2659
10.262597 8.3428955 0.45777494 364 0 0 0 38.66114
-5.3249249 8.9272394 0.10842177 197 0 0 0 16.000799
-4.7734203 8.6999941 0.10494402 116 0 0 0 16.585781
-16.72377 9.1202784 0.17239711 80 0 0 0 7.4070001
-7.3328905 9.4702902 0.12019931 155 0 0 0 14.04593
-6.7497416 9.4027271 0.11718265 159 0 0 0 14.636265
-6.1748309 9.300169 0.11410216 170 0 0 0 15.22563
-5.7488728 9.1298723 0.11133044 180 0 0 0 15.61022
-1.5996804 9.2434111 0.33401617 199 0 0 0 21.85293
26.394268 9.260807 0.22192667 75 0 0 0 44.113888
-16.699505 9.6438627 0.17425664 225 0 0 0 7.80902
-16.347675 9.9800129 0.17339532 109 0 0 0 8.1908503
-8.877162 9.8906727 0.12997767 76 0 0 0 12.8725
-8.3097839 9.7213564 0.12624522 132 0 0 0 13.25758
-7.773066 9.5514822 0.12271956 132 0 0 0 13.64862
-2.1989398 9.8474998 0.3566004 168 0 0 0 21.080299
-1.8925736 9.5563011 0.34551877 191 0 0 0 21.469429
-10.097105 10.210185 0.13795213 55 0 0 0 12.08616
-9.4616585 10.042221 0.13375956 80 0 0 0 12.47905
-2.6915259 10.272691 0.37370786 163 0 0 0 20.497835
-16.505217 10.639644 0.17702508 23 0 0 0 8.5785503
-11.743896 10.780878 0.14972462 71 0 0 0 11.31339
-11.132399 10.728755 0.14609949 62 0 0 0 11.70206
-16.525244 11.234328 0.17961857 69 0 0 0 8.9742203
-15.803166 11.315103 0.17564839 60 0 0 0 9.3702602
-3.3265865 11.063941 0.40367904 120 0 0 0 19.9079
-15.292747 11.523466 0.17353919 104 0 0 0 9.7569704
-13.961134 11.626266 0.16628599 43 0 0 0 10.53106
-13.191501 11.538971 0.16151848 38 0 0 0 10.92709
-3.7818911 11.560361 0.42328775 98 0 0 0 19.51819
36.192516 11.703004 0.28841013 63 0 0 0 44.506767
-15.265368 12.099992 0.17594481 75 0 0 0 10.14072
-4.4414849 12.555565 0.46040797 52 0 0 0 19.120041
34.227917 12.955014 0.28048989 16 0 0 0 43.729519
45.982426 13.628201 0.35342392 18 0 0 0 44.900238
3.2263365 -27.106056 0.88132274 82 0 0 0 72.628967
-0.10500672 -26.753778 0.86807966 24 0 0 0 74.583427
0.54472208 -26.516876 0.86017358 98 0 0 0 74.19339
1.1994834 -26.625759 0.86352384 120 0 0 0 73.807617
1.8657529 -26.80113 0.86943173 73 0 0 0 73.419502
2.5390198 -26.935816 0.87456417 92 0 0 0 73.022888
-16.279516 -24.250849 0.95904189 58 0 0 0 83.964195
-15.588325 -24.496065 0.95302349 25 0 0 0 83.576324
-18.308062 -19.163511 0.87669498 85 0 0 0 86.715477
-20.259729 -18.306566 0.90340883 25 0 0 0 87.879425
-19.435362 -18.445383 0.88677639 66 0 0 0 87.485107
-18.53091 -18.469601 0.86630487 106 0 0 0 87.097954
-17.86167 -11.282928 0.70878983 143 0 0 0 90.616463
2.2859209 -11.135839 0.66427374 53.5 0 0 0 71.263779
-17.88003 -10.691366 0.69962716 192 0 0 0 91.013535
2.9285297 -10.84297 0.79602385 271.5 0 0 0 70.291031
3.5146732 -10.864923 0.94966668 151 0 0 0 69.510094
-17.854202 -10.090959 0.68948644 193 0 0 0 91.396606
3.1613314 -10.353921 0.72324657 475.33334 0 0 0 69.769035
3.7029722 -10.164602 0.76689827 443 0 0 0 68.925453
4.3840051 -10.069036 0.91347551 84 0 0 0 67.945747
-19.631828 -9.8607206 0.73646355 93 0 0 0 92.158997
-18.675835 -9.960288 0.710648 132 0 0 0 91.778809
3.7686567 -9.9692698 0.62285084 646 0 0 0 68.730995
4.1854324 -9.9494019 0.62996137 522.5 0 0 0 68.142471
4.5335622 -9.7592287 0.62767965 552 0 0 0 67.555054
5.6384015 -9.8287401 0.94040686 448 0 0 0 66.183487
6.2063222 -9.6822128 0.95355952 562.5 0 0 0 65.402298
6.8312817 -9.5879383 0.97495842 641 0 0 0 64.619591
5.2390261 -9.4028673 0.62711668 601 0 0 0 66.384163
5.6579986 -9.3285675 0.63489079 609.5 0 0 0 65.790054
6.2921853 -9.3110266 0.65250468 528 0 0 0 65.010017
6.8043733 -9.312562 0.66845399 560 0 0 0 64.426445
7.2611427 -9.2836027 0.78154653 521.33331 0 0 0 63.899567
4.2851739 -8.668644 0.68711942 510.5 0 0 0 67.15699
4.5339098 -8.6325188 0.69322395 304 0 0 0 66.768005
7.8049784 -8.9536247 0.68695271 431.5 0 0 0 63.0509
5.911304 -6.3106828 0.72321558 229.33333 0 0 0 62.468555
6.2760882 -6.2224774 0.73863035 473 0 0 0 61.874176
6.752955 -6.0970736 0.71444911 812 0 0 0 61.13155
7.1882401 -5.9962535 0.54892796 1557 0 0 0 60.50679
8.2539606 -5.7055836 0.75310785 231.33333 0 0 0 59.080448
8.7070055 -5.6072092 0.73341739 354 0 0 0 58.553608
9.0829468 -5.5378122 0.75337923 654 0 0 0 58.162369
9.4420376 -5.4426064 0.77113819 475.5 0 0 0 57.777519
9.8285475 -5.3475094 0.79115629 278 0 0 0 57.390598
10.235464 -5.2466249 0.81271023 71 0 0 0 56.991791
10.657136 -5.1355824 0.8354457 136 0 0 0 56.596619
11.086068 -5.0108886 0.70647496 778 0 0 0 56.209648
11.622733 -4.9124718 0.73183978 49 0 0 0 55.827271
12.130295 -4.7786436 0.75543213 49 0 0 0 55.429161
12.658728 -4.6302786 0.78028017 161 0 0 0 55.043179
4.8932357 -4.3001871 0.79419827 366 0 0 0 60.900761
5.23066 -4.1595125 0.73119408 767.66669 0 0 0 60.116108
5.9437914 -4.0460286 0.96267736 1472 0 0 0 58.951366
13.16614 -4.4517627 0.80396128 236 0 0 0 54.663631
14.561861 -4.137074 0.68769819 243 0 0 0 53.87664
6.234745 -3.9141865 0.98525572 1305.5 0 0 0 58.357986
6.9023976 -3.7635663 0.85645682 1112 0 0 0 57.390598
7.2213807 -3.7092977 0.88351518 1055 0 0 0 56.991791
7.7575436 -3.6261454 0.93047976 1042.5 0 0 0 56.403133
8.3781672 -3.5466597 0.98673522 952 0 0 0 55.827271
9.0423708 -3.5664494 0.81522906 740 0 0 0 55.429161
9.5919476 -3.5121701 0.85522872 612 0 0 0 55.043179
15.264401 -3.933531 0.71626282 39.5 0 0 0 53.48991
10.187506 -3.4475977 0.89894825 661 0 0 0 54.663631
10.762489 -3.3487871 0.9408018 712 0 0 0 54.267712
11.264778 -3.3538651 0.83302075 600 0 0 0 54.072174
-17.431602 -2.5833266 0.59861094 346 0 0 0 97.247421
12.595019 -2.9207857 0.752581 386 0 0 0 53.097927
15.341638 -2.3805819 0.51739866 332 0 0 0 51.924591
16.277685 -2.1174741 0.74719679 282 0 0 0 51.534447
17.464521 -1.8358709 0.58212447 198 0 0 0 51.13747
18.870623 -1.5154185 0.6254999 169 0 0 0 50.75
25.187819 -1.3991385 0.82252222 525 0 0 0 50.367752
22.008987 -0.68201715 0.72330308 107 0 0 0 49.967602
30.017431 -0.19160241 0.97408193 296 0 0 0 49.581619
25.908201 0.47008008 0.84665596 144 0 0 0 49.193649
-17.206173 1.0463364 0.78635627 194.5 0 0 0 0.39761999
-12.66494 1.0757817 0.74160635 331 0 0 0 0.78236997
-17.144503 1.8833587 0.78818476 307 0 0 0 1.17426
-17.119312 2.3035684 0.7899949 273 0 0 0 1.56536
-17.072035 2.7188313 0.58435345 242 0 0 0 1.95101
-17.04978 3.1428769 0.58634704 247 0 0 0 2.35026
-17.050156 3.5745397 0.58940512 432 0 0 0 2.7334399
8.6250019 3.9002891 0.56915212 785 0 0 0 42.754974
-17.018099 4.0030479 0.591748 416 0 0 0 3.11956
6.7466502 4.4770727 0.79461414 725 0 0 0 40.21331
8.3884563 4.1749897 0.56396896 1426 0 0 0 42.165161
8.5731115 4.0073204 0.80585396 664 0 0 0 42.556072
6.4879317 4.7831087 0.88975191 674 0 0 0 39.428913
6.576376 4.7250161 0.69316864 699.5 0 0 0 39.629124
8.7354536 4.8987699 0.85110795 689 0 0 0 41.391579
9.3527994 4.9440813 0.89673012 612 0 0 0 41.779449
10.016658 4.9813976 0.94588101 495 0 0 0 42.165161
0.36101809 5.3825402 0.60412079 605.33331 0 0 0 25.762297
0.69286579 5.346859 0.60426998 500 0 0 0 26.736851
9.4359102 5.287127 0.64567012 1016 0 0 0 41.391579
9.5639925 5.0533071 0.64554149 308 0 0 0 41.779449
-0.2492452 5.8649731 0.51102918 532.5 0 0 0 24.002007
0.86054724 5.9911122 0.97304958 641 0 0 0 26.935841
1.2771772 5.9009881 0.88604242 503.14285 0 0 0 28.04425
1.6764485 5.9527259 0.84167176 436 0 0 0 29.009377
-0.64801902 6.2958927 0.54790932 591 0 0 0 23.019739
-0.25866106 6.2092628 0.65260464 665 0 0 0 23.999105
0.28212216 6.2138529 0.7701745 511.5 0 0 0 25.370991
0.72663677 6.121748 0.87604046 435 0 0 0 26.539831
1.2528988 6.1608701 0.699646 260.66666 0 0 0 27.841505
1.7949328 6.1237941 0.74783993 341.5 0 0 0 29.171089
2.1592472 6.3269081 0.82494402 481.5 0 0 0 29.854176
-0.68162322 6.694952 0.66307062 730.5 0 0 0 23.023439
0.31134644 6.8023534 0.92081124 669 0 0 0 25.375139
1.6347874 6.5993414 0.58856231 544 0 0 0 28.491159
16.50416 6.7217612 0.60086083 242 0 0 0 43.341881
1.2312731 7.1835251 0.80518669 354 0 0 0 27.32378
2.3335586 7.7095761 0.69115406 265 0 0 0 29.265471
2.9024704 7.8074608 0.50597203 540 0 0 0 30.251556
3.3479726 7.7971835 0.51487076 485 0 0 0 31.031525
3.8676789 7.8592629 0.74641377 560.79999 0 0 0 31.85166
4.2471108 7.7664618 0.60879403 545.33331 0 0 0 32.531528
4.7857356 7.9537892 0.56029034 471 0 0 0 33.180141
5.184083 7.9323368 0.57134688 615 0 0 0 33.762634
5.6606412 7.9973745 0.58956021 442 0 0 0 34.356258
6.2425919 8.1539822 0.61625773 528.5 0 0 0 34.932327
6.7923746 8.2239685 0.63865584 415 0 0 0 35.525433
7.2299113 8.3243599 0.6589455 569 0 0 0 35.917019
7.6492782 8.3787518 0.67696708 336 0 0 0 36.311848
8.1338768 8.4777527 0.69970864 396 0 0 0 36.70602
-16.573576 8.5229454 0.63180113 34 0 0 0 7.01862
3.9579027 8.8944016 0.82843149 583 0 0 0 31.230749
4.176785 8.7964735 0.82876325 471 0 0 0 31.61614
4.9622607 8.719305 0.85310996 487 0 0 0 32.788609
5.2065177 8.6451817 0.85804796 388 0 0 0 33.180141
5.711154 8.7286949 0.88584697 441 0 0 0 33.762634
6.3174348 8.9161921 0.92629385 373 0 0 0 34.356258
8.8113909 8.7385645 0.7369715 334 0 0 0 37.094872
9.4188843 8.8891172 0.76744908 419 0 0 0 37.487141
3.7658231 9.0556717 0.83428264 494 0 0 0 30.8323
6.7223101 9.0060205 0.95163941 379 0 0 0 34.738899
7.1365433 9.0828094 0.97713792 423 0 0 0 35.125751
10.175936 9.1372442 0.80826622 385 0 0 0 37.873798
10.760223 9.1918325 0.83497411 323 0 0 0 38.2659
11.60399 9.4257612 0.87984902 270 0 0 0 38.66114
12.154143 9.3845911 0.90255058 308 0 0 0 39.042473
26.159994 9.1725216 0.91355568 86 0 0 0 44.113888
-16.370995 9.9985237 0.64995599 153 0 0 0 8.1908503
3.6982727 9.5409746 0.86883986 468 0 0 0 30.450991
-15.736549 10.144769 0.63523269 44 0 0 0 8.5785503
3.4437916 10.356129 0.92413527 109 0 0 0 29.656229
3.6022854 10.009472 0.90176463 297 0 0 0 30.05212
17.046431 10.081817 0.66594207 127 0 0 0 40.993729
-15.611243 10.61286 0.640315 134 0 0 0 8.9742203
-19.370998 11.202447 0.75297523 20 0 0 0 7.80902
-15.402454 11.611316 0.6537587 117 0 0 0 9.7569704
-17.381098 12.458114 0.72141981 42 0 0 0 9.3702602
-16.06068 12.740055 0.69291955 9 0 0 0 10.14072
-15.916778 13.273175 0.70018524 28 0 0 0 10.53106
-13.842026 14.043742 0.66734678 461 0 0 0 12.08616
-19.615578 17.212748 0.87367314 65 0 0 0 10.92709
-19.659369 18.123253 0.89417964 20 0 0 0 11.31339
-8.4120111 19.303782 0.70936143 144 0 0 0 17.947639
-7.4425731 19.654312 0.70789689 35 0 0 0 18.73456
-8.2363682 20.24922 0.73511595 61 0 0 0 18.350769
-18.994118 21.309027 0.95195001 6 0 0 0 12.8725
-10.156267 21.86183 0.80751711 44 0 0 0 17.56127
-19.227436 22.66857 0.98983479 65 0 0 0 13.25758
-11.476797 23.2153 0.86526102 45 0 0 0 17.172791
-12.815193 24.412537 0.91926354 58 0 0 0 16.77846
98.988602 24.114853 0.70650607 11 0 0 0 45.673672
-16.68988 -40.009964 1.399812 44 0 0 0 80.838837
-14.41671 -39.959278 1.371004 18 0 0 0 80.056793
-17.54059 -39.311981 1.3910331 9 0 0 0 81.23275
-20.861376 -29.494982 1.1786157 26 0 0 0 84.356125
-21.078848 -28.30595 1.152835 19 0 0 0 84.75
-21.637234 -27.617773 1.1468701 31 0 0 0 85.14045
-15.683687 -27.536741 1.0357429 16 0 0 0 82.795509
-23.232332 -26.837006 1.1611328 18 0 0 0 85.92321
-23.122543 -25.424433 1.1258661 14 0 0 0 86.319633
-26.385269 -22.695778 1.1423465 19 0 0 0 88.260719
7.6418223 -16.389366 1.4812179 98 0 0 0 67.555054
5.5336413 -13.581094 1.2085569 134 0 0 0 68.339188
4.2653174 -12.148327 1.2222483 227.5 0 0 0 69.119911
-17.887955 -11.299695 1.2272317 135 0 0 0 90.616463
-17.910412 -10.709687 1.211118 194 0 0 0 91.013535
2.9357662 -10.861217 1.3470144 194.5 0 0 0 70.291031
3.4859006 -10.776521 1.2171667 206 0 0 0 69.510094
-17.870558 -10.100338 1.1921116 171 0 0 0 91.396606
3.1080945 -10.481163 1.1763157 91 0 0 0 69.898499
3.7395515 -10.129643 1.3380114 198.66667 0 0 0 68.860634
-19.673975 -9.882019 1.2764661 96 0 0 0 92.158997
-18.657431 -9.9505987 1.2271394 114 0 0 0 91.778809
5.6256967 -9.8071041 1.2130694 304.5 0 0 0 66.183487
6.9455681 -9.5013781 1.2605619 175 0 0 0 64.426445
7.7279968 -9.5495176 1.0154319 394 0 0 0 63.638367
5.6018271 -9.4901457 1.4541138 131 0 0 0 65.982811
7.308279 -9.4990463 1.2829148 229 0 0 0 64.030167
7.6850357 -9.4968615 1.3069385 69 0 0 0 63.638367
8.2114973 -9.3395281 1.1287214 311.66666 0 0 0 62.984035
4.1633706 -8.6846533 1.1573913 658.5 0 0 0 67.356018
5.8271766 -6.5316496 1.3787912 67 0 0 0 62.8503
5.8877678 -6.2831745 1.2501857 152 0 0 0 62.468559
6.2199345 -6.1649685 1.2703069 55.5 0 0 0 61.874176
6.6452546 -6.1181884 1.1981622 105 0 0 0 61.285408
6.4735603 -5.9613795 1.386354 29 0 0 0 61.285408
7.7298255 -5.5334597 1.496076 13 0 0 0 59.338619
8.1563845 -5.7364802 1.1560477 174.66667 0 0 0 59.209534
8.720026 -5.614902 1.1168338 88 0 0 0 58.553608
9.0312243 -5.5058331 1.1386191 88 0 0 0 58.162369
9.3767567 -5.4045773 1.1645727 46 0 0 0 57.777519
11.05819 -4.9964304 1.007568 793 0 0 0 56.209648
11.602091 -4.9018316 1.0448756 86 0 0 0 55.827271
4.8908143 -4.1933489 1.2626615 517.375 0 0 0 60.703773
5.0624213 -4.025866 1.0294393 1002 0 0 0 60.113041
5.9030724 -4.0189328 1.3100139 1517.6666 0 0 0 58.951366
4.9698839 -3.9526472 1.4032304 1044.5 0 0 0 60.113041
5.1964693 -3.9771252 1.2033836 552.25 0 0 0 59.824627
6.2219067 -3.9064171 1.2567984 1349.25 0 0 0 58.357986
6.7299972 -3.775512 1.2230821 1121.5 0 0 0 57.584057
7.2531486 -3.6670303 1.2868356 1041.5 0 0 0 56.892998
7.7522583 -3.5840995 1.2103161 1013.3333 0 0 0 56.338638
8.3218079 -3.5217061 1.3150547 830 0 0 0 55.827271
8.8850756 -3.5051293 1.0344543 860 0 0 0 55.429161
17.103813 -3.5208676 1.0043633 43 0 0 0 52.70919
8.791214 -3.4670544 1.3737047 756.5 0 0 0 55.429161
9.4069099 -3.4444263 1.2066226 701.5 0 0 0 55.043179
9.8966293 -3.3485563 1.3865976 627 0 0 0 54.663631
10.241194 -3.3235021 1.2973673 635 0 0 0 54.465672
10.643381 -3.3123403 1.2023852 583 0 0 0 54.267712
11.212606 -3.1885979 1.2562125 583 0 0 0 53.87664
11.820684 -3.0485682 1.1652293 586.5 0 0 0 53.48991
17.469698 -3.1485181 1.4640515 20 0 0 0 52.31736
17.989145 -3.2442641 1.0504364 111 0 0 0 52.31736
-17.44804 -2.5873361 1.2502644 298 0 0 0 97.247421
12.521307 -2.9022222 1.2257605 409.5 0 0 0 53.097927
19.259518 -2.9863517 1.1184307 35 0 0 0 51.924591
16.23245 -2.1097479 1.3545129 254 0 0 0 51.534447
21.865917 -2.2971854 1.2590107 41 0 0 0 51.13747
23.511421 -1.8872153 1.34894 23 0 0 0 50.75
25.235781 -1.4028373 1.4437804 109 0 0 0 50.367752
25.815748 0.46733981 1.476918 156 0 0 0 49.193649
-17.232986 1.2561436 1.4253931 267.5 0 0 0 0.58999497
-17.200842 1.886605 1.4283934 169 0 0 0 1.17426
-17.134979 2.3026872 1.427882 187 0 0 0 1.56536
30.788277 2.0729575 1.0034562 63 0 0 0 48.416714
-17.098049 2.7215395 1.2199907 210 0 0 0 1.95101
-17.07365 3.1458454 1.2236235 205.5 0 0 0 2.35026
35.69426 3.2843347 1.1609733 11 0 0 0 48.020634
-17.065964 3.5764101 1.2292938 345.5 0 0 0 2.7334399
6.4154015 4.7927113 1.33161 763.25 0 0 0 39.332302
6.6336141 4.5815048 1.2392395 652 0 0 0 39.925331
8.5924625 4.8195305 1.1994481 882 0 0 0 41.391579
9.0421143 4.7812934 1.2436628 662 0 0 0 41.779449
9.6759853 4.813386 1.3121946 580 0 0 0 42.165161
10.525742 4.9133992 1.2638336 108 0 0 0 42.556072
6.5051389 5.0485072 1.3166312 79 0 0 0 39.042473
11.842522 5.1741686 1.2418634 284.5 0 0 0 42.953873
45.312782 5.2921052 1.4692309 27 0 0 0 47.62944
0.75054461 6.2952638 1.1224982 661 0 0 0 26.540487
1.1922584 6.1219897 1.1570417 642.66669 0 0 0 27.711069
1.6778511 6.1439166 1.1293827 606.66669 0 0 0 28.87932
2.0221291 6.1807852 1.0448642 691 0 0 0 29.656229
0.455365 6.5120687 1.0458641 772 0 0 0 25.76399
0.64299488 6.7525473 1.2536634 106 0 0 0 26.14776
16.414371 6.6859274 1.2536896 215.5 0 0 0 43.341881
0.32427058 7.0205569 1.1231265 145 0 0 0 25.375139
2.7399375 7.1232123 1.0310566 82 0 0 0 30.450991
-0.58246017 7.6922126 1.2273022 328 0 0 0 23.408899
2.3159413 7.6555319 1.4748907 127 0 0 0 29.265471
3.8327208 7.9208608 1.2566866 316.66666 0 0 0 31.746984
-0.8078714 8.0924635 1.4933304 71 0 0 0 23.019739
3.574755 8.0521889 1.403481 581 0 0 0 31.230749
5.9051762 9.2721739 1.4704342 116 0 0 0 33.570232
6.1945758 9.216403 1.4851313 169 0 0 0 33.955032
7.5661578 9.1537895 1.0036056 373 0 0 0 35.525433
8.1171246 9.3386984 1.0440873 392 0 0 0 35.917019
-16.679167 9.6363831 1.121399 19 0 0 0 7.80902
-16.3379 9.9784212 1.1148502 47 0 0 0 8.1908503
6.121274 9.868125 1.2648399 155.5 0 0 0 33.375187
8.6950359 9.5165825 1.0861753 374 0 0 0 36.311848
9.3480368 9.7353201 1.135461 376 0 0 0 36.70602
10.039487 9.9499187 1.1873144 262 0 0 0 37.094872
4.3539715 10.440303 1.2321131 56 0 0 0 30.8323
10.750458 10.139665 1.23955 259 0 0 0 37.487141
11.588804 10.400514 1.3039947 221 0 0 0 37.873798
16.009928 10.008831 1.1002257 110 0 0 0 40.600182
17.075687 10.098261 1.1538028 102 0 0 0 40.993729
12.816049 10.940305 1.4078839 133 0 0 0 38.2659
4.220623 11.263512 1.307817 774 0 0 0 30.251556
6.4283519 11.256015 1.407279 14 0 0 0 32.788609
13.948209 11.322417 1.4983548 102 0 0 0 38.66114
-22.859524 11.779502 1.4872684 87 0 0 0 7.01862
5.252161 11.745882 1.3965633 19 0 0 0 31.230749
36.047375 11.647652 1.234381 49 0 0 0 44.506767
-22.71386 12.416242 1.4972006 36 0 0 0 7.4070001
-18.673395 12.052499 1.2899976 26 0 0 0 8.5785503
-15.986735 12.055427 1.1653216 18 0 0 0 9.7569704
-15.900397 12.612407 1.1808745 21 0 0 0 10.14072
-16.285467 13.583254 1.2326883 14 0 0 0 10.53106
-5.3019495 18.683107 1.1310494 50 0 0 0 20.105381
-4.0983429 18.73332 1.1170249 171 0 0 0 21.080299
-3.6649733 18.970045 1.1253562 60 0 0 0 21.469429
-4.6556087 19.042145 1.1412491 88 0 0 0 20.69281
-3.5316749 21.093603 1.2424312 90 0 0 0 21.85293
-19.296185 23.916176 1.0220996 71 0 0 0 13.64862
-7.8647184 24.367643 1.4811189 70 0 0 0 19.51819
-19.328856 25.19858 1.0550967 41 0 0 0 14.04593
-19.076971 26.1752 1.0752931 50 0 0 0 14.44523
-18.595327 26.873583 1.084484 8 0 0 0 14.8273
-18.578558 28.311394 1.1224374 42 0 0 0 15.22563
-18.431076 29.649204 1.1560153 53 0 0 0 15.61022
-18.245462 31.024738 1.1906447 44 0 0 0 16.000799
-18.050005 32.493301 1.2283801 39 0 0 0 16.393101
-6.260139 -61.594769 1.9694126 21 0 0 0 76.147209
7.3099365 -50.606995 1.6190768 29 0 0 0 72.241402
-17.135735 -44.090439 1.5234995 9 0 0 0 80.451988
-47.666527 -35.266399 1.9238137 5 0 0 0 89.446419
-47.597244 -33.443073 1.8887256 5 0 0 0 89.839088
-47.411278 -31.60692 1.8514071 8 0 0 0 90.22451
-12.658449 -30.335382 1.8739419 9 0 0 0 80.838837
3.4783056 -29.20085 1.6663412 15 0 0 0 72.628967
-19.183701 -28.58172 1.9661691 20 0 0 0 83.964195
-16.512423 -28.994001 1.904967 40 0 0 0 82.795509
-20.620882 -27.691092 1.9732071 11 0 0 0 84.75
-21.19525 -27.053783 1.9649562 13 0 0 0 85.14045
1.887452 -27.103447 1.5436066 90 0 0 0 73.419502
2.5688567 -27.245275 1.5538124 107 0 0 0 73.022888
-22.063023 -26.784262 1.9842911 17 0 0 0 85.533859
0.55312884 -26.891096 1.5298848 97 0 0 0 74.19339
1.216403 -26.985579 1.5356461 107 0 0 0 73.807617
-16.835478 -23.799397 1.6709014 75 0 0 0 84.356125
-14.826344 -23.297951 1.5836003 19 0 0 0 83.576324
-18.357193 -19.215307 1.5289707 82 0 0 0 86.715477
-20.265219 -18.311827 1.5717487 29 0 0 0 87.879425
-19.427368 -18.438099 1.541575 70 0 0 0 87.485107
-18.529242 -18.468252 1.5061258 80 0 0 0 87.097954
6.1488624 -14.089437 1.638117 89 0 0 0 67.945747
5.6176624 -13.782248 1.7698791 81 0 0 0 68.339188
8.4492321 -13.52213 1.6958464 56 0 0 0 65.597298
7.1372523 -12.774684 1.9195937 140 0 0 0 66.384163
8.3810816 -12.707467 1.9947793 207 0 0 0 65.207298
8.5273638 -12.933038 1.6483747 118 0 0 0 65.207298
3.8935285 -12.017179 1.6640033 61 0 0 0 69.510094
3.5176702 -11.839851 1.6280937 115 0 0 0 69.898499
-17.885801 -11.302855 1.7535217 134 0 0 0 90.616463
2.6957979 -11.032321 1.7811742 71 0 0 0 70.688049
3.7131748 -11.464979 1.8870878 105 0 0 0 69.510094
-17.919907 -10.719754 1.7312909 187 0 0 0 91.013535
2.9260311 -10.821221 1.7582462 138 0 0 0 70.291031
3.1200497 -10.513689 1.7205958 213 0 0 0 69.898499
-46.652283 -10.461747 1.5633268 5 0 0 0 96.067955
-17.887768 -10.114321 1.7045019 145 0 0 0 91.396606
3.5626943 -10.15684 1.6888368 112 0 0 0 69.119911
-19.680553 -9.8897486 1.8249354 95 0 0 0 92.158997
-18.692463 -9.9736042 1.756536 112 0 0 0 91.778809
5.2291288 -9.6513605 1.8566253 100.5 0 0 0 66.57608
5.5681667 -9.9811201 1.7897683 133 0 0 0 66.384163
8.1334047 -9.5575542 1.9610704 201 0 0 0 63.251499
-46.531353 -9.2438498 1.5515171 8 0 0 0 96.463959
5.6839762 -9.365591 1.7169724 189 0 0 0 65.790054
7.2819014 -9.4616699 1.5719013 149 0 0 0 64.030167
7.616034 -9.4088507 1.5931432 42 0 0 0 63.638367
8.1593046 -9.353796 1.6327548 122.5 0 0 0 63.0509
3.8401127 -8.8253393 1.7499791 381.66666 0 0 0 67.945747
4.0407476 -8.6985302 1.6266152 821.5 0 0 0 67.555054
7.2752767 -7.7531643 1.93038 448 0 0 0 62.468559
4.7615905 -4.1025443 1.7448746 588.59998 0 0 0 60.743176
4.869698 -3.9211986 1.8062334 719.25 0 0 0 60.211475
5.8549161 -3.9853139 1.6489159 1311 0 0 0 58.951366
6.2119303 -3.8997078 1.6168522 1131 0 0 0 58.357986
6.6728954 -3.7795703 1.6572056 763.33331 0 0 0 57.648548
7.1815815 -3.6884434 1.6780987 1176 0 0 0 56.991791
7.6891193 -3.5935373 1.5534449 965.5 0 0 0 56.403133
8.2762861 -3.5030324 1.643134 855 0 0 0 55.827271
9.2313366 -3.3801425 1.5505577 760 0 0 0 55.043179
9.7276087 -3.2920842 1.6185215 716 0 0 0 54.663631
11.030796 -3.2833326 1.6678604 544 0 0 0 54.072174
11.726953 -3.1785088 1.7596099 233 0 0 0 53.683273
-17.476421 -2.593118 1.900656 327 0 0 0 97.247421
14.821582 -2.2973964 1.9786181 151 0 0 0 51.924591
16.160614 -2.1011193 1.7455173 251 0 0 0 51.534447
21.444208 -1.1901518 1.7681729 44 0 0 0 50.367752
-17.243217 1.2566448 1.8430184 231.5 0 0 0 0.58999497
-17.234663 1.8903587 1.8491496 168 0 0 0 1.17426
-17.166744 2.3070052 1.8480936 340 0 0 0 1.56536
30.645956 2.0621328 1.7520124 55 0 0 0 48.416714
-17.142324 2.727176 1.856069 364 0 0 0 1.95101
-17.115648 3.1521773 1.8613721 368 0 0 0 2.35026
-17.091982 3.580435 1.8681208 332 0 0 0 2.7334399
6.3764396 4.8251643 1.7750487 703.5 0 0 0 39.235691
6.7599716 4.7305918 1.8321598 476.5 0 0 0 39.829338
8.6447849 4.8488636 1.6999993 689.5 0 0 0 41.391579
9.1865644 4.857573 1.6501697 474 0 0 0 41.779449
9.9641848 4.956295 1.764105 388 0 0 0 42.165161
10.590236 4.9451289 1.5600249 412 0 0 0 42.556072
6.3458586 5.1820645 1.9184157 100 0 0 0 38.66114
12.331953 5.3887391 1.7899261 176 0 0 0 42.953873
1.3621737 5.7489848 1.6324869 129.33333 0 0 0 28.359808
1.5334157 5.6410165 1.5912566 91.5 0 0 0 28.88133
16.37015 6.6685963 1.9020678 220 0 0 0 43.341881
-0.57854217 7.6242499 1.7808634 785 0 0 0 23.408899
1.9800594 7.9307976 1.8074913 415.5 0 0 0 28.491159
2.2256289 7.6998835 1.7737185 176.75 0 0 0 29.0734
-16.354877 8.4066381 1.9706395 112 0 0 0 7.01862
-0.80857396 8.0950661 1.7931786 321 0 0 0 23.019739
1.8074675 8.0764732 1.8291292 263 0 0 0 28.097099
3.3185296 8.2863293 1.7528572 704.75 0 0 0 30.641645
3.5907671 8.0869522 1.6290292 369 0 0 0 31.230749
-17.162556 8.824688 1.6007882 40 0 0 0 7.01862
-16.376904 8.930604 1.9990135 60 0 0 0 7.4070001
-17.118721 9.3378897 1.6175323 56 0 0 0 7.4070001
5.9554801 9.3496275 1.7576076 331 0 0 0 33.570232
6.2887864 9.3543739 1.7866882 282 0 0 0 33.955032
25.967312 9.1040134 1.581898 117 0 0 0 44.113888
-17.040049 9.8426704 1.6323938 14 0 0 0 7.80902
5.7782655 9.7631454 1.6081361 233.33333 0 0 0 33.049633
-17.083456 10.433267 1.6603253 44 0 0 0 8.1908503
8.8645658 10.193587 1.7987967 105 0 0 0 35.917019
-17.081165 11.014448 1.6856337 33 0 0 0 8.5785503
11.542995 11.429172 1.7545383 213 0 0 0 37.094872
-17.054667 11.597762 1.710354 30 0 0 0 8.9742203
5.2630358 11.774534 1.7175703 306 0 0 0 31.230749
8.3976994 11.817842 1.5699865 26 0 0 0 34.356258
15.350533 11.842852 1.6138027 103 0 0 0 39.042473
-17.04196 12.209642 1.7383057 34 0 0 0 9.3702602
9.9001331 12.254254 1.7029707 60.5 0 0 0 35.325592
10.779862 12.37494 1.7723953 121 0 0 0 35.917019
19.85672 12.408196 1.9397647 36 0 0 0 40.600182
-17.012457 12.830201 1.7665486 41 0 0 0 9.7569704
9.5416527 12.742008 1.7202349 42 0 0 0 34.738899
11.491859 12.552411 1.836483 66 0 0 0 36.311848
-16.969551 13.462153 1.7954932 53 0 0 0 10.14072
12.859096 13.364041 1.9978509 59 0 0 0 36.70602
-4.1202545 18.821552 1.6012146 51 0 0 0 21.080299
-5.0329456 20.603304 1.7594868 113 0 0 0 20.69281
-19.026871 21.346725 1.651736 22 0 0 0 12.8725
-3.5539429 21.209503 1.7840021 74 0 0 0 21.85293
-19.170225 22.601543 1.7107126 13 0 0 0 13.25758
-4.3547411 22.61396 1.9079996 49 0 0 0 21.469429
-11.615172 23.498747 1.515869 100 0 0 0 17.172791
-3.3342767 23.468933 1.9634447 141 0 0 0 22.245529
-19.053116 23.614094 1.7506487 23 0 0 0 13.64862
-11.015327 23.730391 1.5129596 57 0 0 0 17.56127
-12.817567 24.418171 1.593286 98 0 0 0 16.77846
-18.992655 24.758787 1.7994714 13 0 0 0 14.04593
-10.698537 26.376781 1.6432002 66 0 0 0 18.350769
-9.8873529 26.197544 1.6169161 59 0 0 0 18.73456
-9.1067657 26.039017 1.5932959 72 0 0 0 19.120041
9.851346 -40.0382 2.3166599 37 0 0 0 70.688049
-14.141033 -39.1954 2.3650093 15 0 0 0 80.056793
0.61285663 -29.402824 2.401438 20 0 0 0 74.19339
2.0450251 -29.254856 2.3932524 28 0 0 0 73.419502
-0.10373636 -28.248362 2.3087134 46 0 0 0 74.583427
1.228195 -27.131094 2.2195892 79 0 0 0 73.807617
-13.596833 -25.301708 2.3587294 26 0 0 0 82.412338
-11.814102 -24.824657 2.2579634 24 0 0 0 81.624489
-14.593181 -24.231222 2.324415 8 0 0 0 83.180283
-16.696732 -23.612305 2.3773174 62 0 0 0 84.356125
-15.162582 -23.836573 2.322057 38 0 0 0 83.576324
-16.945381 -22.760712 2.3338118 70 0 0 0 84.75
-18.371355 -19.237196 2.1921732 82 0 0 0 86.715477
-18.561419 -18.507114 2.1610339 67 0 0 0 87.097954
-20.32427 -18.371956 2.2581038 35 0 0 0 87.879425
-19.450241 -18.466579 2.2108605 76 0 0 0 87.485107
6.1343298 -14.049493 2.0105848 48 0 0 0 67.945747
8.2657166 -13.224711 2.0429943 177 0 0 0 65.597298
8.2076216 -12.445781 2.3233435 170 0 0 0 65.207298
-17.926279 -11.328603 2.272089 123 0 0 0 90.616463
-17.940201 -10.732044 2.240591 183 0 0 0 91.013535
-17.913336 -10.128914 2.206342 153 0 0 0 91.396606
-19.717163 -9.9082747 2.3638902 127 0 0 0 92.158997
-18.727642 -9.9925089 2.2749836 97 0 0 0 91.778809
3.7296793 -8.8617172 2.3392859 353 0 0 0 68.142471
7.2427287 -7.7176032 2.3119426 389 0 0 0 62.468559
10.083797 -7.2082486 2.24649 352 0 0 0 59.338619
4.6217842 -4.0611496 2.1948762 479.33334 0 0 0 60.900761
4.8023052 -3.915055 2.2111299 668.83331 0 0 0 60.309917
10.939535 -3.7003431 2.2440255 88.5 0 0 0 54.663631
11.00599 -3.4239161 2.2405667 357.5 0 0 0 54.267712
14.914099 -2.3122804 2.365165 281 0 0 0 51.924591
15.753016 -2.0462372 2.0940623 223 0 0 0 51.534447
17.055344 -1.7898978 2.2583578 223 0 0 0 51.13747
18.647463 -1.494148 2.4607644 140 0 0 0 50.75
21.311832 -1.1837209 2.2770145 95 0 0 0 50.367752
25.711212 0.46886587 2.1124663 85 0 0 0 49.193649
-17.037363 1.8655183 2.2464533 65 0 0 0 1.17426
-17.088058 2.2933245 2.2604926 57 0 0 0 1.56536
-17.112745 2.7194197 2.2759027 83 0 0 0 1.95101
-17.101727 3.1465671 2.2844067 75 0 0 0 2.35026
35.744801 3.287533 2.0424354 7 0 0 0 48.020634
-17.092579 3.5775173 2.2945645 114 0 0 0 2.7334399
6.3467531 4.8650537 2.3199811 488.5 0 0 0 39.139084
6.7349005 4.8352451 2.2496953 458.5 0 0 0 39.629128
7.1861858 4.6819477 2.3609591 310.33334 0 0 0 40.342266
6.2442608 5.0998902 2.2871656 457.66666 0 0 0 38.66114
16.723135 6.3400598 2.3646765 17 0 0 0 43.729519
16.323343 6.6522202 2.3315473 208 0 0 0 43.341881
-0.57759333 7.5980749 2.2439549 982.5 0 0 0 23.408899
1.9623946 7.8687682 2.4940243 76 0 0 0 28.491159
2.2669768 7.6685939 2.3125548 97.25 0 0 0 29.169436
-0.80749667 8.0785532 2.1878829 569.5 0 0 0 23.019739
1.681255 8.1397038 2.2120736 221 0 0 0 27.840586
3.2181101 8.333251 2.0833383 308 0 0 0 30.450991
3.0503507 8.5142794 2.2198958 343.5 0 0 0 30.05212
-16.268534 9.3941336 2.0133622 48 0 0 0 7.80902
25.756311 9.0341463 2.2502487 131 0 0 0 44.113888
-16.379253 10.000466 2.0565524 24 0 0 0 8.1908503
8.783102 10.099764 2.2807021 376 0 0 0 35.917019
-16.335472 10.530579 2.0827568 39 0 0 0 8.5785503
11.375666 10.728069 2.0758765 75 0 0 0 37.487141
12.040948 10.806392 2.1464689 144 0 0 0 37.873798
-16.34264 11.110559 2.1175869 45 0 0 0 8.9742203
11.152056 11.047571 2.083914 111 0 0 0 37.094872
-16.283381 11.662814 2.1461732 34 0 0 0 9.3702602
10.910248 11.924454 2.1445212 13 0 0 0 36.311848
18.708302 11.69194 2.3669164 33 0 0 0 40.600182
35.996784 11.629832 2.1599622 52 0 0 0 44.506767
-16.276373 12.271704 2.1840026 45 0 0 0 9.7569704
9.858799 12.206701 2.0831673 17 0 0 0 35.325592
11.622112 12.088902 2.2235703 64 0 0 0 36.70602
14.42784 12.308269 2.0415828 62 0 0 0 38.2659
72.847855 12.149155 2.3606889 8 0 0 0 46.846062
-16.241304 12.880957 2.2207479 41 0 0 0 10.14072
-16.266651 13.563534 2.268641 43 0 0 0 10.53106
14.898021 14.026046 2.2000399 173 0 0 0 37.487141
17.580734 14.256247 2.4289773 4 0 0 0 38.66114
-3.9731371 18.12184 2.4486027 49 0 0 0 21.080299
-5.5860467 20.662624 2.2945991 25 0 0 0 20.30286
-5.0295491 20.590857 2.2726545 145 0 0 0 20.69281
-3.9931691 20.697554 2.2605708 147 0 0 0 21.469429
-4.6342297 21.225943 2.3287098 69 0 0 0 21.080299
-9.2203112 22.688389 2.0268617 153 0 0 0 18.350769
-7.8633957 24.350424 2.1164074 46 0 0 0 19.51819
-7.1676803 24.204401 2.0882633 40 0 0 0 19.9079
-6.51969 24.173981 2.0714984 88 0 0 0 20.30286
-9.3033009 24.622965 2.1761975 92 0 0 0 18.73456
-9.0954037 25.993103 2.2753692 90 0 0 0 19.120041
-11.508047 26.482809 2.3844154 47 0 0 0 17.947639
-13.264095 26.853043 2.4721577 70 0 0 0 17.172791
-12.367013 26.657879 2.4261703 53 0 0 0 17.56127
8.2124138 -48.444378 2.7584338 36 0 0 0 71.858871
-16.596876 -29.154949 2.7499025 13 0 0 0 82.795509
-13.127597 -29.426445 2.6399641 11 0 0 0 81.23275
-21.494637 -27.446569 2.8601665 6 0 0 0 85.14045
0.56967193 -27.404367 2.9059925 86 0 0 0 74.19339
1.2316173 -27.197832 2.8859706 63 0 0 0 73.807617
1.8918823 -27.089491 2.8779256 101 0 0 0 73.419502
-17.000763 -25.336878 2.5058346 21 0 0 0 83.964195
-12.483043 -24.657173 2.9410419 18 0 0 0 82.011536
-12.914832 -24.031563 2.9042406 22 0 0 0 82.412338
-14.995624 -23.574331 2.9750602 98 0 0 0 83.576324
-11.127182 -23.37962 2.7569652 8 0 0 0 81.624489
-12.928364 -22.704683 2.7832382 26 0 0 0 82.795509
-15.568274 -22.015484 2.8733387 17 0 0 0 84.356125
-24.735809 -21.284613 2.6836314 9 0 0 0 88.260719
-15.984468 -20.406488 2.7644877 21 0 0 0 85.14045
-17.247358 -19.927711 2.8110843 12 0 0 0 85.92321
-18.376017 -19.242411 2.8385811 86 0 0 0 86.715477
-18.578085 -18.524055 2.7997673 66 0 0 0 87.097954
-20.274117 -18.326891 2.9160388 26 0 0 0 87.879425
-19.454786 -18.471201 2.8625681 80 0 0 0 87.485107
7.4343438 -12.573399 2.6389461 175 0 0 0 65.982811
7.6776757 -12.288398 2.6179042 162 0 0 0 65.597298
8.0382595 -12.190272 2.6377628 124 0 0 0 65.207298
-17.930111 -11.335556 2.7940454 130 0 0 0 90.616463
-47.030582 -10.546665 2.7553475 58 0 0 0 96.067955
-17.958576 -10.747438 2.7573371 153 0 0 0 91.013535
-18.750282 -10.008923 2.8001816 115 0 0 0 91.778809
-17.926016 -10.140347 2.7141528 147 0 0 0 91.396606
-19.730898 -9.9196129 2.9084136 75 0 0 0 92.158997
-46.969795 -9.3310137 2.7378309 74 0 0 0 96.463959
-0.91093659 -8.8112259 2.9240608 143 0 0 0 76.147209
3.3811557 -8.9330978 2.9131775 409 0 0 0 68.730995
3.5928125 -8.8357658 2.7920375 303 0 0 0 68.339188
-46.904438 -8.1292448 2.7218039 78 0 0 0 96.852119
7.154562 -7.8117604 2.8353894 157.5 0 0 0 62.659431
10.03997 -7.1762362 2.6919141 245 0 0 0 59.338619
10.856535 -3.671129 2.7908683 240.5 0 0 0 54.663631
10.950328 -3.4054351 2.7934585 169 0 0 0 54.267712
14.958298 -2.3197162 2.7476935 268 0 0 0 51.924591
15.90782 -2.0672402 2.7110791 168 0 0 0 51.534447
17.180403 -1.8036822 2.7031279 213 0 0 0 51.13747
18.723133 -1.5009706 2.9364417 137 0 0 0 50.75
21.226637 -1.176176 2.7918999 117 0 0 0 50.367752
25.613953 0.46604517 2.7280109 93 0 0 0 49.193649
-16.087177 1.7604131 2.5193326 228 0 0 0 1.17426
-16.070843 2.1555011 2.524966 175 0 0 0 1.56536
30.594784 2.0627975 2.5137985 28 0 0 0 48.416714
-16.063723 2.7523954 2.5423558 50.5 0 0 0 2.150635
-16.025471 3.3523319 2.5544858 37 0 0 0 2.7334399
6.205935 4.9022412 2.7687075 456.66666 0 0 0 38.915363
7.3186235 4.726687 2.7955666 419 0 0 0 40.406746
7.6367102 4.5378146 2.9579589 455 0 0 0 40.993729
6.1663322 5.0356526 2.6558752 521 0 0 0 38.66114
45.139683 5.2700739 2.5774558 16 0 0 0 47.62944
16.245169 6.6197677 2.7558956 227 0 0 0 43.341881
1.9023596 7.9056745 2.8353941 226 0 0 0 28.359804
2.2124147 7.6592002 2.7488422 110.75 0 0 0 29.0734
-0.21346408 8.138814 2.8976779 8 0 0 0 24.193661
1.688695 8.1133757 2.7111516 383 0 0 0 27.866238
2.919204 8.8237095 2.8543956 298 0 0 0 29.656229
3.1055722 8.6655521 2.7153449 184 0 0 0 30.05212
25.634964 8.9906034 2.9009299 124 0 0 0 44.113888
11.356198 9.2291813 2.6716487 19 0 0 0 38.66114
-18.633671 9.5828123 2.7551253 12 0 0 0 7.01862
-18.236721 10.238777 2.7508097 86.5 0 0 0 7.6080103
8.7481499 10.059011 2.7664962 137 0 0 0 35.917019
-17.485662 10.676977 2.6954181 88 0 0 0 8.1908503
-17.789522 11.470587 2.7844493 65 0 0 0 8.5785503
-17.301952 11.763324 2.7527738 100 0 0 0 8.9742203
18.847534 11.782344 2.9322689 17 0 0 0 40.600182
14.430446 12.313649 2.7452846 31 0 0 0 38.2659
-4.2798862 17.452663 2.8165925 129 0 0 0 20.69281
29.462994 17.402998 2.8167372 16 0 0 0 40.993729
-20.28801 17.801737 2.8846879 45 0 0 0 10.92709
-4.7581425 17.537699 2.847702 124 0 0 0 20.30286
-3.9273217 17.909529 2.8734169 38 0 0 0 21.080299
-3.0252264 17.956861 2.8547595 32 0 0 0 21.85293
-18.699274 18.096342 2.7819762 11 0 0 0 11.70206
-3.544147 18.301054 2.9212742 81 0 0 0 21.469429
-20.171158 18.593126 2.9315114 14 0 0 0 11.31339
0.56116992 19.060514 2.9908757 86 0 0 0 24.977989
-5.0285716 20.572685 2.7909257 75 0 0 0 20.69281
-3.9622481 20.515972 2.7543993 128 0 0 0 21.469429
8.7433414 20.787022 2.9757252 27 0 0 0 30.8323
-2.256263 24.464785 2.6307559 97 0 0 0 23.019739
-4.1625414 24.941454 2.7058952 31 0 0 0 21.85293
-3.5101027 24.745049 2.6751056 115 0 0 0 22.245529
-2.8751199 24.579279 2.6493626 82 0 0 0 22.63798
-9.0847378 25.963852 2.9401727 114 0 0 0 19.120041
-8.3392248 25.843813 2.9030333 72 0 0 0 19.51819
-7.5721374 25.590429 2.8534749 38 0 0 0 19.9079
-9.8674994 26.133482 2.9853239 90 0 0 0 18.73456
-14.182096 27.027939 2.5188794 61 0 0 0 16.77846
9.1759109 -41.622837 3.4559054 8 0 0 0 71.069366
10.224438 -41.516552 3.4653859 49 0 0 0 70.688049
-48.33197 -37.625191 3.484396 7 0 0 0 89.04715
-48.557194 -35.926018 3.4373832 10 0 0 0 89.446419
-48.423306 -32.282158 3.3144796 9 0 0 0 90.22451
-27.674547 -30.444029 3.3715265 10 0 0 0 86.319633
-0.10415078 -28.529537 3.0240138 77 0 0 0 74.583427
-14.711537 -24.428503 3.0352466 17 0 0 0 83.180283
-16.841341 -22.621292 3.0042789 75 0 0 0 84.75
-13.137748 -21.821444 3.3405049 28 0 0 0 83.180283
-11.694692 -21.767765 3.2407467 12 0 0 0 82.412338
-16.133623 -19.596724 3.33198 28 0 0 0 85.533859
-15.604667 -19.928741 3.3221276 27 0 0 0 85.14045
-22.922869 -18.767389 3.1590605 30 0 0 0 88.650566
-18.820784 -18.773062 3.4896829 32 0 0 0 87.097954
-23.635674 -18.40336 3.1942816 11 0 0 0 89.04715
-18.809425 -17.86466 3.4066298 15 0 0 0 87.485107
-24.59713 -17.287024 3.2065434 21 0 0 0 89.839088
-22.969452 -16.997797 3.0489757 16 0 0 0 89.446419
-19.333216 -16.640327 3.3511181 20 0 0 0 88.260719
8.4215202 -16.953009 3.4104581 87 0 0 0 67.15699
-19.790009 -15.413663 3.2966924 15 0 0 0 89.04715
-19.951542 -14.769268 3.2630634 43 0 0 0 89.446419
-18.001749 -12.655293 3.4407239 121 0 0 0 89.839088
1.4662278 -12.385084 3.489042 200 0 0 0 72.628967
1.763437 -12.30959 3.4787915 209 0 0 0 72.241402
2.2007282 -12.16943 3.4598076 179.5 0 0 0 71.658539
-17.878441 -11.925453 3.3613634 112 0 0 0 90.22451
-17.827299 -11.27069 3.2997391 117 0 0 0 90.616463
0.35539722 -11.105595 3.112648 175.5 0 0 0 74.000504
12.515474 -11.48667 3.2717645 78 0 0 0 61.285408
-17.855047 -10.685603 3.256161 40 0 0 0 91.013535
-0.04969519 -10.915716 3.3264575 8 0 0 0 74.583427
0.21161716 -10.667147 3.2518616 200 0 0 0 74.19339
0.75084662 -10.911695 3.1979895 101.5 0 0 0 73.419502
1.1498699 -10.861691 3.1950326 219.5 0 0 0 72.825928
-17.913172 -10.133213 3.2211361 118 0 0 0 91.396606
0.3254227 -10.273191 3.2631464 158.5 0 0 0 74.000504
0.86086297 -10.122972 3.2649212 204 0 0 0 73.15509
1.2278696 -10.40928 3.4536197 158 0 0 0 72.628967
1.7353643 -10.337366 3.45362 116 0 0 0 71.858871
-18.417078 -9.831131 3.2672472 12 0 0 0 91.778809
0.43285388 -9.8521252 3.2514527 197 0 0 0 73.807617
-19.20256 -9.0720816 3.3236098 17 0 0 0 92.552254
-18.79318 -9.4481773 3.2919114 20 0 0 0 92.158997
-0.78977484 -9.1837645 3.342241 281.66666 0 0 0 75.888802
3.1668761 -9.022439 3.3869815 48 0 0 0 69.119911
-0.67440236 -8.5957298 3.1633878 193.5 0 0 0 75.761536
3.351589 -8.8555183 3.2380066 378 0 0 0 68.730995
6.988492 -7.8221211 3.4561396 265 0 0 0 62.8503
7.0140452 -7.8476377 3.2073808 301 0 0 0 62.8503
9.8114567 -7.3825169 3.2828715 215.5 0 0 0 59.728489
10.035644 -7.1723208 3.1452534 112 0 0 0 59.338619
13.24982 -7.1944976 3.4680812 106 0 0 0 57.390598
14.0079 -6.3221231 3.1596417 38 0 0 0 56.209648
10.800465 -3.6520474 3.3415902 175.5 0 0 0 54.663631
10.906128 -3.3915629 3.348089 88 0 0 0 54.267712
15.922297 -2.070106 3.3088868 243 0 0 0 51.534447
21.106178 -1.170422 3.3004484 133 0 0 0 50.367752
40.848186 -0.25569829 3.3318806 16 0 0 0 49.581619
25.451777 0.46648613 3.3381186 161 0 0 0 49.193649
9.2314959 2.2610817 3.3932858 193 0 0 0 45.673672
30.40237 2.0486033 3.2395506 61 0 0 0 48.416714
12.832582 3.1358721 3.3880749 17 0 0 0 45.673672
7.529563 4.4775171 3.3495326 556 0 0 0 40.993729
8.0379429 4.2566419 3.2515583 689 0 0 0 41.779449
6.1559548 4.9050179 3.0147398 407 0 0 0 38.851807
7.4743738 4.6983142 3.1576962 293 0 0 0 40.600182
7.659296 4.5543962 3.186774 365 0 0 0 40.993729
7.8620539 5.493814 3.1899874 529 0 0 0 39.829338
7.8726912 5.5048938 3.431639 401 0 0 0 39.829338
16.514874 6.2599487 3.2123961 63 0 0 0 43.729519
16.136185 6.5748124 3.170198 259 0 0 0 43.341881
1.8698654 7.916831 3.1025176 141 0 0 0 28.294128
2.2097211 7.6537943 3.0404153 91 0 0 0 29.0734
54.59063 7.7335463 3.1207926 16 0 0 0 47.24284
-0.21328294 8.1376343 3.0965364 20 0 0 0 24.193661
1.6123006 8.1504049 3.1667194 257 0 0 0 27.71233
9.33325 8.3901968 3.2246997 32 0 0 0 37.873798
9.5453634 8.164938 3.2274997 204 0 0 0 38.2659
-18.168789 8.7877388 3.1509275 79 0 0 0 6.6377301
2.9517283 8.9183769 3.2336912 180 0 0 0 29.656229
9.2226639 8.7101107 3.2589858 50 0 0 0 37.487141
-17.840263 9.1723318 3.1323624 65 0 0 0 7.01862
8.9549818 9.8016329 3.4084644 10 0 0 0 36.311848
8.7529182 10.067406 3.0959649 12 0 0 0 35.917019
-18.23271 11.13651 3.3362701 59 0 0 0 8.1908503
-18.5952 11.993834 3.4551578 31 0 0 0 8.5785503
35.924519 11.611929 3.0970867 26 0 0 0 44.506767
-17.973749 12.223483 3.3947277 27 0 0 0 8.9742203
14.36773 12.259196 3.436219 32 0 0 0 38.2659
-18.736254 13.427575 3.031085 42 0 0 0 9.3702602
-18.689203 14.099005 3.0783384 52 0 0 0 9.7569704
-18.554956 15.479844 3.177151 21 0 0 0 10.53106
19.962618 15.389417 3.3212969 65 0 0 0 39.042473
-19.946121 15.83465 3.3471217 19 0 0 0 10.14072
-18.143351 15.904472 3.1725156 44 0 0 0 10.92709
-18.645176 17.173355 3.3320301 31 0 0 0 11.31339
-18.532331 17.928185 3.38906 25 0 0 0 11.70206
-4.8477845 17.876209 3.3598053 54 0 0 0 20.30286
-4.3659878 17.813196 3.3274357 33 0 0 0 20.69281
-2.1039066 17.752026 3.2458785 113 0 0 0 22.63798
-18.435047 18.730171 3.45385 32 0 0 0 12.08616
0.090232931 18.674068 3.3914945 110 0 0 0 24.583509
-18.061274 19.271685 3.4711294 15 0 0 0 12.47905
-7.3769107 19.463446 3.2569261 40 0 0 0 18.73456
-6.7077298 19.088877 3.1669085 70 0 0 0 19.120041
21.687485 19.409929 3.1128867 32 0 0 0 37.873798
25.760357 19.838497 3.4718983 38 0 0 0 39.042473
-13.086089 20.989862 3.2530999 27 0 0 0 15.61022
7.5833421 20.83778 3.4758785 100 0 0 0 30.05212
8.1137371 20.699001 3.4849596 114 0 0 0 30.450991
-12.529745 21.237616 3.243216 6 0 0 0 16.000799
-8.9647989 22.044134 3.1316774 85 0 0 0 18.350769
-6.5992656 22.247713 3.0550473 62 0 0 0 19.9079
0.1399266 23.977589 3.158849 64 0 0 0 24.583509
