# .PCD v0.7 - Point Cloud Data file format
VERSION 0.7
FIELDS x y z intensity normal_x normal_y normal_z curvature
SIZE 4 4 4 4 4 4 4 4
TYPE F F F F F F F F
COUNT 1 1 1 1 1 1 1 1
WIDTH 900
HEIGHT 1
VIEWPOINT 0 0 0 1 0 0 0
POINTS 900
DATA ascii
-3.7145221 -5.6802683 -0.91819143 294 0 0 0 83.783241
-3.2977519 -5.9550781 -0.92106563 303.5 0 0 0 82.6147
-2.5850704 -5.7798247 -0.54170817 281 0 0 0 81.238571
-2.1904631 -5.8303089 -0.6105566 252.5 0 0 0 80.263863
-1.7874447 -5.8065648 -0.51882112 251.66667 0 0 0 79.287056
-1.3270235 -5.6206379 -0.80499333 147 0 0 0 78.209953
-0.78447008 -5.558547 -0.88946009 143.5 0 0 0 76.746544
-0.23603758 -5.5737395 -0.88424957 119.5 0 0 0 75.179901
2.4278064 -5.9458327 -0.87132221 151 0 0 0 68.339027
2.7324696 -5.8528771 -0.87697148 206.33333 0 0 0 67.562355
3.1725128 -5.664907 -0.88205862 212.33333 0 0 0 66.385605
5.0904775 -5.6577625 -0.85130876 507 0 0 0 62.863018
7.5620508 -5.7866149 -0.83848149 179.5 0 0 0 59.922668
9.9605837 -5.6677494 -0.73143595 598 0 0 0 57.777939
15.157977 -5.864758 -0.65198845 192 0 0 0 55.4352
-9.7583542 -5.3629465 -0.97977638 148.5 0 0 0 91.60022
-4.2780375 -5.1922846 -0.90908056 523 0 0 0 85.539001
-2.6560564 -5.0754313 -0.90635747 216 0 0 0 82.222549
-2.2685909 -5.2359452 -0.90331745 216 0 0 0 81.043777
-1.7463608 -5.4315777 -0.90367448 156.5 0 0 0 79.482361
-0.15347062 -5.0437217 -0.9227972 134.66667 0 0 0 74.984734
0.1037994 -5.498332 -0.87109077 273 0 0 0 74.202896
0.83381248 -5.3927903 -0.86492407 260.5 0 0 0 72.059097
1.2373936 -5.3456683 -0.87064576 183.75 0 0 0 70.88121
1.7731185 -5.2596335 -0.88177097 136.75 0 0 0 69.315544
2.1366243 -5.0718107 -0.87416714 122.5 0 0 0 68.145996
3.4355664 -5.4842057 -0.87907827 231 0 0 0 65.595741
3.6481218 -5.2347655 -0.86656398 205 0 0 0 64.818489
4.4688902 -5.4927874 -0.70186943 239.5 0 0 0 63.647141
4.7679062 -5.3036556 -0.70715666 458 0 0 0 62.859818
7.7589307 -5.3532128 -0.82963324 163.5 0 0 0 59.146133
10.125471 -5.275919 -0.72847182 310 0 0 0 57.1908
15.261318 -5.2655735 -0.64703655 95 0 0 0 54.849979
-9.9020948 -4.9771738 -0.97478485 303 0 0 0 92.174118
-4.1451135 -4.5557818 -0.6756224 479.33334 0 0 0 86.335045
-3.77263 -4.93643 -0.75983387 422 0 0 0 84.956429
-3.2987113 -4.7519403 -0.82866395 179 0 0 0 84.21048
-2.8948212 -4.9294128 -0.90419781 188.5 0 0 0 83.006943
-1.7285048 -4.585248 -0.89316702 96.75 0 0 0 80.263863
-1.2625815 -4.6937718 -0.88614291 54.25 0 0 0 78.698669
-0.7388016 -4.8000369 -0.88624132 61.200001 0 0 0 76.942368
-0.38034347 -4.7707396 -0.87267882 60 0 0 0 75.765427
0.30420798 -4.688406 -0.71180338 117.16666 0 0 0 73.45282
0.65286344 -4.7174864 -0.76959735 96 0 0 0 72.304115
1.1784291 -4.6074762 -0.86945295 155 0 0 0 70.488533
2.370954 -4.935854 -0.86987168 137.5 0 0 0 67.36705
2.7806363 -4.706111 -0.86926347 168.8 0 0 0 65.992165
3.9178286 -4.943471 -0.8563478 237 0 0 0 63.841869
4.2003365 -4.6785259 -0.85378337 273.33334 0 0 0 62.860886
4.9478159 -4.9877653 -0.69605148 868.5 0 0 0 62.075367
5.1821837 -4.7344232 -0.69545507 582.83331 0 0 0 61.295612
5.7046299 -4.5967593 -0.81841338 321 0 0 0 60.315132
8.0211926 -4.5687304 -0.81148404 166 0 0 0 57.777939
10.44763 -4.9623232 -0.73818862 409 0 0 0 56.599499
10.811095 -4.6535296 -0.75168961 166.5 0 0 0 56.023476
15.60535 -4.747776 -0.65367532 85 0 0 0 54.271111
-10.114966 -4.1841412 -0.96204346 318 0 0 0 93.352608
-9.3254242 -4.2646379 -0.77216262 550.75 0 0 0 92.768234
-7.2093825 -4.0798311 -0.92295867 66 0 0 0 91.41143
-4.1779079 -4.3718443 -0.58974147 344.5 0 0 0 86.720367
-3.6476038 -4.2789502 -0.82092625 256.33334 0 0 0 85.803322
-2.6950414 -4.1120548 -0.89534688 127.25 0 0 0 83.783241
-2.2353568 -4.3975821 -0.89913261 135.60001 0 0 0 82.024643
-1.2590272 -4.0634737 -0.87430584 45.599998 0 0 0 79.286301
-0.74433374 -4.1295743 -0.8625719 27.200001 0 0 0 77.333092
-0.2366786 -4.2027106 -0.86625022 42 0 0 0 75.375198
0.24075514 -4.4067078 -0.91073459 70.25 0 0 0 73.615906
0.69693577 -4.2235632 -0.88320601 57.799999 0 0 0 71.859154
1.2082045 -4.1614647 -0.87215215 57.799999 0 0 0 69.978935
1.7618498 -4.3400168 -0.85692155 68 0 0 0 68.34211
2.2364006 -4.1318865 -0.86023408 99.5 0 0 0 66.582458
3.2907872 -4.2703495 -0.85744792 178.39999 0 0 0 64.036682
3.5892718 -4.0063543 -0.85522842 285 0 0 0 62.863018
4.4319263 -4.3637648 -0.84428144 316.5 0 0 0 61.881401
4.6076517 -4.1094809 -0.83796263 250.5 0 0 0 61.099701
5.265604 -4.3564916 -0.59167618 227 0 0 0 60.512741
5.8886013 -4.2846494 -0.81335437 303 0 0 0 59.535198
6.1712894 -4.0397453 -0.73129916 884.5 0 0 0 58.75222
8.089323 -4.2200813 -0.80163705 225.5 0 0 0 57.1908
10.935775 -4.2354631 -0.74853915 193 0 0 0 55.4352
16.094755 -4.2539988 -0.6675446 50.5 0 0 0 53.677757
-7.3829608 -3.7128985 -0.92076564 199 0 0 0 92.177223
-3.1455176 -3.7180882 -0.88619477 173.75 0 0 0 85.739761
-2.9276559 -3.9222481 -0.89060003 150 0 0 0 84.758301
-2.2053025 -3.6428351 -0.87411338 78.599998 0 0 0 83.199791
-1.7391651 -3.8716152 -0.87158358 73 0 0 0 81.240486
1.4271586 -3.9369569 -0.86416173 49 0 0 0 68.928741
1.7446343 -3.7671955 -0.85756814 37.200001 0 0 0 67.560928
2.2263656 -3.6539586 -0.86276758 66 0 0 0 65.755592
2.7602148 -3.7743454 -0.85705358 110.6 0 0 0 64.427841
3.0945973 -3.5453887 -0.86282921 171 0 0 0 63.057747
3.7965882 -3.7468207 -0.84840471 194 0 0 0 61.880142
4.8516488 -3.8179588 -0.83819848 224.33333 0 0 0 60.119358
5.0117583 -3.5584717 -0.83429217 199 0 0 0 59.34259
6.3085713 -3.8047881 -0.77704287 369.75 0 0 0 58.167061
8.2452841 -3.7964983 -0.79723585 192.5 0 0 0 56.408234
10.989048 -3.9477508 -0.74498475 142 0 0 0 55.04348
11.08317 -3.6759267 -0.74483365 149 0 0 0 54.656479
16.074804 -3.6199071 -0.65990543 55 0 0 0 53.100922
-7.5221567 -3.1139226 -0.90617222 128 0 0 0 93.352608
-7.4974861 -3.3211424 -0.91306132 206 0 0 0 92.967903
-5.8018713 -3.0959287 -0.88733631 198 0 0 0 91.789001
-2.725682 -3.2973766 -0.87796974 74 0 0 0 85.543472
-2.4735849 -3.483954 -0.87643635 67 0 0 0 84.363403
2.3803463 -3.3482258 -0.84920084 22 0 0 0 64.623596
2.6890802 -3.1654425 -0.86006707 72.199997 0 0 0 63.253277
3.3331859 -3.2137437 -0.84933168 98.800003 0 0 0 61.685871
3.9832571 -3.4733152 -0.84018642 179 0 0 0 60.908798
4.1511807 -3.1926594 -0.83281958 170.75 0 0 0 59.925163
5.1601243 -3.2940664 -0.8310793 232 0 0 0 58.557404
6.4637098 -3.3734086 -0.81437671 289.5 0 0 0 57.1908
6.5273604 -3.1048334 -0.80697417 298 0 0 0 56.599499
8.3592367 -3.2424934 -0.78694826 241 0 0 0 55.436218
11.083372 -3.2272215 -0.73574841 135.5 0 0 0 54.071571
15.821312 -3.1559484 -0.64510673 69 0 0 0 52.706741
-5.9441838 -2.8078315 -0.88716769 166.66667 0 0 0 92.570198
-4.9039865 -2.6138668 -0.87708312 203 0 0 0 91.789001
2.9184628 -2.88887 -0.85008854 69.5 0 0 0 61.881401
3.0537121 -2.6717718 -0.8400895 47.333332 0 0 0 60.904049
3.6252327 -2.7214627 -0.83147335 93.800003 0 0 0 59.730064
4.3538818 -2.7114229 -0.8153289 176.75 0 0 0 58.362537
5.2975321 -2.7712967 -0.81111419 251.5 0 0 0 57.189762
6.6000466 -2.7495306 -0.79798871 237 0 0 0 55.827381
8.3902493 -2.6719599 -0.77188271 212.5 0 0 0 54.463795
11.049329 -2.7784357 -0.72540897 128 0 0 0 53.483486
15.746926 -2.7399528 -0.63854676 71 0 0 0 52.314369
-44.570408 -2.1872363 -0.74367321 10 0 0 0 98.825874
-6.0033903 -2.4833899 -0.87605965 229 0 0 0 93.352608
-5.0468554 -2.2317059 -0.87085372 158 0 0 0 92.96302
-4.9662237 -2.4929762 -0.87703604 142 0 0 0 92.174118
-4.2893758 -2.1544087 -0.8726759 85.666664 0 0 0 92.177223
-3.6254525 -2.1650391 -0.86555612 44 0 0 0 91.022705
3.2259159 -2.2446249 -0.81393772 36.166668 0 0 0 59.143356
3.7717481 -2.2241378 -0.80236578 68.25 0 0 0 57.972694
4.4788623 -2.2777226 -0.79816294 171 0 0 0 56.993698
4.5294056 -2.0275664 -0.78781867 122 0 0 0 56.216969
5.3926215 -2.2511556 -0.79198551 197.33333 0 0 0 55.827381
6.6466269 -2.2080343 -0.78087181 217 0 0 0 54.657024
8.374649 -2.2187164 -0.75870275 209 0 0 0 53.677757
10.983647 -2.1929231 -0.71221733 128 0 0 0 52.706741
11.01645 -2.4832604 -0.7185418 121 0 0 0 53.100922
15.663762 -2.3297956 -0.63207453 73 0 0 0 51.928902
-4.3634243 -1.7415868 -0.85351032 79.75 0 0 0 93.554977
-3.7566838 -1.7719892 -0.85135955 37.400002 0 0 0 92.570442
3.4157195 -1.8495084 -0.80424857 37 0 0 0 57.384621
3.943573 -1.8260174 -0.79649943 63.75 0 0 0 56.409439
4.0189352 -1.5664982 -0.79022765 45 0 0 0 55.4352
4.6112165 -1.731306 -0.78214073 101.5 0 0 0 55.241287
5.4547057 -1.7410226 -0.77549815 167.75 0 0 0 54.460777
6.6787186 -1.6812056 -0.76715666 181.33333 0 0 0 53.485477
8.3635521 -1.7792203 -0.74817836 182 0 0 0 52.903831
10.93325 -1.7659361 -0.70367002 136.5 0 0 0 52.121635
15.545404 -1.7289472 -0.62354314 65 0 0 0 51.34375
-3.7942166 -1.459336 -0.83193624 26 0 0 0 93.754761
4.0480313 -1.2412508 -0.77578157 26.200001 0 0 0 54.26532
4.6854043 -1.2470987 -0.76952153 66.25 0 0 0 53.681889
5.4749069 -1.2373322 -0.75939709 100 0 0 0 53.09705
6.6608596 -1.2451037 -0.75404567 144 0 0 0 52.510555
8.2973013 -1.2368482 -0.73323864 193 0 0 0 51.926895
10.828913 -1.2051163 -0.69141114 154 0 0 0 51.34375
15.327127 -1.1328902 -0.61165565 70 0 0 0 50.75703
-14.398892 -0.70442301 -0.92063344 71 0 0 0 98.825874
-3.9293764 -0.88007057 -0.8239522 29 0 0 0 96.086655
4.1055331 -0.71930534 -0.76343048 22.799999 0 0 0 52.317677
4.7082753 -0.76346725 -0.75656104 58 0 0 0 52.121857
5.4701877 -0.769144 -0.74699372 110 0 0 0 51.797787
5.5102859 -0.68196338 -0.75060195 128 0 0 0 51.537418
6.6046872 -0.81628233 -0.73991245 165.66667 0 0 0 51.538799
8.2225323 -0.71013105 -0.72047257 185 0 0 0 50.953556
10.735306 -0.66062903 -0.68176568 140 0 0 0 50.560551
15.256124 -0.75041771 -0.60744709 71 0 0 0 50.364071
-14.218861 -0.34621385 -0.90765989 64 0 0 0 99.218658
-9.6210289 -0.35323611 -0.84047008 156.5 0 0 0 99.022263
-7.3545156 -0.18235721 -0.81475234 164.33333 0 0 0 99.215401
-6.0480571 -0.2234925 -0.81337178 143.5 0 0 0 99.022263
-5.9633274 -0.00021957846 -0.8008067 100 0 0 0 99.601677
-5.0927873 -0.1858781 -0.80131066 90 0 0 0 99.022263
-4.3953896 -0.16141489 -0.79671896 32 0 0 0 99.022263
-3.9354916 -0.25716951 -0.80693293 15.666667 0 0 0 98.565254
4.0981803 -0.25125813 -0.75150156 33.5 0 0 0 50.561378
4.7018428 -0.28961095 -0.7468006 84 0 0 0 50.561378
5.4808612 -0.26742446 -0.74150878 169 0 0 0 50.365143
6.5831203 -0.32062423 -0.73229402 189.66667 0 0 0 50.365143
8.1919641 -0.30048001 -0.71518385 162.5 0 0 0 50.169197
10.729643 -0.26211363 -0.67996716 162 0 0 0 49.974327
15.208637 -0.37290657 -0.60463023 64 0 0 0 49.974327
-55.744434 0.003038581 -0.93661624 9 0 0 0 99.601677
-24.299608 0.0052188616 -0.98166394 18 0 0 0 99.601677
-14.160105 0.17789477 -0.90345514 64.5 0 0 0 49.800838
-9.5368423 0.35702211 -0.81902969 148.5 0 0 0 0.19395
-9.4786673 0.0016620937 -0.82672799 157 0 0 0 99.601677
-7.4127092 0.27548525 -0.80800664 160 0 0 0 0.19395
-6.0578456 0.22647908 -0.80054116 115 0 0 0 0.19395
-5.0880146 0.12957375 -0.79037601 59 0 0 0 33.329861
-4.4339285 0.11175486 -0.79324335 21.333334 0 0 0 33.329861
-3.9210413 0.0010099646 -0.80180681 14 0 0 0 99.601677
4.0896778 0.2075769 -0.74957335 29.4 0 0 0 48.800983
4.6820903 0.2355531 -0.74311411 71.599998 0 0 0 48.800983
5.4640923 0.20801276 -0.73876381 148.25 0 0 0 48.995689
6.4732189 0.48768568 -0.72024029 211 0 0 0 48.408459
6.5439534 0.1674871 -0.72687984 212.66667 0 0 0 49.191425
8.111825 0.20328461 -0.70742327 163 0 0 0 49.191425
10.686729 0.13424687 -0.67677939 168.5 0 0 0 49.38308
14.96411 0.3706232 -0.59387845 95 0 0 0 49.190182
15.105917 0.0018460571 -0.59988654 87 0 0 0 49.575981
-14.168542 0.70931357 -0.87429148 62 0 0 0 0.38789999
3.9306719 0.90027064 -0.73706263 26 0 0 0 46.068237
4.0269151 0.61026269 -0.74491858 20 0 0 0 47.242126
4.5807967 0.74927735 -0.73506039 49 0 0 0 47.045998
5.3281832 0.736305 -0.72593766 94.5 0 0 0 47.437138
6.388876 0.80080348 -0.71410483 193.66667 0 0 0 47.631531
7.8725128 0.88258958 -0.68935347 221 0 0 0 47.827816
8.0144367 0.59877253 -0.69996673 186 0 0 0 48.408459
10.498959 0.7815358 -0.66571349 158 0 0 0 48.408459
10.60103 0.52639073 -0.67159528 193 0 0 0 48.808128
14.831393 0.73334509 -0.58863038 101 0 0 0 48.808128
-4.19731 1.4725174 -0.77312696 31 0 0 0 5.0802298
3.7517655 1.2636234 -0.72308588 30.799999 0 0 0 44.507092
4.4013233 1.2380672 -0.72346354 69.599998 0 0 0 45.288845
5.1644597 1.24546 -0.71629608 130.75 0 0 0 45.872425
6.2215371 1.255066 -0.70314473 154 0 0 0 46.459106
7.737813 1.25792 -0.68159223 201 0 0 0 47.046459
10.322481 1.1533473 -0.65612608 171.5 0 0 0 47.827816
14.453609 1.4312724 -0.57450593 68 0 0 0 48.02216
14.669048 1.0882577 -0.58251476 87 0 0 0 48.408459
-5.549902 1.9565852 -0.75902104 159 0 0 0 5.0802298
-4.6807575 1.7743235 -0.75538433 54.599998 0 0 0 5.4651141
-4.0727463 1.7091402 -0.7677725 30.75 0 0 0 6.0477452
-3.9207733 1.9293998 -0.75902611 45 0 0 0 7.0204701
3.4410393 1.8789859 -0.71463013 35.333332 0 0 0 41.777248
3.6066649 1.6309319 -0.72221774 51.666668 0 0 0 42.947712
4.1478467 1.7470955 -0.7111904 100.2 0 0 0 43.336296
4.8572145 1.8335588 -0.6986084 151.5 0 0 0 43.91917
5.0252314 1.6170734 -0.71109468 158.5 0 0 0 44.706062
5.900816 1.8949167 -0.68533587 225.5 0 0 0 44.706062
6.0525475 1.6173787 -0.69334823 192 0 0 0 45.483166
7.4149957 1.8761692 -0.6637578 227 0 0 0 45.681351
7.5681257 1.6182129 -0.67220247 215.5 0 0 0 46.261684
9.9077587 1.8584039 -0.63528454 203 0 0 0 46.655777
10.116692 1.5124059 -0.64535367 160 0 0 0 47.238968
14.278905 1.7703863 -0.56856275 107 0 0 0 47.633472
-6.6978455 2.3668168 -0.75464165 208 0 0 0 5.0802298
-5.371748 2.2653651 -0.75158805 124.25 0 0 0 6.0477448
-4.5417318 2.1085052 -0.75535172 83 0 0 0 6.6319699
-4.3946261 2.303313 -0.74827391 92.333336 0 0 0 7.4160695
-3.697037 2.221391 -0.74972248 21 0 0 0 8.3920879
-3.4516027 2.4921682 -0.73941326 25 0 0 0 9.7569799
3.2513504 2.1637917 -0.71128869 21.5 0 0 0 40.410637
3.801162 2.2570674 -0.69742376 57.833332 0 0 0 41.190479
4.6520033 2.2352674 -0.69425583 149.39999 0 0 0 42.557335
5.7338905 2.2420101 -0.68039268 225.33333 0 0 0 43.726658
7.2681069 2.2265139 -0.6593619 256.33334 0 0 0 44.899036
9.6659985 2.3127131 -0.62557387 177.5 0 0 0 45.873558
13.911229 2.4262455 -0.55690157 77 0 0 0 46.853951
14.082538 2.0997682 -0.56203997 98 0 0 0 47.238968
-8.3315783 2.9553761 -0.73694348 206 0 0 0 5.0802298
-6.5597811 2.5889916 -0.74852943 195.5 0 0 0 5.6549749
-6.3931637 2.8881109 -0.74419796 191 0 0 0 6.440515
-5.114264 2.6861126 -0.74418908 161.33333 0 0 0 7.4160695
-4.9305558 2.9015844 -0.73645043 158 0 0 0 8.1991997
-4.1653671 2.6513305 -0.74500674 121 0 0 0 8.7811966
-3.9203234 2.9149277 -0.73688316 119.5 0 0 0 9.9512196
-3.2430477 2.7859108 -0.74457955 59.5 0 0 0 11.117908
-2.941113 2.9924698 -0.73025292 61 0 0 0 12.48357
3.3300147 2.8638766 -0.69098926 61 0 0 0 38.458809
3.5413642 2.6130934 -0.69286704 40 0 0 0 39.633118
4.3016696 2.771673 -0.68732202 135 0 0 0 40.606148
5.3920021 2.8375058 -0.67233789 178 0 0 0 41.971775
5.5519276 2.5784845 -0.67591131 187 0 0 0 42.750748
6.945219 2.8060803 -0.64872444 254.5 0 0 0 43.533001
7.1019263 2.5669611 -0.65442485 257 0 0 0 44.113979
9.4199295 2.7521224 -0.61699623 214.5 0 0 0 45.094414
13.779512 2.7549601 -0.55378735 91 0 0 0 46.4576
-8.1442013 3.2265258 -0.72937346 223 0 0 0 5.6549749
-6.1473804 3.2376969 -0.73651171 207.33333 0 0 0 7.4160705
-4.6904259 3.238692 -0.73437721 215.60001 0 0 0 9.3656063
-3.6681728 3.1640267 -0.73124033 120.25 0 0 0 11.118147
-3.4030771 3.3953505 -0.72592914 141 0 0 0 12.286486
-2.7341576 3.2195678 -0.73723763 71.599998 0 0 0 13.657072
-2.3867705 3.4357998 -0.73120117 67 0 0 0 15.224983
2.7681613 3.3794522 -0.68526655 100.75 0 0 0 35.722141
3.0710385 3.1455615 -0.69069147 92.333336 0 0 0 37.092735
3.8435934 3.2976451 -0.67867732 140.75 0 0 0 38.458809
4.0786924 3.0807803 -0.68552572 140 0 0 0 39.434807
4.980166 3.3787742 -0.66290241 237 0 0 0 40.219368
5.1708527 3.1447866 -0.66730207 230.66667 0 0 0 40.993313
6.6888866 3.1968958 -0.64143938 219.66667 0 0 0 42.556187
9.1738157 3.1797819 -0.60976493 207 0 0 0 44.311131
13.386653 3.3703964 -0.543015 93 0 0 0 45.681351
13.571884 3.0633879 -0.54773706 90 0 0 0 46.065769
-7.8575463 3.6783845 -0.7215212 215 0 0 0 6.6338334
-5.780982 3.7006154 -0.72717845 262.25 0 0 0 8.7811975
-4.2421412 3.6693125 -0.72247422 198.5 0 0 0 11.118148
-3.9234109 3.9267931 -0.71501297 242.5 0 0 0 12.286486
-3.1875916 3.5903521 -0.72593641 152.66667 0 0 0 13.26619
-2.7849672 3.8260353 -0.71668208 138 0 0 0 14.832347
-2.1043978 3.5535967 -0.72274894 58.666668 0 0 0 16.390985
-1.7296035 3.6981349 -0.7164585 44.799999 0 0 0 17.952526
-1.2485869 3.8232236 -0.7081095 37 0 0 0 19.910419
-0.79484534 3.8863561 -0.70091462 24.333334 0 0 0 21.725891
1.8326231 3.9142704 -0.67370296 44.75 0 0 0 31.810831
2.2741892 3.7122226 -0.68091983 72.199997 0 0 0 33.568516
2.5566015 3.54972 -0.68511307 80 0 0 0 34.744129
3.2880728 3.8048315 -0.67224926 176.75 0 0 0 36.113461
3.5958025 3.5827231 -0.67943645 191.5 0 0 0 37.288239
4.7159243 3.7397301 -0.66285431 245.60001 0 0 0 39.046516
6.3333664 3.7324054 -0.6353575 241.5 0 0 0 41.18911
8.7982464 3.8014159 -0.6010111 189 0 0 0 43.14484
9.0063782 3.5011234 -0.60641551 158 0 0 0 43.724361
13.090389 3.8156252 -0.53567207 104 0 0 0 45.094414
-11.101282 4.2561259 -0.71667296 92 0 0 0 5.46135
-10.861465 4.4697809 -0.70692515 181 0 0 0 5.8485999
-7.6131291 4.0257192 -0.71540046 220 0 0 0 7.4145999
-7.3889227 4.2576928 -0.70785111 230.5 0 0 0 8.0061703
-5.2676382 4.2464795 -0.71670902 228.2 0 0 0 10.534945
-3.6738398 4.1525826 -0.71498603 246 0 0 0 13.26619
-3.3474815 4.389915 -0.71274382 229.33333 0 0 0 14.441216
-2.5009172 4.0229445 -0.71836144 145 0 0 0 16.00293
-2.2296393 4.1239729 -0.71200264 117 0 0 0 16.973309
-1.7383515 4.2765627 -0.70299089 95.199997 0 0 0 18.738201
-1.2452576 4.3923664 -0.6971845 73.5 0 0 0 20.495935
-0.74241835 4.4239936 -0.68713599 40.799999 0 0 0 22.242479
-0.2478731 4.4370947 -0.68296868 60 0 0 0 24.002647
0.24067421 4.3951044 -0.67905444 33.200001 0 0 0 25.758408
0.77545297 4.3110909 -0.67833829 60.599998 0 0 0 27.709763
1.2357713 4.1549997 -0.67301053 83.25 0 0 0 29.46463
1.5445852 4.0614939 -0.67593724 59.5 0 0 0 30.640163
2.3560858 4.4247966 -0.66655064 110.5 0 0 0 32.593185
2.7348015 4.2097712 -0.66929799 154.8 0 0 0 33.958633
3.0443709 4.0000272 -0.67090023 174 0 0 0 35.136448
4.2009711 4.2790017 -0.65924567 265.39999 0 0 0 37.090759
5.9292946 4.3376193 -0.63403571 269.5 0 0 0 39.633118
6.0849624 4.1136804 -0.63411015 231 0 0 0 40.219368
8.5735855 4.2184248 -0.5987581 171.5 0 0 0 42.36026
12.894569 4.2819123 -0.53332061 95 0 0 0 44.508282
-10.626806 4.6786022 -0.69797355 175 0 0 0 6.2490602
-10.439113 4.9023547 -0.69263518 158 0 0 0 6.6319699
-7.1659608 4.6069989 -0.70697284 238.5 0 0 0 8.7779655
-6.9493532 4.8341908 -0.70214087 271 0 0 0 9.3696604
-4.7150364 4.7367554 -0.70802146 282.25 0 0 0 12.288078
-4.3943949 4.9871993 -0.70424938 303 0 0 0 13.26095
-3.0687301 4.5765939 -0.71219283 250 0 0 0 15.419044
-2.7134624 4.764802 -0.71008229 237 0 0 0 16.585402
-2.2016556 4.9246831 -0.69982094 208.5 0 0 0 18.148495
0.77849275 4.9650569 -0.66220307 103.33334 0 0 0 27.320084
1.2064636 4.8886118 -0.66539168 134.25 0 0 0 28.684326
1.7407169 4.7207336 -0.66713053 119.8 0 0 0 30.442902
2.1373842 4.5424328 -0.66672266 108 0 0 0 31.81304
3.3130333 4.9434352 -0.65130842 228.5 0 0 0 34.155579
3.6817372 4.6966205 -0.65451598 232.5 0 0 0 35.331509
5.4005709 4.9605641 -0.6318953 298 0 0 0 37.868912
5.6511955 4.6969681 -0.63381523 299 0 0 0 38.655445
8.247571 4.7108984 -0.59463662 218.33333 0 0 0 41.38512
12.460401 4.8321667 -0.52361816 101 0 0 0 43.724361
12.647939 4.5493774 -0.52702475 84 0 0 0 44.113979
-10.237896 5.1152573 -0.686692 177 0 0 0 7.0204701
-9.9797058 5.293004 -0.67694902 183 0 0 0 7.4145999
-6.6785011 5.1440949 -0.69922215 278.66666 0 0 0 10.144643
-6.3894196 5.4366527 -0.69563705 297 0 0 0 10.92441
-4.1854362 5.1142478 -0.7003969 375.5 0 0 0 13.85217
-3.7674541 5.3565135 -0.6948424 334.75 0 0 0 15.028997
-1.7542963 5.0400848 -0.69360763 159.66667 0 0 0 19.520983
-1.3028349 5.1133533 -0.68743789 120.75 0 0 0 20.883905
-0.7814014 5.108089 -0.67465878 68.25 0 0 0 22.437288
-0.27500215 5.1250944 -0.67223597 128.75 0 0 0 24.002647
0.22821899 5.086874 -0.66908801 106.5 0 0 0 25.564245
0.53884763 5.0470672 -0.66802692 76 0 0 0 26.535061
1.8723967 5.2561178 -0.60447323 118.5 0 0 0 30.245155
2.3155451 5.231142 -0.62218988 389.25 0 0 0 31.422071
2.8352795 5.1430154 -0.64103556 276 0 0 0 32.787132
3.1176007 5.0480967 -0.64864498 215 0 0 0 33.562847
4.8769269 5.4618797 -0.63005716 264 0 0 0 36.306671
5.1424003 5.2154522 -0.63081127 292 0 0 0 37.092731
7.7902584 5.2519174 -0.58727902 237 0 0 0 40.217289
12.143892 5.2335787 -0.51746279 113.5 0 0 0 43.14484
-9.7324648 5.6257162 -0.67316794 187.5 0 0 0 8.0061703
-9.4203186 5.9144335 -0.66528875 161 0 0 0 8.5820398
-6.173665 5.6539211 -0.6942879 281 0 0 0 11.508345
-5.8670907 5.9232025 -0.69156843 254 0 0 0 12.286486
-3.2619219 5.5963287 -0.68806368 246.33333 0 0 0 16.390985
-2.8120372 5.7526908 -0.68103451 168.66667 0 0 0 17.55879
-2.2533884 5.8167872 -0.66418278 100 0 0 0 18.934462
-1.7276856 5.9198608 -0.657866 107 0 0 0 20.300169
-1.2733334 5.9557509 -0.65086627 127.33334 0 0 0 21.46504
-0.74780017 5.952373 -0.64265299 128.5 0 0 0 22.828779
-0.23066801 5.877224 -0.63123018 127.33334 0 0 0 24.198656
0.27040565 5.7906103 -0.62377667 187 0 0 0 25.564243
0.76951748 5.7489052 -0.62596035 163.66667 0 0 0 26.929476
1.2744763 5.712574 -0.63383186 203.5 0 0 0 28.294834
1.7895072 5.6583567 -0.57068753 412.75 0 0 0 29.659157
2.3291445 5.6157274 -0.51248598 679.5 0 0 0 31.031105
2.5675459 5.5930014 -0.51978421 592 0 0 0 31.617939
3.061115 5.5390396 -0.53672767 793 0 0 0 32.793541
4.2773652 5.8678246 -0.62331158 318.66666 0 0 0 34.743839
4.6583376 5.6237946 -0.62785113 271.5 0 0 0 35.722725
7.2921782 5.8924551 -0.58521545 270 0 0 0 38.848587
7.536634 5.6415453 -0.58803844 207 0 0 0 39.434807
11.708979 5.7464004 -0.50951308 103.5 0 0 0 42.36026
-9.1469059 6.2199116 -0.66122222 201.5 0 0 0 9.1717758
-5.5989938 6.0808425 -0.68550956 317 0 0 0 12.87903
-5.2317834 6.2666774 -0.67705756 169 0 0 0 13.655097
-4.8798795 6.4613929 -0.67158085 206 0 0 0 14.44104
-4.1868501 6.4729581 -0.63814771 595 0 0 0 15.61513
-3.8320723 6.4226642 -0.61839485 739 0 0 0 16.193989
-3.2885761 6.3545547 -0.59080076 858 0 0 0 17.169394
-2.6922417 6.2844272 -0.56390923 772 0 0 0 18.346476
-2.2279105 6.2217731 -0.54475439 821 0 0 0 19.325794
-1.7921124 6.1592369 -0.52881396 663 0 0 0 20.300171
-1.299397 6.0968785 -0.51424843 591.33331 0 0 0 21.46504
-0.90548778 6.0386839 -0.50412142 577 0 0 0 22.440226
3.8315423 6.1704025 -0.62235135 288.66666 0 0 0 33.566025
6.8116689 6.3935308 -0.5824033 265 0 0 0 37.674438
7.0518866 6.1439505 -0.58337879 268 0 0 0 38.269161
11.271189 6.2398663 -0.50242174 111.5 0 0 0 41.582344
-8.7474899 6.7609153 -0.66080785 201 0 0 0 10.144643
-4.6748767 6.5131621 -0.66481048 420 0 0 0 14.83686
-4.4398484 6.5132422 -0.65319395 465 0 0 0 15.22296
6.3348351 6.8963647 -0.58320451 251.5 0 0 0 36.504196
6.5918856 6.6631341 -0.5840587 218 0 0 0 37.096519
10.998991 6.632504 -0.50044185 119 0 0 0 40.990673
-8.1969299 7.1734447 -0.65032881 184.5 0 0 0 11.120395
-7.8894739 7.4310136 -0.64689749 96 0 0 0 11.70031
5.8537188 7.4047909 -0.5871644 238 0 0 0 35.331398
6.0894127 7.1426759 -0.58417803 252 0 0 0 35.919102
-7.6367793 7.5520339 -0.64075863 90 0 0 0 12.0894
-7.2462921 7.7079287 -0.6307441 138 0 0 0 12.6813
-6.7507381 7.921042 -0.62014127 287.5 0 0 0 13.45977
4.5179281 7.6618176 -0.54898053 565 0 0 0 33.17503
5.3348942 7.8828716 -0.59119993 175 0 0 0 34.155579
5.6095195 7.6616497 -0.59026372 168 0 0 0 34.744129
-6.3726439 8.0560465 -0.61176813 295 0 0 0 14.04575
5.0425286 8.0793343 -0.59087062 231 0 0 0 33.562847
7.1044917 -9.6346521 -0.47324842 145 0 0 0 64.423073
7.6231823 -9.8197727 -0.34023178 326 0 0 0 64.036598
2.3280051 -9.1124105 -0.28712761 330.66666 0 0 0 70.55587
2.5148921 -9.2095137 -0.13649045 291 0 0 0 70.298096
5.7529182 -9.1463032 -0.29125103 525.5 0 0 0 65.595741
6.097415 -9.1841669 -0.29773408 883 0 0 0 65.208275
8.2948885 -9.1959839 -0.18728088 192 0 0 0 62.863018
-4.8680835 -8.5541239 -0.37946144 26 0 0 0 82.811592
17.961376 -8.5136423 -0.31948125 86 0 0 0 56.599499
-5.224597 -8.2182808 -0.25569785 1617 0 0 0 83.58889
7.2449093 -7.6518703 -0.15368588 191 0 0 0 62.467167
8.1271544 -7.0460124 -0.15722324 102 0 0 0 60.908798
8.5394964 -7.0441756 -0.43405473 247 0 0 0 60.512741
-2.6543715 -6.8185811 -0.45170218 182 0 0 0 80.453468
-1.5786158 -6.9110274 -0.35009795 253.5 0 0 0 78.109993
14.885636 -6.6159468 -0.25484312 176 0 0 0 56.216969
20.306343 -6.7205591 -0.34484008 156 0 0 0 54.656479
29.345047 -6.5964451 -0.49799982 25 0 0 0 53.100922
-2.5806017 -6.1730218 -0.24623497 12 0 0 0 80.855148
-2.2453864 -6.3260689 -0.28780505 213.5 0 0 0 79.969727
-1.7847379 -6.3527856 -0.24282081 390.66666 0 0 0 78.89489
14.830636 -6.1594648 -0.25045487 76 0 0 0 55.829979
20.627399 -6.2682877 -0.34748933 7 0 0 0 54.271111
4.4600554 -5.6246743 -0.44514197 344.5 0 0 0 63.841869
5.1863666 -5.7681131 -0.48390612 190 0 0 0 62.863018
10.581007 -5.678833 -0.32570153 427.5 0 0 0 57.390301
15.003022 -5.8024969 -0.2506589 72 0 0 0 55.4352
23.893623 -5.9934292 -0.40154296 102 0 0 0 53.483486
-4.5743313 -5.0274215 -0.33289617 145 0 0 0 86.335045
-4.3893766 -5.0674715 -0.32782844 117 0 0 0 85.93045
4.7363973 -5.2177486 -0.29827231 353.20001 0 0 0 62.782097
10.6842 -5.3997641 -0.32467076 569 0 0 0 56.991299
15.254395 -5.4720683 -0.25252661 62 0 0 0 55.04348
-4.1808672 -4.7108421 -0.15250781 124 0 0 0 86.129684
-3.5455201 -4.5192604 -0.48703945 125 0 0 0 85.154556
-3.473156 -4.6572528 -0.49311662 55 0 0 0 84.758301
0.37355381 -4.7053757 -0.22150993 106.5 0 0 0 73.22438
0.5871678 -4.7019839 -0.20297843 70 0 0 0 72.507942
4.8007631 -4.7961116 -0.31948105 292 0 0 0 61.998554
5.2425823 -4.8677583 -0.15101384 943.33331 0 0 0 61.422878
5.6584983 -4.9183216 -0.28213593 212 0 0 0 60.908798
-9.4014482 -4.2542825 -0.31355271 490 0 0 0 92.834785
-4.2576189 -4.4538851 -0.29781908 780 0 0 0 86.720367
-3.6763203 -4.3480706 -0.48240262 138 0 0 0 85.734726
4.8739281 -4.3478069 -0.4016543 95 0 0 0 61.099701
5.2224903 -4.2119784 -0.41355452 172.5 0 0 0 60.315132
6.1760111 -4.1005917 -0.32450458 903.25 0 0 0 58.850948
28.11264 -4.1734099 -0.46712601 11 0 0 0 51.928902
6.3231678 -3.869158 -0.23330607 1451.75 0 0 0 58.264515
27.672319 -3.4151435 -0.45712239 15 0 0 0 51.537418
27.274763 -2.6871867 -0.44825125 15 0 0 0 51.150082
26.045893 -0.63642114 -0.42305183 18 0 0 0 49.974327
25.658337 0.0042944849 -0.41567478 16 0 0 0 49.575981
23.136667 2.8649926 -0.37246454 17 0 0 0 47.633472
22.666018 3.9473405 -0.36637235 33 0 0 0 46.853951
22.290318 4.4498177 -0.36116636 34 0 0 0 46.4576
21.911621 4.9380417 -0.35610467 23 0 0 0 46.065769
-12.624065 5.2010441 -0.49784029 288 0 0 0 5.8485999
-12.322363 5.4313402 -0.48991194 326 0 0 0 6.2490602
2.3617287 5.3310156 -0.27316377 467.25 0 0 0 31.420349
2.6171026 5.1960478 -0.41645986 519 0 0 0 32.200485
-13.529439 5.5734677 -0.1818164 448 0 0 0 5.8485999
-13.18436 5.810853 -0.17779402 241 0 0 0 6.2490602
-12.046059 5.6634965 -0.48333615 336 0 0 0 6.6319699
-11.758653 5.8818202 -0.47648853 401 0 0 0 7.0204701
-0.52628899 5.9895225 -0.25189301 572.33331 0 0 0 23.414619
-0.23019861 5.9467788 -0.27397871 623.83331 0 0 0 24.19866
0.27808896 5.8760285 -0.27206543 648.25 0 0 0 25.564247
0.78056902 5.8112278 -0.27249789 551.83331 0 0 0 26.92948
1.2125617 5.7575402 -0.27468261 607.91669 0 0 0 28.09848
1.7048498 5.6992483 -0.24776399 647.57141 0 0 0 29.40888
2.1430116 5.5812044 -0.24937241 692.14288 0 0 0 30.611929
2.7271969 5.5695534 -0.19939633 714.25 0 0 0 32.006073
3.052289 5.5233459 -0.2234879 818 0 0 0 32.793541
-12.731205 6.1744518 -0.1731725 272.5 0 0 0 6.82622
-11.50127 6.107439 -0.47118676 262 0 0 0 7.4145999
-11.213823 6.3092256 -0.46474123 339 0 0 0 7.8131399
-4.2468672 6.476861 -0.21598229 928.5 0 0 0 15.517088
-3.7868636 6.4199944 -0.27791354 995.57141 0 0 0 16.278418
-3.2580564 6.3419447 -0.21866152 917.375 0 0 0 17.217445
-2.7814445 6.2823043 -0.23120899 971.83331 0 0 0 18.149551
-2.3143001 6.2199345 -0.22286531 899.22223 0 0 0 19.130638
-1.7895753 6.1494741 -0.21488355 755.77777 0 0 0 20.300171
-1.2969565 6.0841146 -0.20869467 612 0 0 0 21.465038
-0.78689808 6.0168653 -0.24424982 615.09088 0 0 0 22.739653
-12.144714 6.6392508 -0.16769779 287.5 0 0 0 7.6138697
-11.719865 6.9755807 -0.16411887 294 0 0 0 8.1991997
-10.827745 6.6229472 -0.45750913 410 0 0 0 8.3906193
-10.438043 6.9212408 -0.4505094 324 0 0 0 8.9738903
-4.8271151 6.5540414 -0.27865627 887.16669 0 0 0 14.63895
-4.4324741 6.5021124 -0.36361796 987.5 0 0 0 15.22296
10.749058 6.8490949 -0.49612561 101 0 0 0 40.60107
-11.301047 7.2971888 -0.16090587 266.5 0 0 0 8.7779655
-10.185567 7.1168184 -0.44645712 385 0 0 0 9.3696604
-9.9385939 7.31078 -0.44286734 550 0 0 0 9.7569799
10.29491 7.2978139 -0.49041179 117 0 0 0 39.831432
10.516825 7.0718946 -0.49289125 120 0 0 0 40.219368
-10.841706 7.5764341 -0.15716088 192 0 0 0 9.3696604
-10.196195 7.6918368 -0.15011324 247 0 0 0 9.9512196
-9.7357101 7.7276115 -0.29352778 368.5 0 0 0 10.338475
-9.3364592 7.7861099 -0.43559098 313 0 0 0 10.72795
-6.2325912 7.8731565 -0.1094647 109 0 0 0 14.04575
4.51373 7.6554542 -0.22118159 592 0 0 0 33.17503
9.682374 7.8031654 -0.4822374 147 0 0 0 38.848587
10.047434 7.5016713 -0.48685211 157 0 0 0 39.434807
-9.5353193 8.1511068 -0.14641698 389 0 0 0 10.92441
-9.2921276 8.3438215 -0.14552733 432 0 0 0 11.31638
-8.8199539 8.1151829 -0.42881954 203 0 0 0 11.508345
-8.1759863 8.2916031 -0.41551852 187.5 0 0 0 12.286486
-7.760437 8.4692287 -0.40943944 449 0 0 0 12.87903
9.2223511 8.2151222 -0.47825551 138 0 0 0 38.069038
-9.0430183 8.527483 -0.14461868 401 0 0 0 11.70031
-8.6888752 8.8160086 -0.14388554 375 0 0 0 12.286486
-7.5382433 8.6409893 -0.40878227 556 0 0 0 13.26095
-7.3109536 8.8054256 -0.40808064 648 0 0 0 13.65859
-6.9799905 8.8354559 -0.40098727 200 0 0 0 14.04575
5.8840327 8.9140005 -0.40530321 238 0 0 0 33.960201
8.4773579 8.9763947 -0.47722137 135 0 0 0 36.701721
8.7909346 8.6445694 -0.4768922 135 0 0 0 37.288239
-8.2214432 9.1997471 -0.14341098 427 0 0 0 13.06999
-7.8675232 9.481164 -0.14329672 504 0 0 0 13.65859
5.7465162 9.1903667 -0.27833477 29 0 0 0 33.562847
6.0209947 9.1214886 -0.14774165 479 0 0 0 33.960201
8.1574783 9.3035755 -0.47795221 135.5 0 0 0 36.112885
18.164837 9.177537 -0.31642181 22 0 0 0 42.167061
7.703373 9.7121181 -0.47807357 115.5 0 0 0 35.331398
17.429407 9.9118233 -0.31062305 35 0 0 0 41.388199
17.806042 9.5536451 -0.31362665 40 0 0 0 41.776489
7.2302847 10.100756 -0.47822297 132 0 0 0 34.547539
17.027161 10.246031 -0.30724829 29 0 0 0 40.990673
16.368769 10.982137 -0.30387887 24 0 0 0 40.219368
16.005014 11.319296 -0.30171081 53 0 0 0 39.831432
15.138987 11.867097 -0.29477602 17 0 0 0 39.042961
15.567182 11.595257 -0.29809767 23 0 0 0 39.434807
13.265182 13.663603 -0.28979486 28.5 0 0 0 36.89912
12.290728 14.327281 -0.28595778 23 0 0 0 35.919102
12.697934 14.084914 -0.28791746 37 0 0 0 36.306671
11.740557 14.753901 -0.28470659 36 0 0 0 35.331398
10.737972 15.344959 -0.28095028 20 0 0 0 34.350952
11.111488 15.075028 -0.28156736 19 0 0 0 34.744129
21.018593 -63.691479 0.45409638 7 0 0 0 69.507133
10.319112 -59.597 0.41386807 19 0 0 0 71.865562
26.303375 -59.392059 0.44110629 15 0 0 0 67.952957
29.695707 -59.041584 0.44842705 26 0 0 0 67.173035
17.758814 -58.619102 0.41798168 7 0 0 0 69.897552
20.185648 -56.481495 0.41005594 12 0 0 0 69.126045
15.365402 -55.608334 0.39596704 30 0 0 0 70.298096
21.469933 -55.720936 0.40840483 12 0 0 0 68.731445
22.696583 -54.85297 0.40626267 12 0 0 0 68.339027
-35.760963 -50.765415 0.44262055 9 0 0 0 84.363403
-39.142368 -50.14801 0.45412084 14 0 0 0 85.154556
-37.377987 -50.388634 0.4475973 9 0 0 0 84.758301
-45.277058 -49.951225 0.48099324 11 0 0 0 86.335045
26.36326 -49.370037 0.38565859 16 0 0 0 66.778595
2.3662426 -48.620647 0.341207 15 0 0 0 73.811981
-25.700235 -48.059555 0.38952306 8 0 0 0 82.417809
1.1602398 -48.162003 0.33827603 21 0 0 0 74.202896
-22.514397 -47.574799 0.37605381 16 0 0 0 81.627922
-26.915386 -47.492302 0.39081374 7 0 0 0 82.811592
-21.063803 -47.488052 0.37098047 14 0 0 0 81.238571
-19.538214 -47.134602 0.36438385 7 0 0 0 80.855148
-18.284641 -47.362358 0.36207092 23 0 0 0 80.453468
-15.469501 -46.777996 0.35123852 14 0 0 0 79.678574
-0.021936234 -46.820751 0.33000198 30 0 0 0 74.588844
-12.827749 -46.291168 0.3421939 13 0 0 0 78.898247
-11.43232 -45.568996 0.33492091 17 0 0 0 78.502068
-10.246386 -45.547379 0.33250287 25 0 0 0 78.109993
-2.2682257 -45.736008 0.32401446 18 0 0 0 75.380592
-1.1396455 -45.537254 0.3222813 22 0 0 0 74.984764
-7.8484778 -45.12006 0.3258661 17 0 0 0 77.328323
-6.7311563 -45.244022 0.32506189 22 0 0 0 76.948273
-5.6047802 -45.277798 0.32384378 14 0 0 0 76.553207
-4.4812846 -45.288574 0.3226755 14 0 0 0 76.156364
-36.91993 -44.97876 0.41917944 10 0 0 0 85.539001
-8.9496937 -44.89785 0.32627773 16 0 0 0 77.725677
-13.008161 -42.825142 0.32188645 19 0 0 0 79.284355
-3.1265073 -42.093021 0.30175146 35 0 0 0 75.765427
-27.807755 -41.601582 0.36319119 37 0 0 0 83.978386
-32.965401 -38.207294 0.36894527 15 0 0 0 85.93045
32.006523 -37.135906 0.34597278 26 0 0 0 63.252472
-12.560343 -35.054893 0.27492136 20 0 0 0 80.068275
32.021114 -33.661793 0.33076414 24 0 0 0 62.467167
-48.12788 -27.266466 0.40700313 18 0 0 0 91.41143
32.102009 -25.074385 0.29736146 33 0 0 0 60.117527
-49.10775 -24.721907 0.40597305 17 0 0 0 92.174118
32.917812 -24.433777 0.29952174 38 0 0 0 59.727806
43.894035 -20.767815 0.35306671 6 0 0 0 56.599499
34.505726 -15.304476 0.2835269 27 0 0 0 56.216969
35.127014 -12.574822 0.28268388 26 0 0 0 55.04348
7.4547853 -10.10281 0.27316862 331 0 0 0 64.423073
2.1009235 -9.5040064 0.34068638 12 0 0 0 71.073723
7.6788821 -9.8865576 0.11614609 327 0 0 0 64.036598
2.2970109 -9.3008595 0.21747088 359.5 0 0 0 70.684761
6.0704312 -9.1393003 0.10609481 9 0 0 0 65.208275
-22.262747 -8.5882158 0.19791546 48 0 0 0 93.754761
-5.6049333 -8.3596163 0.35300255 11 0 0 0 83.978386
-5.1959591 -8.3258715 0.26381209 436.33334 0 0 0 83.460022
20.345247 -6.7301621 0.17897563 61 0 0 0 54.656479
23.738146 -6.575139 0.20089844 13 0 0 0 53.872032
15.479434 -6.4255166 0.14734508 331 0 0 0 55.829979
15.670281 -6.0572205 0.14792255 316 0 0 0 55.4352
20.651239 -6.2722731 0.18037538 11 0 0 0 54.271111
32.269382 -6.419385 0.25723284 83 0 0 0 52.706741
10.550615 -5.661027 0.26494631 294 0 0 0 57.390301
23.900663 -5.9915409 0.2013862 86 0 0 0 53.483486
4.988071 -5.0274196 0.082505696 1100 0 0 0 62.075367
5.0031691 -5.044662 0.3476046 1053 0 0 0 62.075367
10.63327 -5.3726044 0.26414493 545.5 0 0 0 56.991299
24.056679 -5.4056554 0.20192832 198 0 0 0 53.100922
0.39169255 -4.6865702 0.2015164 114.16666 0 0 0 73.158257
0.60435134 -4.6766405 0.24115744 135.125 0 0 0 72.444115
5.1871738 -4.856092 0.25915214 1290.1666 0 0 0 61.489014
36.862942 -4.5428562 0.28730655 141 0 0 0 51.537418
-9.6611118 -4.1389494 0.23857717 215 0 0 0 93.160255
-9.4910221 -4.2050552 0.10635567 784 0 0 0 92.967903
6.2559323 -4.2083383 0.27312973 1360.3334 0 0 0 58.949673
-9.6294899 -3.985091 0.36639383 757 0 0 0 93.352608
6.2319393 -3.8661206 0.26758087 1027.6666 0 0 0 58.361263
43.676506 -3.2143874 0.3333275 34 0 0 0 50.75703
-55.055813 -2.711313 0.4193823 22 0 0 0 98.825874
38.401348 -1.8789126 0.29791561 237 0 0 0 50.364071
-55.060585 -0.0066133165 0.42042372 10 0 0 0 99.601677
45.150303 0.011285354 0.34458423 31 0 0 0 49.575981
45.873615 2.2676108 0.35132325 16 0 0 0 48.808128
46.953598 3.4789901 0.35988587 14 0 0 0 48.408459
1.9977103 5.3868761 0.083176591 339 0 0 0 30.442539
2.2330971 5.2156014 0.29140037 246.5 0 0 0 31.224421
-13.944304 6.1446214 0.17907675 403 0 0 0 6.2490602
1.6955657 6.1263609 0.088794641 46.5 0 0 0 29.074375
3.3810885 7.3144155 0.10023576 383 0 0 0 31.617939
3.7061312 7.2917118 0.10072219 442.5 0 0 0 32.200485
4.1192355 7.4080696 0.10251942 509 0 0 0 32.793541
-6.1661882 7.7850156 0.13286811 156 0 0 0 14.04575
-5.8640141 7.7845173 0.13100876 402 0 0 0 14.44104
4.5027037 7.6407247 0.10517128 522 0 0 0 33.17503
-15.581274 8.2841282 0.2031557 264 0 0 0 7.4145999
-10.843264 8.3929224 0.16852994 191 0 0 0 10.14546
-5.7765837 8.2916756 0.13424554 637 0 0 0 15.029909
-12.792432 8.9482307 0.18606578 69 0 0 0 9.3696604
-10.321197 8.6087666 0.16620377 347 0 0 0 10.72795
-9.9098263 8.9008713 0.16523321 352 0 0 0 11.31638
-5.7130456 8.8804531 0.13830842 529 0 0 0 15.61513
-22.708435 9.3765259 0.26413295 51 0 0 0 5.8485999
-9.6649294 9.1167917 0.16499284 317 0 0 0 11.70031
-9.4181767 9.3289146 0.16475651 307 0 0 0 12.0894
-7.2580633 9.424715 0.4466027 210.5 0 0 0 14.243395
-5.6708188 9.312397 0.14132455 566 0 0 0 16.00293
5.9826221 9.0648403 0.25492004 622 0 0 0 33.960201
-20.55735 9.6869745 0.24912173 195 0 0 0 6.6319699
-12.903482 9.5054417 0.19028354 174 0 0 0 9.7569799
-9.1550617 9.5221338 0.16432409 280 0 0 0 12.48357
-8.7850142 9.8343191 0.1640856 283.5 0 0 0 13.06999
-5.6204963 9.7648954 0.1444723 464 0 0 0 16.38505
-3.7814105 9.9387178 0.26829898 757.25 0 0 0 18.935925
-3.2091334 9.8568192 0.26162821 753.75 0 0 0 19.715714
-16.773506 10.004191 0.22186919 145 0 0 0 8.1991997
-16.406923 10.336876 0.22105135 166 0 0 0 8.5820398
-8.3966532 10.122927 0.1636527 502 0 0 0 13.65859
-7.4195342 10.412679 0.47713667 537 0 0 0 14.83686
-6.945086 10.265002 0.46350735 351 0 0 0 15.22296
-6.3727055 10.202502 0.45073363 566 0 0 0 15.809031
-5.6430855 10.190953 0.3413744 559.33331 0 0 0 16.65167
-5.1896195 10.137117 0.28622583 715.5 0 0 0 17.16865
-4.7011533 10.07177 0.27976739 751 0 0 0 17.75386
-4.2316418 10.007244 0.27388996 738.5 0 0 0 18.34593
-2.8684525 10.057327 0.26305616 530 0 0 0 20.29916
-21.30702 10.686729 0.26025674 153 0 0 0 7.0204701
-16.039927 10.661549 0.22024071 151 0 0 0 8.9738903
3.6820059 10.929159 0.12882125 387 0 0 0 29.854885
4.327508 10.63442 0.12730153 321 0 0 0 30.83779
2.695142 11.074873 0.12934691 61 0 0 0 28.491909
3.1012168 11.48061 0.42978787 341 0 0 0 28.8839
3.8279314 11.344666 0.43140996 483 0 0 0 29.854885
4.2423768 11.191755 0.43060911 356 0 0 0 30.442539
4.507163 11.0611 0.42938504 76 0 0 0 30.83779
-23.204123 13.102078 0.28807145 104 0 0 0 7.8131399
-2.5641065 14.299762 0.16699873 459 0 0 0 21.84865
-2.1879122 14.192934 0.16476159 416 0 0 0 22.24925
-1.8562789 14.38405 0.16525584 218 0 0 0 22.631201
-0.52933389 18.356668 0.19489273 240 0 0 0 24.19953
-0.078300007 18.411963 0.194234 150 0 0 0 24.584221
-0.99265337 18.598999 0.19818325 123 0 0 0 23.81222
25.278166 18.798841 0.26353022 9 0 0 0 39.434807
27.46615 19.39253 0.27821112 16 0 0 0 39.831432
-5.219871 20.517708 0.22892252 75 0 0 0 20.689989
-4.8167086 21.09404 0.23206677 68 0 0 0 21.083229
-4.4134026 21.789217 0.23630482 213 0 0 0 21.46324
2.0956511 22.036133 0.22041443 189 0 0 0 26.14937
21.346712 23.626429 0.26973954 6 0 0 0 36.306671
5.5312777 24.953718 0.24325016 54 0 0 0 28.096649
-1.9336032 25.184248 0.25650424 66 0 0 0 23.414619
5.0064793 25.532114 0.24799643 67 0 0 0 27.706881
21.832434 28.059958 0.29967359 15 0 0 0 35.136448
21.9786 29.722788 0.31122527 26 0 0 0 34.744129
1.4141287 30.23531 0.29089084 11 0 0 0 25.371809
3.6621838 30.261385 0.28774589 19 0 0 0 26.535061
5.7176352 33.345379 0.31230906 31 0 0 0 27.32338
5.0044398 34.195751 0.31964293 10 0 0 0 26.929991
3.1158047 43.106323 0.39624742 11 0 0 0 25.76096
53.523861 -84.548141 0.66147786 8 0 0 0 65.595741
47.593391 -84.0439 0.6386236 11 0 0 0 66.384483
95.322174 -14.125243 0.68283719 16 0 0 0 51.928902
7.2098513 -13.559761 0.89267182 34 0 0 0 66.778595
7.4765601 -10.134769 0.73978603 411 0 0 0 64.423073
2.2621064 -9.6644535 0.71379155 360.5 0 0 0 70.879242
-4.8554912 -8.5381145 0.82886839 1181 0 0 0 82.811592
-22.040945 -8.4981928 0.78556436 82 0 0 0 93.754761
-5.776113 -8.3916702 0.73260307 1296.25 0 0 0 84.170898
-5.1843615 -8.3837214 0.70970523 1186.25 0 0 0 83.395584
-4.8341007 -8.4970388 0.58231944 869 0 0 0 82.811592
15.368709 -6.3836823 0.76660442 315.5 0 0 0 55.829979
15.624212 -6.0434475 0.77198529 200 0 0 0 55.4352
20.479414 -6.2248116 0.71453524 15 0 0 0 54.271111
23.961702 -6.0120754 0.81957513 79 0 0 0 53.483486
10.408341 -5.5858202 0.84677243 368.5 0 0 0 57.390301
5.0200992 -5.0603523 0.70057893 346 0 0 0 62.075367
10.460261 -5.2854056 0.98752469 719 0 0 0 56.991299
10.550429 -5.3326845 0.70063388 749 0 0 0 56.991299
0.407215 -4.6343541 0.77248544 153.5 0 0 0 73.092133
0.60068917 -4.6444063 0.75800514 186.5 0 0 0 72.444099
5.1492429 -4.7701273 0.77687079 1179.8572 0 0 0 61.406128
-9.7006998 -4.0165401 0.88625759 587 0 0 0 93.352608
-7.5076504 -4.0091028 0.93073076 687 0 0 0 91.789001
-3.1476033 -4.2204995 0.9763999 1100 0 0 0 84.758751
-9.7692604 -3.9033146 0.75841522 389 0 0 0 93.55368
-7.9222031 -3.9844584 0.96843272 763 0 0 0 92.174118
6.2031674 -3.8837512 0.6903944 370.33334 0 0 0 58.425766
87.342178 2.1636512 0.63230079 19 0 0 0 49.190182
2.1544764 5.0395961 0.75769657 154.66667 0 0 0 31.224421
-14.06708 5.794549 0.73974806 125 0 0 0 5.8485999
-13.957557 6.152195 0.74257213 465.5 0 0 0 6.2490602
-15.593793 8.2934494 0.6415242 306 0 0 0 7.4145999
5.9124808 8.9572897 0.65035218 374 0 0 0 33.960201
-6.3793464 9.4134607 0.98632997 585 0 0 0 15.22296
5.8548594 9.3620415 0.80568504 457 0 0 0 33.562847
-20.550436 9.6868992 0.81349516 233 0 0 0 6.6319699
-12.928055 9.5262375 0.78450561 221.5 0 0 0 9.7569799
-6.1798878 9.6202011 0.84926987 604.5 0 0 0 15.61513
-4.2258019 9.9937115 0.80706948 713.5 0 0 0 18.34593
-3.7788525 9.9325199 0.79074025 712 0 0 0 18.935925
-3.2070889 9.851367 0.77127624 667 0 0 0 19.715714
-17.074123 10.187678 0.71893442 244 0 0 0 8.1991997
-13.106582 10.163865 0.60748869 232 0 0 0 10.14546
-12.791861 10.429802 0.60496563 249 0 0 0 10.53149
-8.2547712 10.467153 0.82057047 35 0 0 0 14.04575
-7.8453135 10.462022 0.80558002 482 0 0 0 14.44104
-7.4238834 10.418744 0.78880066 508 0 0 0 14.83686
-6.9101744 10.212603 0.76147419 239 0 0 0 15.22296
-6.2442555 10.274185 0.74308479 488 0 0 0 16.00293
-5.6954584 10.189001 0.72220492 609.5 0 0 0 16.585014
-5.179872 10.117999 0.8444916 708 0 0 0 17.16865
-4.6967378 10.06241 0.82558924 739.5 0 0 0 17.75386
-2.878109 10.093702 0.78048706 488.5 0 0 0 20.29916
-21.353014 10.713362 0.85445726 154 0 0 0 7.0204701
-17.218704 10.854717 0.73571336 90 0 0 0 8.5820398
-12.287258 10.790045 0.60005832 242.5 0 0 0 11.120395
-11.611478 10.975071 0.5873161 258 0 0 0 11.70031
-16.759048 11.14586 0.7283777 161 0 0 0 8.9738903
-16.351059 11.460239 0.72332191 125 0 0 0 9.3696604
-11.290273 11.206154 0.58501023 276 0 0 0 12.0894
-10.988785 11.453478 0.58387101 157 0 0 0 12.48357
-10.685264 11.696497 0.58286685 235 0 0 0 12.87903
-10.375746 11.930789 0.58180219 264 0 0 0 13.26095
-10.066168 12.163154 0.58096641 268 0 0 0 13.65859
-10.415014 12.588476 0.99801874 283 0 0 0 13.65859
-23.227161 13.119227 0.95169961 101 0 0 0 7.8131399
-2.561307 14.30138 0.70631039 425.5 0 0 0 21.84865
-2.1821969 14.174929 0.6969623 414.5 0 0 0 22.24925
-1.8539134 14.39007 0.70417094 156 0 0 0 22.631201
-0.52462125 18.316175 0.65152657 265 0 0 0 24.19953
-0.074516922 18.425339 0.65392178 145 0 0 0 24.584221
-0.98961079 18.614376 0.6631549 132 0 0 0 23.81222
-5.2020102 20.46311 0.75456923 61 0 0 0 20.689989
-4.8107228 21.086617 0.77105463 51 0 0 0 21.083229
-4.4175048 21.832371 0.79194933 219 0 0 0 21.46324
2.0954521 21.987509 0.77122897 177 0 0 0 26.14937
-2.4875841 24.529762 0.86761057 161 0 0 0 23.02005
5.5347223 24.944668 0.8811444 136 0 0 0 28.096649
-1.9270328 25.164385 0.88585746 71 0 0 0 23.414619
5.0058775 25.501314 0.8965674 90 0 0 0 27.706881
0.61627322 27.842234 0.9673413 43 0 0 0 24.97484
1.336919 28.561283 0.99047172 137 0 0 0 25.371809
7.9652905 -46.09708 1.4963336 16 0 0 0 71.865562
9.0795507 -45.815323 1.4939131 10 0 0 0 71.468254
-1.1246967 -44.581493 1.4293897 33 0 0 0 74.984764
-12.872084 -42.348301 1.423314 19 0 0 0 79.284355
-2.0632815 -41.392529 1.3311484 16 0 0 0 75.380592
-15.751266 -33.254456 1.192103 18 0 0 0 81.627922
-11.897775 -33.183132 1.1418325 23 0 0 0 80.068275
-25.219339 -32.290268 1.3278654 7 0 0 0 85.154556
-10.093799 -30.478846 1.0428193 8 0 0 0 79.678574
7.9288044 -14.059104 1.3384424 25 0 0 0 66.384483
7.3543253 -13.825003 1.2995067 25 0 0 0 66.778595
8.1767063 -13.70199 1.3237429 25 0 0 0 65.993729
8.7403688 -13.135467 1.3097942 24 0 0 0 65.208275
-11.160463 -12.921978 1.4166305 12 0 0 0 85.93045
-21.895021 -12.396283 1.4480002 9 0 0 0 91.41143
7.5757809 -10.265596 1.2232182 242.5 0 0 0 64.423073
2.2767961 -9.7176189 1.2056607 282.5 0 0 0 70.879242
-5.1175585 -8.5091934 1.2000622 1466.5 0 0 0 83.202286
-4.8601737 -8.547905 1.1887454 1264 0 0 0 82.811592
44.914127 -8.9414854 1.4874716 42 0 0 0 52.706741
-21.925079 -8.4534874 1.3563901 63 0 0 0 93.754761
-5.804141 -8.4355764 1.2368699 1355.5 0 0 0 84.170898
-5.2747407 -8.3030567 1.1893108 240.5 0 0 0 83.58889
35.332199 -7.9427991 1.1838306 42 0 0 0 53.100922
24.509098 -6.7945743 1.4657229 31 0 0 0 53.872032
15.268427 -6.3398595 1.3775089 425 0 0 0 55.829979
15.585432 -6.0262003 1.3922464 82 0 0 0 55.4352
20.263323 -6.1599541 1.2268128 68 0 0 0 54.271111
12.556855 -5.5836778 1.4862279 129 0 0 0 56.216969
8.8627501 -5.0441375 1.1124717 592 0 0 0 57.777939
9.4194908 -5.0559759 1.295908 493 0 0 0 57.390301
10.201206 -5.1554432 1.2425199 473 0 0 0 56.991299
11.228724 -5.3299069 1.3478841 317 0 0 0 56.599499
-1.0973097 -4.5227747 1.0942969 477 0 0 0 78.30603
-0.25387082 -4.6251793 1.2034335 29 0 0 0 75.380592
0.42746839 -4.6355171 1.267988 173.75 0 0 0 73.026009
0.59684438 -4.6111045 1.2665191 228.5 0 0 0 72.444107
5.1720581 -4.7230663 1.2950176 1024.5555 0 0 0 61.295612
7.3534327 -4.9397936 1.2993245 930.5 0 0 0 58.949673
7.7937088 -4.9602132 1.353201 666 0 0 0 58.554768
8.2530909 -4.969975 1.2906213 550 0 0 0 58.167767
8.7803555 -4.9957881 1.3515968 368 0 0 0 57.777939
-9.7984247 -4.057023 1.1519536 62 0 0 0 93.352608
-3.6559019 -4.1182714 1.221192 1045.375 0 0 0 86.132751
-3.2751391 -4.1751652 1.2421256 1088.3636 0 0 0 85.150261
-2.7791424 -4.2429495 1.2516886 926.9375 0 0 0 83.783234
-2.2470014 -4.3210182 1.2358736 969.55554 0 0 0 82.177437
-1.7872872 -4.3815441 1.253395 823.44446 0 0 0 80.697525
-1.3273357 -4.4583611 1.2762871 517.33331 0 0 0 79.130051
-9.891263 -3.8152561 1.2816691 742 0 0 0 93.754761
-8.355937 -3.9505413 1.2344594 690 0 0 0 92.568565
-7.8748255 -3.9622989 1.2877563 712.5 0 0 0 92.174118
-7.1959276 -3.9786172 1.2631671 761.59998 0 0 0 91.562462
-6.6651802 -3.9914148 1.1387684 796 0 0 0 91.022705
2.0508325 5.1433611 1.0399125 154 0 0 0 30.83779
-14.060017 5.78755 1.2999047 182 0 0 0 5.8485999
2.209832 5.5261626 1.2615262 42 0 0 0 30.83779
-13.997005 6.1656084 1.3083335 404 0 0 0 6.2490602
45.186764 6.7127161 1.4941717 35 0 0 0 47.238968
-15.661922 8.3290749 1.0757954 306 0 0 0 7.4145999
-6.7124844 9.4036598 1.1411301 527.5 0 0 0 14.83686
-6.366549 9.3942184 1.2584348 593 0 0 0 15.22296
-0.66591835 9.4644184 1.2865996 1085 0 0 0 23.613419
-0.19902535 9.393734 1.2739224 915 0 0 0 24.391876
0.26343438 9.3890047 1.3883873 817.5 0 0 0 25.173325
5.7444606 9.1886454 1.1908221 197 0 0 0 33.562847
-20.588135 9.7036085 1.369431 241 0 0 0 6.6319699
-6.1714425 9.6049309 1.2658651 584 0 0 0 15.61513
-4.6108994 9.9798088 1.3088394 873.66669 0 0 0 17.820297
-4.209548 9.9500809 1.3307276 727.5 0 0 0 18.34593
-3.7669058 9.8958521 1.3046556 695.5 0 0 0 18.935925
-3.196701 9.8139839 1.2723382 785.75 0 0 0 19.715714
-2.6490602 9.7177477 1.3656857 1003.5 0 0 0 20.494576
-2.1298537 9.6497946 1.3401128 986.5 0 0 0 21.273235
-1.6292639 9.5905495 1.3193061 970.5 0 0 0 22.04895
-1.1415486 9.5240784 1.300904 1029 0 0 0 22.825626
-17.131392 10.221167 1.2070465 186 0 0 0 8.1991997
-13.603584 10.023219 1.4475665 282 0 0 0 9.7569799
-8.2339764 10.436329 1.4686838 532 0 0 0 14.04575
-7.8133874 10.414887 1.2816049 461 0 0 0 14.44104
-6.20999 10.212896 1.1787515 576.5 0 0 0 16.00293
-5.7379298 10.164097 1.1054951 630.33331 0 0 0 16.518358
-5.317791 10.077158 1.2632403 845.5 0 0 0 16.976814
-2.8848405 10.115704 1.1670299 414 0 0 0 20.29916
-21.387304 10.729478 1.4389074 128 0 0 0 7.0204701
-13.548302 10.508387 1.0442092 270 0 0 0 10.14546
