# .PCD v0.7 - Point Cloud Data file format
VERSION 0.7
FIELDS x y z intensity normal_x normal_y normal_z curvature
SIZE 4 4 4 4 4 4 4 4
TYPE F F F F F F F F
COUNT 1 1 1 1 1 1 1 1
WIDTH 952
HEIGHT 1
VIEWPOINT 0 0 0 1 0 0 0
POINTS 952
DATA ascii
-9.988987 35.138756 1.2379096 49 0 0 0 19.88904
-9.1088228 35.298294 1.2329922 23 0 0 0 20.283831
-8.2209272 35.410557 1.2272418 62 0 0 0 20.6737
-0.29141697 35.404373 1.1759846 9 0 0 0 24.173491
0.57216835 35.296886 1.1705015 15 0 0 0 24.563009
1.4245901 35.035618 1.1607709 10 0 0 0 24.957081
-7.3353128 35.512356 1.2219133 66 0 0 0 21.061159
-6.4480257 35.583244 1.216315 76 0 0 0 21.45035
-5.5601902 35.623184 1.2104529 63 0 0 0 21.83378
-4.6767163 35.659904 1.2052405 58 0 0 0 22.226419
-3.7871938 35.602234 1.1976777 37 0 0 0 22.61869
-2.9075418 35.578323 1.1919824 48 0 0 0 23.00029
-2.0314517 35.534763 1.1863861 52 0 0 0 23.389259
-1.1610041 35.526672 1.1826738 16 0 0 0 23.79047
19.308636 -47.546265 1.6781694 5 0 0 0 68.333031
27.056196 -45.918449 1.7303746 18 0 0 0 65.976181
38.644199 -43.347313 1.8647641 19 0 0 0 62.838848
33.696682 -39.716412 1.6778499 21 0 0 0 63.240673
-48.212479 -37.518181 1.9937983 5 0 0 0 89.071114
-4.4942784 -29.276005 1.7176055 129 0 0 0 76.942123
-54.812351 -27.551306 1.9977686 15 0 0 0 92.186951
10.547111 -27.947987 1.7227364 108 0 0 0 68.724953
-54.272366 -25.638029 1.9549838 8 0 0 0 92.580566
-54.664326 -22.62582 1.9266332 15 0 0 0 93.366348
-51.529221 -22.818945 1.8373021 8 0 0 0 92.978401
16.346802 -22.436184 1.592689 78 0 0 0 64.417839
4.0094442 -20.898781 1.7692909 190 0 0 0 71.455994
-54.764484 -19.591265 1.8940141 12 0 0 0 94.162064
26.639275 -19.140417 1.8625301 39 0 0 0 59.322086
-55.621258 -18.377207 1.9069642 12 0 0 0 94.559792
13.885984 -18.114571 1.8831229 107 0 0 0 64.02076
-56.510548 -17.15066 1.9219253 9 0 0 0 94.942528
-7.4430904 -14.651388 1.7736573 478 0 0 0 82.024521
-8.0565481 -14.108371 1.7535423 564 0 0 0 82.809761
-7.7475023 -14.37085 1.7621214 570 0 0 0 82.426064
-2.533386 -14.142787 1.7330865 284.5 0 0 0 77.32531
-2.1860216 -14.191286 1.7312715 461.5 0 0 0 76.942123
26.495384 -13.670972 1.6921436 118 0 0 0 56.972321
12.873201 -13.119589 1.7429582 178 0 0 0 62.060539
13.050873 -12.666168 1.7245592 239.5 0 0 0 61.662167
-6.6482897 -9.8837509 1.733171 260 0 0 0 83.979805
-6.3571167 -9.9674225 1.7208787 840.5 0 0 0 83.591583
-8.1064377 -8.0749683 1.6655947 25.5 0 0 0 87.119148
-8.3835945 -7.7608557 1.6635023 733.5 0 0 0 87.704376
28.987156 -7.5919681 1.6951883 112 0 0 0 53.467239
-9.0751381 -7.0639358 1.673651 897 0 0 0 89.071114
-8.7676573 -7.3552408 1.6661024 712.75 0 0 0 88.478912
-9.6432152 -6.6024456 1.5562618 859 0 0 0 90.056786
-9.3515787 -6.8021607 1.7305704 784.66669 0 0 0 89.601624
29.570543 -6.9760122 1.7178489 87 0 0 0 53.075081
-10.129377 -6.0628958 1.7167706 805.5 0 0 0 91.039925
-9.8407927 -6.3334947 1.7504668 778 0 0 0 90.511589
-10.574404 -5.6470633 1.5952733 678 0 0 0 91.80632
-10.381606 -5.7632236 1.775808 603 0 0 0 91.551117
-10.835376 -5.2852426 1.7526253 552.75 0 0 0 92.383759
-11.214084 -4.8068538 1.7738141 534.75 0 0 0 93.172379
-11.616817 -4.3207121 1.8019309 571 0 0 0 93.962059
-12.176688 -3.7005365 1.6915902 591 0 0 0 94.942528
-11.935751 -3.9484625 1.8272346 444.5 0 0 0 94.559792
-12.742084 -3.2012761 1.7452456 271 0 0 0 95.713188
-12.814092 -2.8882844 1.7449642 384 0 0 0 96.100609
29.817511 -1.801917 1.6872237 35 0 0 0 50.342899
-17.627121 1.3008635 1.7207297 331.5 0 0 0 0.39748001
-17.948631 1.7640421 1.7557359 260 0 0 0 0.78200001
35.288597 3.0619082 1.9935737 49 0 0 0 47.994087
33.83176 5.4584341 1.9301029 28 0 0 0 46.818459
33.928097 6.3293118 1.9437591 117 0 0 0 46.43586
34.474751 7.3081656 1.9841522 48 0 0 0 46.039661
-26.716209 11.008956 1.7420936 68 0 0 0 5.4653001
19.866577 17.536144 1.5072688 73 0 0 0 37.844753
29.685015 19.277023 1.9980671 49 0 0 0 40.183441
9.4550791 20.573349 1.8647313 192 0 0 0 31.20179
10.119945 20.667826 1.8941457 81 0 0 0 31.58708
28.601458 20.630756 1.9920857 41 0 0 0 39.399391
8.6233397 21.472393 1.9061424 176 0 0 0 30.42293
9.0451326 21.021229 1.8849214 176 0 0 0 30.80373
17.033871 21.226131 1.5503072 52 0 0 0 35.097038
8.1888609 21.925596 1.928269 164 0 0 0 30.024759
27.373268 21.858532 1.9803225 40 0 0 0 38.631821
-17.396749 22.036058 1.673782 132 0 0 0 13.63659
7.7564411 22.424843 1.9551275 183 0 0 0 29.62937
-16.369678 22.954332 1.6773504 95 0 0 0 14.43198
7.3176227 22.956703 1.9855155 138 0 0 0 29.23937
-15.852446 23.417736 1.6806121 106 0 0 0 14.81331
12.731869 23.042295 1.5045326 27 0 0 0 32.374031
-15.329339 23.88043 1.6845492 139 0 0 0 15.21086
-14.815089 24.368345 1.6909475 100 0 0 0 15.59475
-14.278675 24.832314 1.6963965 150 0 0 0 15.98473
-13.742087 25.310072 1.7034647 154 0 0 0 16.376431
-13.203637 25.802229 1.7121587 94 0 0 0 16.761219
4.2209826 25.807117 1.5064584 200 0 0 0 26.91226
-12.656618 26.298405 1.7217548 123 0 0 0 17.155251
2.3560901 26.467432 1.5345126 159 0 0 0 25.742081
2.9842427 26.243265 1.5240458 172 0 0 0 26.125259
3.607218 26.034983 1.5153719 179 0 0 0 26.514709
-11.998781 26.572767 1.7179633 140 0 0 0 17.543341
-11.294155 26.733103 1.7082857 140 0 0 0 17.929371
-10.601285 26.906551 1.7005812 135 0 0 0 18.332211
1.0748792 26.916056 1.5581779 144 0 0 0 24.957081
1.7191139 26.68049 1.5452478 124 0 0 0 25.35368
-9.9014091 27.048164 1.6920372 122 0 0 0 18.715719
-9.2231092 27.237999 1.6875455 135 0 0 0 19.10129
-8.5320921 27.380337 1.6812159 133 0 0 0 19.49921
-0.24463956 27.349884 1.5847476 141 0 0 0 24.173491
0.42036024 27.144968 1.571666 144 0 0 0 24.563009
-7.8562832 27.564846 1.6784718 131 0 0 0 19.88904
-7.1723437 27.716265 1.6747586 140 0 0 0 20.283831
-6.4916339 27.877054 1.6726093 181 0 0 0 20.6737
-1.6100475 27.833853 1.618104 138 0 0 0 23.389259
-0.92139822 27.605288 1.6016828 143 0 0 0 23.79047
-5.8100691 28.034864 1.6712735 152 0 0 0 21.061159
-5.1291866 28.20159 1.6714354 165 0 0 0 21.45035
-4.4477634 28.379429 1.6732069 150 0 0 0 21.83378
-3.0308509 28.323067 1.6559466 106 0 0 0 22.61869
-2.3105984 28.047112 1.6346904 130 0 0 0 23.00029
-3.7583113 28.521986 1.673897 158 0 0 0 22.226419
-33.715225 35.15456 1.7058251 21 0 0 0 12.07567
34.975624 -53.214516 2.0558882 15 0 0 0 65.199913
-47.998646 -41.270905 2.0659823 13 0 0 0 88.283669
1.7844307 -41.092785 2.3689704 32 0 0 0 73.809822
-49.637722 -40.6133 2.0920689 4 0 0 0 88.674156
2.7381668 -40.308193 2.3269448 29 0 0 0 73.421028
-55.285988 -38.840099 2.2000961 13 0 0 0 89.863731
-56.319546 -35.587746 2.1686327 7 0 0 0 90.642464
-10.934099 -35.502052 2.1446254 31 0 0 0 79.286682
-9.9092264 -35.208477 2.1125088 29 0 0 0 78.888435
17.125154 -34.661575 2.2156284 36 0 0 0 67.150818
26.691835 -33.075657 2.4175501 47 0 0 0 63.628288
-54.261787 -32.459568 2.059468 7 0 0 0 91.039925
-54.067627 -30.574366 2.0232382 10 0 0 0 91.423515
-55.248093 -29.483507 2.039047 13 0 0 0 91.80632
10.568151 -27.987772 2.4700599 161 0 0 0 68.724953
2.9861145 -25.519226 2.1306262 12 0 0 0 72.629311
7.1419973 -24.151949 2.0861988 210 0 0 0 69.893166
16.347244 -22.428057 2.2835057 93 0 0 0 64.417839
3.9860046 -20.776478 2.2728209 157 0 0 0 71.455994
13.972591 -18.226807 2.4526873 31 0 0 0 64.02076
-7.4448557 -14.661163 2.1785536 441 0 0 0 82.024521
-8.0644922 -14.12798 2.1553328 614 0 0 0 82.809761
-7.7651744 -14.409662 2.1686873 490 0 0 0 82.426064
-2.5499094 -14.243235 2.2801368 222 0 0 0 77.32531
-2.1854737 -14.19635 2.2635839 589 0 0 0 76.942123
12.62643 -13.508452 2.4339705 239 0 0 0 62.456539
12.8492 -13.090356 2.4142678 150 0 0 0 62.060539
13.000675 -12.612969 2.3840427 184 0 0 0 61.662167
-62.058201 -12.377839 2.0558784 9 0 0 0 96.497131
-6.5664411 -9.761776 2.2927747 645 0 0 0 83.979805
-6.340126 -9.9406557 2.2976704 544 0 0 0 83.591583
-7.3699956 -9.160388 2.2911682 663.75 0 0 0 85.354813
-7.7573748 -8.7327442 2.2762301 684.5 0 0 0 86.140671
-8.2108927 -8.2591696 2.2410524 757.20001 0 0 0 87.043373
-8.7428722 -7.7057915 2.2709427 783.25 0 0 0 88.092743
-8.40693 -7.9751749 2.4008508 735 0 0 0 87.50692
-9.2635469 -7.2097316 2.2875462 723.83331 0 0 0 89.071953
-9.7725258 -6.6911159 2.3075182 678.5 0 0 0 90.056786
-10.170767 -6.2570581 2.3262281 537.5 0 0 0 90.841194
-10.659719 -5.6925955 2.3535995 647.5 0 0 0 91.80632
-10.472187 -5.9256039 2.3434317 515 0 0 0 91.423515
-11.071852 -5.234653 2.2345672 636 0 0 0 92.580566
-10.876051 -5.4710021 2.2215366 510 0 0 0 92.186951
-11.348063 -4.8643141 2.2527037 681.5 0 0 0 93.172379
-11.736282 -4.3653026 2.2842693 486 0 0 0 93.962067
-12.197092 -3.706742 2.0095716 49 0 0 0 94.942528
-12.720449 -3.195859 2.2285247 299 0 0 0 95.713188
-12.738485 -2.8712666 2.2188244 536 0 0 0 96.100609
29.797529 -1.7959813 2.4304068 35 0 0 0 50.342899
-17.490139 1.2867804 2.3474467 209 0 0 0 0.39748001
36.002346 2.2378309 2.0295684 65 0 0 0 48.39053
36.022156 4.0160365 2.0392137 27 0 0 0 47.60268
-23.27626 7.6441655 2.0876794 51 0 0 0 4.2992001
38.607224 9.1757507 2.2301099 15 0 0 0 45.644798
-26.617311 10.962614 2.4498172 102 0 0 0 5.4653001
-33.58474 11.976617 2.1451597 57 0 0 0 4.6874499
18.223009 17.753756 2.0840373 96 0 0 0 37.065792
18.889139 17.521049 2.1096284 102 0 0 0 37.458111
19.82917 17.50791 2.164506 66 0 0 0 37.844753
17.68482 18.094843 2.0731194 96 0 0 0 36.676888
17.265488 18.553587 2.0769098 95 0 0 0 36.282631
16.945612 19.127781 2.0942218 109 0 0 0 35.887939
16.767662 19.886034 2.1315031 68 0 0 0 35.496609
29.39502 20.127987 2.011483 44 0 0 0 39.799641
9.4590588 20.579134 2.4162836 207 0 0 0 31.20179
10.121067 20.667429 2.4540153 61 0 0 0 31.58708
8.6300163 21.485582 2.4705319 189 0 0 0 30.42293
9.0424376 21.011995 2.4406028 197 0 0 0 30.80373
17.019163 21.213428 2.2274995 40 0 0 0 35.097038
8.1929188 21.932777 2.4983857 213 0 0 0 30.024759
11.375682 21.849922 2.0247176 51 0 0 0 31.97965
-17.386946 22.017733 2.3697207 106 0 0 0 13.63659
-16.87314 22.47324 2.3721011 111 0 0 0 14.03333
29.147596 22.127226 2.0665855 47 0 0 0 39.013
-16.366978 22.944441 2.3772483 115 0 0 0 14.43198
-15.850458 23.408539 2.3827696 115 0 0 0 14.81331
6.8398786 23.421083 2.0109501 190 0 0 0 28.8556
12.76448 23.107672 2.1668255 47 0 0 0 32.374031
27.937416 23.449078 2.0613117 51 0 0 0 38.236679
-15.322661 23.863531 2.3884566 128 0 0 0 15.21086
6.3632855 23.947844 2.0424914 155 0 0 0 28.46567
18.1343 23.764071 2.4455059 32 0 0 0 34.710407
-14.795314 24.328943 2.3962579 119 0 0 0 15.59475
5.8707118 24.488346 2.0760252 163 0 0 0 28.07192
15.742309 24.116163 2.3589754 55 0 0 0 33.542019
17.609343 24.286232 2.4546061 42 0 0 0 34.327919
-14.277047 24.822599 2.4078023 118 0 0 0 15.98473
14.337788 24.508181 2.3274519 31 0 0 0 32.759972
17.078323 24.809103 2.4649098 38 0 0 0 33.926819
-13.743882 25.306274 2.4193575 120 0 0 0 16.376431
5.3577943 25.029596 2.1105199 123 0 0 0 27.68767
-13.204934 25.797352 2.4325922 125 0 0 0 16.761219
4.2192068 25.814714 2.1585431 175 0 0 0 26.91226
4.8241711 25.571814 2.1463234 124 0 0 0 27.299601
-22.890665 26.288244 2.0761058 20 0 0 0 12.86129
-12.659612 26.296892 2.4475627 132 0 0 0 17.155251
2.3503776 26.438326 2.1939838 148 0 0 0 25.742081
2.9808755 26.240355 2.1817231 143 0 0 0 26.125259
3.6039588 26.03339 2.1699905 140 0 0 0 26.514709
-11.990018 26.545059 2.4407072 129 0 0 0 17.543341
-11.296926 26.731199 2.4300556 144 0 0 0 17.929371
-10.600177 26.894716 2.4189961 116 0 0 0 18.332211
-9.8863945 26.997192 2.4041724 141 0 0 0 18.715719
1.0716623 26.911898 2.2287114 138 0 0 0 24.957081
1.7140845 26.650938 2.2087224 86 0 0 0 25.35368
-9.21665 27.208538 2.400491 108 0 0 0 19.10129
-8.5398817 27.394716 2.3960702 129 0 0 0 19.49921
-0.24742202 27.299938 2.2617497 95 0 0 0 24.173491
0.41718587 27.138338 2.2472036 116 0 0 0 24.563009
-7.8542833 27.545908 2.390101 139 0 0 0 19.88904
-7.169837 27.693521 2.385294 120 0 0 0 20.283831
-6.4957066 27.880541 2.3852639 130 0 0 0 20.6737
-1.6124442 27.820658 2.3112068 135 0 0 0 23.389259
-0.9238081 27.582676 2.2875917 137 0 0 0 23.79047
-5.8170447 28.053127 2.3854055 122 0 0 0 21.061159
-5.1273088 28.172911 2.3825221 126 0 0 0 21.45035
-4.4483957 28.362473 2.3868606 158 0 0 0 21.83378
-3.7580895 28.495132 2.387846 143 0 0 0 22.226419
-3.0314136 28.297741 2.3630071 119 0 0 0 22.61869
-2.3133647 28.042315 2.3349557 91 0 0 0 23.00029
20.664865 -39.36132 2.5409033 42 0 0 0 66.76178
-10.463057 -33.991142 2.9397821 24 0 0 0 79.286682
-4.1125784 -32.041798 2.6740549 10 0 0 0 76.54879
13.040923 -32.122742 2.8564372 34 0 0 0 68.333031
-2.5148842 -31.852837 2.6446991 14 0 0 0 75.766647
-1.6919513 -31.08622 2.5773988 27 0 0 0 75.376488
7.3041153 -29.993994 2.5507796 25 0 0 0 70.683922
-2.8838863 -27.811136 2.99751 8 0 0 0 76.152946
24.034092 -26.968382 2.9569368 36 0 0 0 62.838848
6.6338139 -24.629007 2.7323189 90 0 0 0 70.286362
7.1300731 -24.11084 2.6933641 158 0 0 0 69.893166
16.32543 -22.397705 2.9539297 94 0 0 0 64.417839
12.535884 -21.301609 2.6414988 11 0 0 0 65.976181
3.979269 -20.721182 2.7856393 267 0 0 0 71.455994
26.608955 -19.111547 2.6764162 36 0 0 0 59.322086
-6.740097 -15.050562 2.5927527 6 0 0 0 81.244095
-7.7982349 -14.471032 2.9905815 11 0 0 0 82.426064
-2.5497274 -14.242436 2.8156471 166.5 0 0 0 77.32531
-2.1803029 -14.162764 2.7885699 422.5 0 0 0 76.942123
12.026409 -14.198048 2.9108682 198 0 0 0 63.240673
12.818152 -13.058642 2.8616545 196 0 0 0 62.060539
12.931763 -12.546189 2.8178165 263 0 0 0 61.662167
-6.5453281 -9.733943 2.7170985 526 0 0 0 83.979805
-6.3645825 -9.9828606 2.7422154 204 0 0 0 83.591583
-7.2081022 -9.1891146 2.7051778 418 0 0 0 85.157761
-7.5543861 -8.7187166 2.6723762 511 0 0 0 85.942047
-7.3804455 -8.9502211 2.6872125 459 0 0 0 85.551857
-8.1009312 -8.0721731 2.6493127 619 0 0 0 87.119148
-7.825532 -8.3908062 2.6581621 621 0 0 0 86.53756
-8.5013323 -7.6819911 2.6542616 508 0 0 0 87.901825
-8.2924786 -7.8692236 2.6483269 545 0 0 0 87.50692
-9.059166 -7.0539231 2.7995949 208.5 0 0 0 89.071114
-8.796814 -7.3822565 2.6603787 549 0 0 0 88.478912
-9.5178385 -6.6914964 2.6946728 744 0 0 0 89.863731
-9.3041773 -6.8866777 2.6811416 685 0 0 0 89.470573
-10.117304 -6.0579963 2.7308154 725 0 0 0 91.039925
-9.819169 -6.3788795 2.7119617 651 0 0 0 90.446152
-10.533553 -5.6275454 2.7652631 659 0 0 0 91.80632
-10.327177 -5.8458867 2.7479265 668 0 0 0 91.423515
-11.043712 -5.2213378 2.5292037 583 0 0 0 92.580566
-10.852885 -5.3502603 2.7025902 642.33331 0 0 0 92.318153
-11.309398 -4.8488178 2.6977386 636 0 0 0 93.172371
-11.716293 -4.3589411 2.7405539 544 0 0 0 93.962067
-12.591103 -3.3272338 2.6948457 173 0 0 0 95.5224
-12.384272 -3.4376779 2.9740694 452 0 0 0 95.331604
-12.738216 -2.8712285 2.7018166 537 0 0 0 96.100609
34.884712 -0.39070809 2.8340061 9 0 0 0 49.556328
36.009174 2.243793 2.9294169 63 0 0 0 48.39053
35.311275 3.0692878 2.8785245 56 0 0 0 47.994087
36.075947 4.0275512 2.9472275 55 0 0 0 47.60268
-23.281948 7.645937 2.680933 130 0 0 0 4.2992001
18.216515 17.745945 2.7021661 92 0 0 0 37.065792
18.898731 17.52845 2.7379258 102 0 0 0 37.458111
19.835567 17.512089 2.8090618 80 0 0 0 37.844753
17.685705 18.094183 2.6889095 105 0 0 0 36.676888
17.258181 18.544144 2.6924551 95 0 0 0 36.282631
16.955425 19.137106 2.7175162 86 0 0 0 35.887939
16.754112 19.868221 2.7621288 72 0 0 0 35.496609
9.4535923 20.57391 2.9731953 180 0 0 0 31.20179
28.869125 20.82939 2.8982208 22 0 0 0 39.399391
16.93144 21.102562 2.874403 37 0 0 0 35.097038
11.347935 21.794294 2.6174591 52 0 0 0 31.97965
27.177591 21.70859 2.8339264 35 0 0 0 38.631821
7.7647023 22.444557 2.5344567 174 0 0 0 29.62937
29.148664 22.134235 2.9794147 65 0 0 0 39.013
7.3086963 22.924692 2.5679634 172 0 0 0 29.23937
6.8388987 23.412977 2.6034126 181 0 0 0 28.8556
12.744648 23.06926 2.8044686 32 0 0 0 32.374031
27.969645 23.482422 2.9744143 46 0 0 0 38.236679
6.3700695 23.967674 2.6471889 147 0 0 0 28.46567
5.8660135 24.462978 2.6855619 131 0 0 0 28.07192
5.3658118 25.059547 2.7360704 147 0 0 0 27.68767
4.2213373 25.818207 2.7947702 159 0 0 0 26.91226
4.8294311 25.591209 2.7810411 167 0 0 0 27.299601
16.078577 25.992834 2.5020981 55 0 0 0 33.151669
2.3535872 26.455847 2.8409264 135 0 0 0 25.742081
2.9845326 26.258127 2.8254995 144 0 0 0 26.125259
3.606678 26.041544 2.8096933 140 0 0 0 26.514709
1.0739276 26.926617 2.8847499 122 0 0 0 24.957081
1.7183368 26.689959 2.8618674 132 0 0 0 25.35368
-0.245969 27.337711 2.9290738 119 0 0 0 24.173491
0.4186528 27.12874 2.9056766 110 0 0 0 24.563009
86.004395 27.227802 2.8182654 4 0 0 0 44.476681
-1.611257 27.830294 2.9892085 117 0 0 0 23.389259
-0.92257655 27.597898 2.9596941 119 0 0 0 23.79047
-30.767092 29.082943 2.5250289 51 0 0 0 11.30377
84.472725 29.032612 2.7915401 10 0 0 0 44.083649
-30.716696 33.627129 2.7076802 33 0 0 0 12.46821
-33.704506 35.146038 2.8959153 27 0 0 0 12.07567
81.644043 37.326061 2.8090694 7 0 0 0 42.525581
27.134666 -46.050144 3.0438507 10 0 0 0 65.976181
1.7939647 -41.139534 3.3966846 30 0 0 0 73.809822
2.7481325 -40.346024 3.3357711 32 0 0 0 73.421028
15.79684 -36.324482 3.257998 14 0 0 0 67.939507
-9.0871201 -35.626854 3.0387685 15 0 0 0 78.506172
-9.9513044 -35.382046 3.0373924 22 0 0 0 78.888435
16.104498 -34.69043 3.1460721 13 0 0 0 67.548828
17.159897 -34.715374 3.1834507 11 0 0 0 67.150818
17.42453 -33.18578 3.0808516 15 0 0 0 66.76178
-2.4403644 -30.901573 3.3193982 17 0 0 0 75.766647
-3.8897104 -30.296497 3.2718782 29 0 0 0 76.54879
-5.9278502 -29.091234 3.1814559 54 0 0 0 77.716087
-1.5796571 -28.99531 3.1113455 49 0 0 0 75.376488
-0.86710417 -28.899519 3.0977271 18 0 0 0 74.986
-0.16100442 -28.949354 3.1013718 23 0 0 0 74.58667
23.282612 -28.847256 3.0361342 38 0 0 0 63.628288
0.5347814 -28.359497 3.0390086 11 0 0 0 74.196152
23.760147 -28.009649 3.0072529 26 0 0 0 63.240673
10.547797 -27.933039 3.1905839 119 0 0 0 68.724953
3.7328033 -26.270237 3.4955831 13 0 0 0 72.241104
20.355341 -25.226824 3.4467256 54 0 0 0 63.628288
31.597868 -25.115557 3.2915046 17 0 0 0 60.097599
5.4328942 -24.948799 3.3638122 77 0 0 0 71.066231
6.6900754 -24.818644 3.3852782 22 0 0 0 70.286362
7.1225324 -24.069101 3.3061004 133 0 0 0 69.893166
-56.23819 -23.277222 3.4708638 5 0 0 0 93.366348
16.257227 -23.487833 3.0444305 46 0 0 0 64.80471
-56.770271 -21.888075 3.4692841 7 0 0 0 93.762062
3.5649045 -21.3636 3.3947608 125 0 0 0 71.857643
3.9603508 -20.622356 3.2920179 216 0 0 0 71.455994
0.87860864 -20.368488 3.1985505 64 0 0 0 73.809822
14.915614 -19.445644 3.2178919 22 0 0 0 64.02076
26.612579 -19.11405 3.4732082 52 0 0 0 59.322086
0.81612867 -18.960127 3.4490588 14 0 0 0 73.809822
10.8402 -18.421066 3.3435557 28 0 0 0 65.976181
-53.942051 -17.822424 3.2410102 6 0 0 0 94.559792
11.522587 -17.558275 3.2844298 26 0 0 0 65.199913
12.28927 -17.762556 3.3762448 27 0 0 0 64.80471
-1.3864626 -17.466768 3.1875143 32 0 0 0 75.766647
4.7024093 -17.479111 3.2891691 45 0 0 0 70.286362
-1.7133682 -16.461952 3.4195962 218 0 0 0 76.152946
-2.533993 -14.168376 3.3298109 383 0 0 0 77.32531
-2.1736581 -14.136043 3.3089063 341 0 0 0 76.942123
-1.849322 -14.352752 3.3476603 182 0 0 0 76.54879
7.8590126 -14.150623 3.3397834 96 0 0 0 66.377731
8.3399029 -14.187363 3.1900277 68 0 0 0 65.976181
12.031078 -14.203264 3.3729489 156 0 0 0 63.240673
16.955248 -14.181223 3.4473624 19 0 0 0 60.491859
15.189586 -13.352965 3.1576741 21 0 0 0 60.886501
10.961387 -12.32257 3.3980217 54 0 0 0 62.838848
12.528813 -12.156565 3.1636941 242 0 0 0 61.662167
-0.076779276 -11.926975 3.3526404 26 0 0 0 74.58667
9.0833693 -11.859184 3.4480004 33 0 0 0 64.02076
11.180299 -11.966487 3.3740544 64 0 0 0 62.456539
12.175312 -11.814742 3.4933188 178 0 0 0 61.662167
1.5026001 -10.666276 3.2951846 44 0 0 0 72.241104
-6.388535 -10.020448 3.1911807 131.5 0 0 0 83.591583
-6.5502825 -9.7412663 3.1523528 400.5 0 0 0 83.979805
-4.5516839 -9.5257444 3.4894764 16 0 0 0 81.636795
9.0515623 -9.6939697 3.3899794 110 0 0 0 62.456539
10.497809 -9.2387362 3.227829 93 0 0 0 60.886501
-9.69345 -8.760005 3.3427122 63 0 0 0 87.901825
11.109617 -8.8509779 3.277673 184 0 0 0 60.097599
11.726837 -8.8810139 3.3929293 86 0 0 0 59.71246
-9.817503 -8.4459515 3.3136046 48 0 0 0 88.283669
-8.090333 -7.8700085 3.4491706 78 0 0 0 87.313034
-10.993151 -6.5825462 3.27878 23 0 0 0 91.039925
-10.499207 -6.6402521 3.4880602 21 0 0 0 90.642464
-10.135835 -5.1007743 3.1888149 249 0 0 0 92.186951
-9.9598989 -5.0143881 3.4082026 180 0 0 0 92.186951
-11.161609 -4.6266298 3.3937488 157 0 0 0 93.366348
-10.299641 -4.8716917 3.2018957 64 0 0 0 92.580566
-13.570228 -4.3089647 3.2912169 68 0 0 0 94.75116
-12.525917 -4.4885731 3.4040291 20 0 0 0 94.162064
-8.924161 -3.9610131 3.4685621 149 0 0 0 92.978401
-12.315232 -3.4185243 3.2712662 328 0 0 0 95.331604
-9.2664642 -3.1943643 3.2425606 148.5 0 0 0 94.360931
-14.976992 -2.614053 3.140403 48 0 0 0 96.885803
-14.304792 -2.8587661 3.0145001 37 0 0 0 96.497131
-13.836357 -2.7676907 3.2621846 150 0 0 0 96.497131
-12.71526 -2.8684063 3.1759872 278.5 0 0 0 96.100609
-9.8424988 -2.4747877 3.3565969 73 0 0 0 95.713188
29.821533 -1.7978975 3.1590941 37 0 0 0 50.342899
-16.537897 -0.026564119 3.0070317 138 0 0 0 99.620842
-16.407873 -0.026403463 3.3872988 181 0 0 0 99.620842
-16.594645 0.81392384 3.4462795 287 0 0 0 0
-16.601957 1.218645 3.4536128 289 0 0 0 0.39748001
-16.601278 1.6245061 3.4613116 239 0 0 0 0.78200001
38.419819 6.2043972 3.1574342 20 0 0 0 46.818459
39.880726 7.4454212 3.2901633 18 0 0 0 46.43586
-23.031693 8.1850491 3.2729404 114 0 0 0 4.6874499
40.985134 8.6937742 3.3968329 8 0 0 0 46.039661
38.840652 9.2372484 3.238744 7 0 0 0 45.644798
38.056225 10.040324 3.1936073 9 0 0 0 45.254887
-26.649399 10.975984 3.1505656 59 0 0 0 5.4653001
-33.605053 11.977226 3.0320745 22 0 0 0 4.6874499
18.24342 17.776741 3.3340476 41 0 0 0 37.065792
18.956938 17.58692 3.3836868 59 0 0 0 37.458111
19.816994 17.500435 3.4581795 97 0 0 0 37.844753
17.682957 18.096125 3.3122427 81 0 0 0 36.676888
17.337238 18.633636 3.3320494 13 0 0 0 36.282631
16.998861 19.19095 3.3563774 13 0 0 0 35.887939
16.824888 19.957029 3.4170926 47 0 0 0 35.496609
10.129448 20.690798 3.0240166 72 0 0 0 31.58708
8.6253481 21.481508 3.0399971 211 0 0 0 30.42293
9.0419588 21.017866 3.0046334 213 0 0 0 30.80373
30.781111 21.081427 3.0350683 19 0 0 0 39.799641
8.1978674 21.953875 3.0776982 171 0 0 0 30.024759
11.25568 21.624779 3.1975994 43 0 0 0 31.97965
-17.376829 22.006878 3.0483871 111 0 0 0 13.63659
-16.874498 22.477261 3.0540051 117 0 0 0 14.03333
7.7550488 22.425537 3.1164775 173 0 0 0 29.62937
-16.369263 22.950024 3.0613804 98 0 0 0 14.43198
7.3040781 22.919689 3.1595631 168 0 0 0 29.23937
-15.849151 23.409121 3.0683923 107 0 0 0 14.81331
6.8405724 23.428823 3.2059286 120 0 0 0 28.8556
-15.333502 23.883255 3.0787473 89 0 0 0 15.21086
6.3485928 23.899117 3.2483392 111 0 0 0 28.46567
-14.803462 24.345354 3.088948 135 0 0 0 15.59475
5.8543801 24.427603 3.2999549 116 0 0 0 28.07192
-14.279169 24.829447 3.1032472 87 0 0 0 15.98473
14.39097 24.595837 3.0289137 26 0 0 0 32.759972
-13.743753 25.309406 3.1183305 107 0 0 0 16.376431
5.3667235 25.077806 3.3691897 84 0 0 0 27.68767
-13.21487 25.820566 3.1384802 100 0 0 0 16.761219
-12.65334 26.28768 3.1545949 121 0 0 0 17.155251
16.132456 26.0767 3.2559984 44 0 0 0 33.151669
-11.992555 26.554928 3.1486363 128 0 0 0 17.543341
-11.293569 26.727636 3.1338682 137 0 0 0 17.929371
-10.600262 26.899691 3.12113 119 0 0 0 18.332211
-9.9074898 27.060511 3.109163 99 0 0 0 18.715719
-9.2163248 27.213045 3.0982738 142 0 0 0 19.10129
-8.5306978 27.370817 3.0899451 123 0 0 0 19.49921
-7.8546114 27.553534 3.0863073 124 0 0 0 19.88904
-7.1741862 27.717657 3.0824649 120 0 0 0 20.283831
-6.4941244 27.88151 3.0804391 145 0 0 0 20.6737
-5.8128524 28.041382 3.079802 150 0 0 0 21.061159
-5.1263852 28.17778 3.0784326 128 0 0 0 21.45035
-4.4465761 28.362282 3.0840638 151 0 0 0 21.83378
-3.0287666 28.289202 3.05336 110 0 0 0 22.61869
-2.3130469 28.060247 3.0203593 107 0 0 0 23.00029
-3.7590554 28.516562 3.0882163 144 0 0 0 22.226419
-58.11557 -36.722576 3.9193223 7 0 0 0 90.642464
-9.9758978 -35.469719 3.9395688 33 0 0 0 78.888435
-8.9663057 -35.152264 3.8796663 48 0 0 0 78.506172
-8.0539904 -35.137493 3.8557212 17 0 0 0 78.110199
-57.463322 -34.374725 3.8178475 7 0 0 0 91.039925
-10.360027 -33.655865 3.7661924 21 0 0 0 79.286682
-11.14539 -33.292076 3.7545865 8 0 0 0 79.673355
-12.809295 -32.840034 3.7688725 21 0 0 0 80.461845
-13.596198 -32.489979 3.7653625 19 0 0 0 80.849602
-2.2965109 -29.128954 3.8491042 15 0 0 0 75.766647
-3.7072775 -28.908068 3.8398037 21 0 0 0 76.54879
-5.7323446 -28.153742 3.7861269 18 0 0 0 77.716087
9.9762125 -28.491028 3.968328 30 0 0 0 69.11409
10.625035 -28.121069 3.9513526 53 0 0 0 68.724953
-0.82679588 -27.68697 3.6500247 23 0 0 0 74.986
0.53125769 -27.926247 3.6797435 13 0 0 0 74.196152
11.251279 -27.710754 3.9307458 36 0 0 0 68.333031
-6.2398205 -27.224638 3.6812072 19 0 0 0 78.110199
-1.4741125 -27.118362 3.5796185 10 0 0 0 75.376488
6.6094813 -27.130999 3.6753263 21 0 0 0 70.683922
13.441671 -27.19619 3.9842026 10 0 0 0 67.150818
-6.8036275 -26.674305 3.6283743 13 0 0 0 78.506172
4.4298005 -26.504934 3.5393717 12 0 0 0 71.857643
14.806471 -26.599722 3.9957297 14 0 0 0 66.377731
3.1001177 -26.440907 3.5074294 22 0 0 0 72.629311
12.187927 -26.259569 3.8047578 20 0 0 0 67.548828
7.1265206 -24.081526 3.9292436 33 0 0 0 69.893166
-0.12770939 -22.732044 3.5632961 14 0 0 0 74.58667
0.42321929 -22.50754 3.5287545 72 0 0 0 74.196152
16.451511 -22.561451 3.6625772 64 0 0 0 64.417839
2.5167494 -21.508032 3.9305143 32 0 0 0 72.629311
17.545774 -21.744324 3.6629846 117 0 0 0 63.628288
18.551342 -21.872465 3.7581336 16 0 0 0 63.240673
19.386995 -21.755598 3.8169231 25 0 0 0 62.838848
1.8531351 -20.094866 3.6652098 48 0 0 0 73.023911
3.9272797 -20.450417 3.7801549 103 0 0 0 71.455994
1.3364655 -19.767529 3.5992479 55 0 0 0 73.421028
6.3853207 -19.803553 3.7756681 42 0 0 0 69.504494
14.766697 -19.251656 3.786778 17 0 0 0 64.02076
0.34785679 -18.722073 3.8642542 33 0 0 0 74.196152
0.81685853 -18.973646 3.9185357 35 0 0 0 73.809822
13.441309 -18.443689 3.5646682 146 0 0 0 64.417839
2.0608535 -17.654737 3.6689575 50 0 0 0 72.629311
2.517638 -17.78178 3.7065372 27 0 0 0 72.241104
5.7249517 -17.765596 3.8494244 42 0 0 0 69.504494
15.86518 -17.812651 3.7212481 53 0 0 0 62.838848
-3.5629463 -17.460205 3.6797183 26 0 0 0 77.716087
-2.210815 -17.168768 3.5752544 19 0 0 0 76.54879
-0.9483152 -17.287159 3.5755053 57 0 0 0 75.376488
0.31808534 -17.077854 3.9453938 25 0 0 0 74.196152
3.3342195 -17.385223 3.6535316 40 0 0 0 71.455994
5.0713062 -17.167517 3.6933284 22 0 0 0 69.893166
-5.086235 -16.502722 3.5660267 32 0 0 0 79.286682
-4.3338823 -16.963324 3.6154521 50 0 0 0 78.506172
-1.3362074 -16.862267 3.9078321 46 0 0 0 75.766647
-0.70670372 -16.642332 3.8488736 71.5 0 0 0 75.181244
4.2726831 -16.695572 3.7671323 68.5 0 0 0 70.485138
-4.5883555 -16.299105 3.911478 72 0 0 0 78.888435
8.4137173 -16.053148 3.7362528 29 0 0 0 66.76178
0.28771144 -15.566683 3.9809508 36 0 0 0 74.196152
1.7958765 -15.390848 3.9617381 30 0 0 0 72.629311
-5.2888484 -14.592105 3.5872855 53 0 0 0 80.066116
-1.8882718 -14.659135 3.78106 202 0 0 0 76.54879
-0.45300642 -14.882082 3.8084316 29 0 0 0 74.986
8.2405186 -14.827604 3.913816 51 0 0 0 66.377731
9.8150196 -14.964886 3.6873879 47 0 0 0 65.199913
11.187434 -14.598547 3.7869754 268 0 0 0 64.02076
12.088202 -14.997136 3.9639571 40 0 0 0 63.628288
-2.540415 -14.204737 3.6922417 84 0 0 0 77.32531
-1.4697413 -14.114479 3.8071861 265 0 0 0 76.152946
1.9879626 -14.064707 3.6341264 55 0 0 0 72.241104
8.9986162 -14.482951 3.5152667 11 0 0 0 65.590195
9.7364035 -14.084752 3.528852 97 0 0 0 64.80471
11.893955 -14.041729 3.7879612 127 0 0 0 63.240673
16.392448 -14.406687 3.945169 38 0 0 0 60.886501
-9.6468096 -13.623614 3.8541615 51 0 0 0 84.372276
-5.4056535 -13.847923 3.8014741 20 0 0 0 80.461845
-4.5967736 -13.715055 3.7001143 45 0 0 0 79.673355
-3.6921749 -13.749744 3.6429381 30 0 0 0 78.697304
-3.111728 -13.543133 3.9012837 162 0 0 0 78.110199
-2.8366773 -13.892704 3.8036108 193.5 0 0 0 77.716087
-2.1343923 -13.878403 3.7665222 247 0 0 0 76.942123
0.24763516 -13.575521 3.8125505 40 0 0 0 74.196152
0.92776835 -13.80498 3.5409181 40 0 0 0 73.421028
1.9283532 -13.648263 3.869633 35 0 0 0 72.241104
8.1262655 -13.819599 3.7001436 56 0 0 0 65.976181
10.111605 -13.886127 3.7488728 173 0 0 0 64.417839
-10.023551 -13.447346 3.8720872 12 0 0 0 84.766701
-4.1153708 -13.349401 3.5745041 78 0 0 0 79.286682
0.57279211 -13.426296 3.7736905 46 0 0 0 73.809822
8.3666067 -13.464786 3.6586757 32 0 0 0 65.590195
8.8235369 -13.454138 3.7123997 47 0 0 0 65.199913
9.2153482 -13.328986 3.7382517 27 0 0 0 64.80471
14.232504 -13.144255 3.5066869 80 0 0 0 61.271751
-4.684432 -12.918962 3.5164728 22 0 0 0 80.066116
-3.5920482 -12.7451 3.7185276 158 0 0 0 78.888435
-0.38500816 -12.598528 3.8511021 60 0 0 0 74.986
1.1687036 -12.755829 3.5982521 25 0 0 0 73.023911
-3.8250721 -12.403461 3.645407 87 0 0 0 79.286682
-2.803277 -12.201668 3.8251762 29 0 0 0 78.110199
1.2790992 -12.290799 3.6229749 44.5 0 0 0 72.826614
11.224693 -12.009412 3.7892606 47 0 0 0 62.456539
11.892712 -12.114596 3.9117718 127 0 0 0 62.060539
-67.25943 -11.713529 3.8862395 20 0 0 0 96.885803
-8.4585276 -11.943459 3.7416015 20 0 0 0 84.372276
-0.91773903 -11.51331 3.5312693 173 0 0 0 75.766647
0.78508359 -11.710865 3.5880039 129 0 0 0 73.421028
1.3408461 -11.533839 3.5498626 285 0 0 0 72.629311
11.984105 -11.625727 3.8475196 135 0 0 0 61.662167
12.800991 -11.824556 3.7991819 242 0 0 0 61.271751
13.241774 -11.64614 3.628973 35 0 0 0 60.886501
-4.7955561 -11.065172 3.6847427 30.5 0 0 0 81.046844
-3.7174985 -11.081278 3.8611188 46 0 0 0 79.673355
14.742859 -11.158757 3.8022134 27 0 0 0 59.71246
35.687248 -11.226596 3.9511487 37 0 0 0 54.245682
-9.3099422 -10.74726 3.635587 39 0 0 0 85.942047
-8.1805086 -10.97202 3.8402538 33 0 0 0 84.766701
-6.7730341 -10.917177 3.9229074 77 0 0 0 83.393326
-1.8031502 -10.822571 3.8959813 70 0 0 0 77.133713
-1.4127892 -10.923863 3.6411698 148 0 0 0 76.54879
-0.20033075 -10.78343 3.8303609 78 0 0 0 74.786331
0.44645497 -10.510741 3.7366803 80 0 0 0 73.809822
1.5505452 -10.985126 3.9390349 52 0 0 0 72.241104
9.0991516 -10.750461 3.9484158 42 0 0 0 63.240673
9.6419363 -10.841353 3.705354 73 0 0 0 62.838848
-9.692337 -10.309734 3.7329137 48.333332 0 0 0 86.603645
-9.4191856 -10.351525 3.9261334 67 0 0 0 86.339294
-3.9476168 -10.111456 3.853148 83 0 0 0 80.461845
-3.4638708 -10.333549 3.8689373 42 0 0 0 79.673355
14.116839 -10.153802 3.5778127 39 0 0 0 59.322086
-10.079304 -9.566247 3.5534718 95 0 0 0 87.50692
-6.7597327 -9.7086 3.7118874 242 0 0 0 84.241455
-6.4241343 -9.8117142 3.8730407 219.5 0 0 0 83.78569
10.154653 -9.858098 3.6145551 81 0 0 0 61.662167
13.897557 -9.9929676 3.9418731 32 0 0 0 59.322086
-9.8993578 -9.3953018 3.8291993 51 0 0 0 87.50692
-4.3059597 -9.0178413 3.5490122 334 0 0 0 81.636795
-3.5455356 -9.0771208 3.7002585 49 0 0 0 80.461845
-9.4531536 -8.5426664 3.5766876 100 0 0 0 87.901825
-7.0766053 -8.5871916 3.9480352 45 0 0 0 85.551857
-4.6015196 -8.5387163 3.6826024 64 0 0 0 82.426064
12.81876 -8.7531137 3.5778248 70 0 0 0 58.93438
15.051456 -8.7311897 3.5793285 25 0 0 0 57.759007
-9.6550026 -8.3060322 3.5752439 23 0 0 0 88.283669
-9.3059292 -8.4124432 3.8301027 127 0 0 0 87.901825
-6.6941299 -8.1224031 3.9934084 40 0 0 0 85.551857
-4.2010069 -8.2709465 3.5232162 95 0 0 0 82.024521
12.801208 -8.2899046 3.5158339 36 0 0 0 58.536129
13.755719 -8.4354258 3.717582 28 0 0 0 58.144241
-9.1007271 -7.8316312 3.6670246 44 0 0 0 88.283669
-8.0500393 -7.6388383 3.665719 44 0 0 0 87.50692
-7.0820374 -7.7860117 3.9932334 40 0 0 0 86.339294
13.31211 -7.723134 3.5473742 91 0 0 0 57.759007
14.553338 -7.9708891 3.8215501 133 0 0 0 57.371593
-9.1983242 -7.1622424 3.8494444 22 0 0 0 89.071114
-8.0232115 -7.2545509 3.8384902 30 0 0 0 87.901825
-7.545599 -7.343421 3.7374296 155.5 0 0 0 87.313034
14.884501 -7.2293253 3.8106675 36 0 0 0 56.576641
-13.171855 -6.628829 3.7686901 55 0 0 0 92.186951
-11.176053 -6.692071 3.6561024 63 0 0 0 91.039925
-13.031507 -6.1639686 3.6850767 87 0 0 0 92.580566
-11.215079 -6.3485665 3.6174104 23 0 0 0 91.423515
-10.632797 -6.3691998 3.7847111 16 0 0 0 91.039925
-13.463974 -5.9705348 3.7643499 92 0 0 0 92.978401
-11.000444 -5.8794417 3.8086267 83 0 0 0 91.80632
-10.738161 -5.0814071 3.6290476 59 0 0 0 92.580566
-9.9037666 -5.2909746 3.7090993 53 0 0 0 91.80632
-9.4908075 -5.3722858 3.6032877 80 0 0 0 91.423515
-12.890446 -4.9778137 3.533787 31 0 0 0 93.762062
-11.337757 -4.7019563 3.7486596 14 0 0 0 93.366348
-11.44789 -4.4230552 3.7483189 179 0 0 0 93.762062
-23.793583 -3.5556531 3.7623925 20 0 0 0 97.28167
-12.097595 -3.6799889 3.7052898 147 0 0 0 94.942528
-11.929084 -3.9485793 3.528455 142 0 0 0 94.559792
-9.1171303 -3.782876 3.5063939 68 0 0 0 93.366348
-21.816299 -3.2602282 3.9985216 16 0 0 0 97.28167
-13.317579 -3.0042861 3.8312418 19 0 0 0 96.100609
-12.189113 -3.3846679 3.7064743 172.5 0 0 0 95.331604
-10.472678 -3.1847696 3.6175222 22 0 0 0 94.942528
-9.5497074 -3.1647656 3.8199015 90 0 0 0 94.559792
-18.902208 -2.8248041 3.9391341 23 0 0 0 97.28167
-13.895138 -2.7794662 3.6236608 12 0 0 0 96.497131
-12.645611 -2.5307214 3.7789674 212.5 0 0 0 96.497131
-9.3112831 -2.8351843 3.6968625 59 0 0 0 94.942528
-17.310345 -2.1556895 3.5984073 58 0 0 0 97.671127
-16.042452 -2.0006747 3.7329996 77 0 0 0 97.671127
-15.250764 -2.2819011 3.562155 39 0 0 0 97.28167
-13.767747 -2.2356305 3.9141657 93 0 0 0 97.08374
-12.759203 -2.2316737 3.9553332 253 0 0 0 96.885803
-10.74245 -2.427418 3.9097905 79 0 0 0 96.100609
-9.8745594 -2.4865165 3.6171885 37 0 0 0 95.713188
-15.142094 -1.8884239 3.8999436 33 0 0 0 97.671127
29.907591 -1.7982931 3.9059248 20 0 0 0 50.342899
-14.153341 -1.4146302 3.9909599 203 0 0 0 98.056145
30.620806 -1.0897814 3.9933791 89 0 0 0 49.94257
-11.718096 -0.88247275 3.8827217 187 0 0 0 98.457001
-14.989313 -0.026752386 3.8322494 63 0 0 0 99.620842
-19.918932 0.98262006 3.6490276 28 0 0 0 0
-13.540179 0.98523647 3.8108203 84 0 0 0 0.39748001
-15.532818 1.1352254 3.609488 89 0 0 0 0.39748001
-14.26561 1.2133117 3.6671367 355.5 0 0 0 0.58974004
-24.959898 1.8477283 3.9628844 16 0 0 0 0.39748001
-15.589562 1.5204926 3.6308725 74 0 0 0 0.78200001
-13.914008 1.6948098 3.5907688 259 0 0 0 1.17357
35.989666 2.2418141 3.8049023 71 0 0 0 48.39053
35.335835 3.0706379 3.7432265 52 0 0 0 47.994087
36.089687 4.0282383 3.8315952 48 0 0 0 47.60268
33.730503 5.4464278 3.607532 36 0 0 0 46.818459
-17.445324 6.1849198 3.8457112 52 0 0 0 4.6874499
-26.810696 11.037439 3.8801603 28 0 0 0 5.4653001
18.233072 17.765162 3.9632144 37 0 0 0 37.065792
17.707218 18.119272 3.9447222 92 0 0 0 36.676888
17.326178 18.620134 3.960382 16 0 0 0 36.282631
9.2457857 21.484404 3.650377 133 0 0 0 30.80373
9.6894341 21.08004 3.6206677 171 0 0 0 31.20179
17.040327 21.243301 3.5639107 43 0 0 0 35.097038
29.758698 21.46821 3.8789172 50 0 0 0 39.399391
30.751816 21.059713 3.938782 42 0 0 0 39.799641
8.8251905 21.971235 3.6954274 104 0 0 0 30.42293
29.190676 22.164286 3.8751383 51 0 0 0 39.013
-17.974232 22.762665 3.8645289 58 0 0 0 13.63659
28.57143 22.817619 3.8667145 56 0 0 0 38.631821
-16.606188 23.278399 3.8072121 11 0 0 0 14.43198
27.965298 23.47686 3.8620486 53 0 0 0 38.236679
-15.610286 24.311058 3.843195 19 0 0 0 15.21086
13.414756 24.28216 3.6333055 29 0 0 0 32.374031
-15.028567 24.71167 3.8456187 29 0 0 0 15.59475
-14.513726 25.233543 3.8685501 65 0 0 0 15.98473
-13.966752 25.716143 3.8870838 66 0 0 0 16.376431
-13.418187 26.213583 3.9094844 53 0 0 0 16.761219
-12.869003 26.731684 3.9365087 80 0 0 0 17.155251
-12.194107 26.996988 3.9286244 82 0 0 0 17.543341
-11.473673 27.14926 3.907274 82 0 0 0 17.929371
-10.7712 27.328686 3.8924625 101 0 0 0 18.332211
-10.066637 27.490137 3.8776774 76 0 0 0 18.715719
5.1184754 27.112896 3.6236389 29 0 0 0 27.299601
-9.3628035 27.640133 3.8638201 86 0 0 0 19.10129
-8.6758022 27.830948 3.8580558 86 0 0 0 19.49921
-7.9760976 27.973267 3.8480062 78 0 0 0 19.88904
-7.288837 28.153786 3.8455234 89 0 0 0 20.283831
-6.5936642 28.301033 3.8408391 107 0 0 0 20.6737
-1.6415386 28.327461 3.7400105 81 0 0 0 23.389259
-0.94163644 28.127182 3.7081468 74 0 0 0 23.79047
18.506187 28.327726 3.5887206 67 0 0 0 33.542019
-5.9102378 28.503061 3.8457959 106 0 0 0 21.061159
-5.2124724 28.641737 3.8445148 93 0 0 0 21.45035
-4.5199361 28.819233 3.8506553 71 0 0 0 21.83378
-3.8223655 28.983906 3.8573191 62 0 0 0 22.226419
-3.0889993 28.838778 3.8254313 65 0 0 0 22.61869
-2.3576896 28.584351 3.7816541 83 0 0 0 23.00029
-30.718302 29.028524 3.5715039 43 0 0 0 11.30377
-30.675713 30.441385 3.6494896 51 0 0 0 11.692
21.15745 30.706678 3.9506521 60 0 0 0 33.926819
-30.597782 31.885736 3.7292082 36 0 0 0 12.07567
-30.541016 33.425049 3.8178949 43 0 0 0 12.46821
-30.456211 35.014057 3.9101152 36 0 0 0 12.86129
1.7980024 -41.224529 4.4058428 39 0 0 0 73.809822
-13.067603 -36.085846 4.1009889 23 0 0 0 80.066116
16.379526 -35.280312 4.1440086 64 0 0 0 67.548828
16.977758 -34.346619 4.0807972 26 0 0 0 67.150818
-9.5951023 -31.185833 4.2941031 18 0 0 0 79.286682
-12.821227 -30.650816 4.370553 18 0 0 0 80.849602
-3.1729832 -30.675344 4.0609488 38 0 0 0 76.152946
-11.605315 -29.764545 4.2040772 9 0 0 0 80.461845
12.160759 -27.967485 4.0069118 30 0 0 0 67.939507
-3.4313228 -26.743696 4.2217007 13 0 0 0 76.54879
3.7410371 -26.32609 4.1608529 19 0 0 0 72.241104
-1.4002436 -25.738806 4.0367947 21 0 0 0 75.376488
6.9495087 -25.775305 4.1751552 16 0 0 0 70.286362
-5.8109183 -25.347301 4.0728154 28 0 0 0 78.110199
31.669886 -25.172503 4.2821226 13 0 0 0 60.097599
6.0830398 -24.979288 4.0224867 23 0 0 0 70.683922
32.230709 -24.356314 4.2751751 9 0 0 0 59.71246
10.41316 -23.959566 4.0837159 20 0 0 0 67.939507
-0.12689409 -22.579456 4.0982757 32 0 0 0 74.58667
3.128581 -22.048382 4.0408869 28 0 0 0 72.241104
17.891945 -22.171782 4.4397521 41 0 0 0 63.628288
3.6417625 -21.81912 4.0139084 10 0 0 0 71.857643
9.5329504 -21.94063 4.3343911 20 0 0 0 67.939507
9.7457294 -21.012348 4.1973624 57 0 0 0 67.548828
3.4109612 -20.446468 4.2732019 34 0 0 0 71.857643
4.4411626 -20.41774 4.3066726 55 0 0 0 71.066231
1.3306025 -19.680477 4.0686588 25 0 0 0 73.421028
12.074224 -19.41111 4.1388993 106 0 0 0 65.590195
26.517704 -19.038944 4.2638426 39 0 0 0 59.322086
3.6216698 -18.851799 4.4290857 37 0 0 0 71.455994
5.1075969 -18.974035 4.0512738 45 0 0 0 70.286362
-1.8746256 -18.064224 4.193625 10 0 0 0 76.152946
4.4291272 -18.206963 4.3235893 30 0 0 0 70.683922
12.71375 -18.373524 4.044621 41 0 0 0 64.80471
13.404839 -18.393383 4.1186342 41 0 0 0 64.417839
13.897846 -18.121891 4.1318603 25 0 0 0 64.02076
15.930083 -17.884983 4.3294201 45 0 0 0 62.838848
16.429304 -17.561182 4.3462219 46 0 0 0 62.456539
-3.7206564 -17.178921 4.0600853 27 0 0 0 77.913147
-0.9507314 -17.39229 4.4505148 13 0 0 0 75.376488
6.4405217 -17.07114 4.2096658 20 0 0 0 68.724953
16.928333 -17.229965 4.3646054 67 0 0 0 62.060539
-5.1784191 -16.813381 4.0626283 23 0 0 0 79.286682
-4.2980666 -16.834833 4.0130677 31 0 0 0 78.506172
-3.7091575 -16.160393 4.2379384 50 0 0 0 78.110199
-1.2917333 -16.291698 4.1776104 65 0 0 0 75.766647
-1.9430262 -15.08972 4.2689228 232 0 0 0 76.54879
-6.9489179 -14.559579 4.1225653 23 0 0 0 81.636795
-6.170404 -14.73794 4.4800568 22 0 0 0 80.849602
-0.79811096 -14.552481 4.2694392 91 0 0 0 75.376488
1.0008699 -14.859818 4.1790323 51 0 0 0 73.421028
-3.5800793 -14.009666 4.058248 50 0 0 0 78.506172
-0.44121486 -14.474689 4.0644774 160 0 0 0 74.986
11.773665 -14.244514 4.257072 97 0 0 0 63.434479
17.057337 -14.266209 4.0187211 7 0 0 0 60.491859
-7.7194629 -13.527724 4.367147 20 0 0 0 82.809761
-6.9139295 -13.619203 4.2834315 22 0 0 0 82.024521
-2.7896242 -13.672924 4.2606831 122 0 0 0 77.716087
-2.2938857 -13.805897 4.2733641 167.5 0 0 0 77.133713
-1.4327949 -13.778377 4.2297792 361 0 0 0 76.152946
-0.081481449 -13.59507 4.1515985 38 0 0 0 74.58667
8.1139832 -13.798429 4.0876799 42 0 0 0 65.976181
-10.31916 -13.16076 4.2711663 27 0 0 0 85.157761
-7.958837 -13.188431 4.3192348 20 0 0 0 83.195076
-7.2368951 -13.432925 4.2789936 106 0 0 0 82.426064
-4.7361193 -13.069151 4.2432356 127 0 0 0 80.066116
-4.0251899 -13.063684 4.1735034 53 0 0 0 79.286682
0.24524967 -13.448921 4.4403996 74 0 0 0 74.196152
8.3553667 -13.446427 4.0425744 61 0 0 0 65.590195
8.7209854 -13.298166 4.0603232 74 0 0 0 65.199913
9.1777773 -13.274575 4.1195459 42 0 0 0 64.80471
-9.5977869 -12.875486 4.1026559 44 0 0 0 84.766701
-0.080019005 -12.716938 4.1996546 66 0 0 0 74.58667
-9.5607538 -12.192503 4.3437223 38 0 0 0 85.157761
-4.4622455 -12.303883 4.3201623 39 0 0 0 80.066116
-2.6690912 -12.296081 4.155611 107.5 0 0 0 77.913147
-2.2266762 -12.435935 4.172297 118 0 0 0 77.32531
-0.68997377 -12.499597 4.1345396 80 0 0 0 75.376488
-0.37535095 -12.188362 4.0280828 113 0 0 0 74.986
0.72834653 -12.354981 4.1901855 113.33334 0 0 0 73.550629
1.1126833 -12.156734 4.0324221 92 0 0 0 73.023911
8.7562523 -12.029872 4.1702347 17 0 0 0 64.417839
-9.9979153 -11.542176 4.2811894 48 0 0 0 85.942047
-8.3826828 -11.836175 4.0681849 62 0 0 0 84.372276
-3.5780697 -11.613051 4.3109531 152 0 0 0 79.286682
-1.5161706 -11.769263 4.2112536 124 0 0 0 76.54879
0.21431671 -11.710889 4.157135 25 0 0 0 74.196152
9.5422134 -11.845213 4.2616858 41 0 0 0 63.628288
11.764465 -11.984302 4.2826738 23 0 0 0 62.060539
13.761122 -11.513435 4.1309061 25 0 0 0 60.491859
-4.7661128 -11.374862 4.0721664 39 0 0 0 80.849602
-3.4703262 -11.261536 4.4697084 124 0 0 0 79.286682
-2.8575051 -11.182813 4.3788257 74 0 0 0 78.506172
-0.90492696 -11.375188 4.0507021 74 0 0 0 75.766647
0.20644441 -11.324271 4.2980824 89 0 0 0 74.196152
1.3371397 -11.483921 4.1038094 61 0 0 0 72.629311
1.8629744 -11.208052 4.3116856 19 0 0 0 71.857643
12.861367 -11.308628 4.3657842 152 0 0 0 60.886501
13.399165 -11.211631 4.4527307 147 0 0 0 60.491859
-6.2006135 -10.870098 4.4373922 55 0 0 0 82.809761
-4.5706983 -10.917561 4.1988616 268 0 0 0 80.849602
0.96731472 -10.566321 4.0283294 44 0 0 0 73.023911
1.4888171 -10.55529 4.0469785 60 0 0 0 72.241104
2.0476041 -10.703875 4.1368451 63 0 0 0 71.455994
7.4874439 -10.836424 4.0199246 32 0 0 0 64.80471
7.8549838 -10.797252 4.4048524 31 0 0 0 64.417839
10.954936 -10.631117 4.2754736 47 0 0 0 61.662167
11.886738 -10.981194 4.1275907 99 0 0 0 61.271751
-9.1670151 -10.243991 4.3069816 57 0 0 0 86.206879
-8.2280121 -10.49481 4.0701838 26 0 0 0 85.157761
-4.9975457 -10.471313 4.4003615 94 0 0 0 81.636795
-4.396255 -10.499371 4.317636 88 0 0 0 80.849602
-3.7271476 -10.280198 4.1491499 162 0 0 0 80.066116
8.5027723 -10.045633 4.0157919 26 0 0 0 63.240673
9.9842482 -10.174371 4.3459773 79 0 0 0 62.060539
13.828371 -10.465186 4.419611 118 0 0 0 59.71246
18.868227 -10.328502 4.4155912 12 0 0 0 57.371593
-9.261219 -9.693119 4.2544289 24 0 0 0 86.735825
-8.5806322 -9.9044027 4.3237314 66 0 0 0 85.942047
-8.0356617 -9.7456779 4.1687002 308 0 0 0 85.551857
-7.6487737 -9.7584972 4.3961725 202 0 0 0 85.157761
-7.2566471 -9.7347174 4.1571407 240 0 0 0 84.766701
-6.8049154 -9.6123629 4.321106 232.5 0 0 0 84.372276
-6.2930903 -9.703166 4.1975493 250.33333 0 0 0 83.720985
10.819067 -9.5164309 4.3919744 48 0 0 0 60.886501
-6.3529658 -9.4542494 4.3196955 322 0 0 0 83.979805
12.169865 -9.2148695 4.274416 35 0 0 0 59.71246
13.159772 -9.2232122 4.0982466 63 0 0 0 59.128235
-10.079949 -8.6717653 4.3865948 31 0 0 0 88.283669
-8.8107672 -8.7800026 4.1053348 27 0 0 0 87.119148
12.50473 -8.5395679 4.2401667 28 0 0 0 58.93438
13.298462 -8.610467 4.2360802 46 0 0 0 58.536129
33.292339 -8.7048483 4.4832397 16 0 0 0 53.467239
-7.2892394 -8.4180489 4.2232723 102 0 0 0 85.942047
15.953545 -8.2342663 4.1314077 18 0 0 0 56.972321
-9.3812532 -7.6798697 4.0021472 26 0 0 0 88.674156
-7.5941424 -7.5717983 4.0681791 34 0 0 0 87.119148
-7.3103967 -7.6534429 4.0153651 123 0 0 0 86.735825
12.373734 -7.5886011 4.4235702 6 0 0 0 58.144241
-13.254437 -7.0813727 4.2131042 16 0 0 0 91.80632
-9.4495659 -7.3632402 4.2482667 19 0 0 0 89.071114
14.25733 -7.3622522 4.0911798 27 0 0 0 56.972321
14.551877 -7.0685263 4.1243014 38 0 0 0 56.576641
-13.055395 -5.7893381 4.0056052 23 0 0 0 92.978401
-12.201734 -5.7714233 4.4528437 103 0 0 0 92.580566
30.433203 -5.6135793 4.0343666 62 0 0 0 52.294113
-13.769279 -5.3171735 4.1389775 43 0 0 0 93.762062
-12.527015 -5.1925964 4.4735708 15 0 0 0 93.366348
-12.138504 -5.3852592 4.0530963 139 0 0 0 92.978401
-11.971176 -5.3085155 4.3210683 47 0 0 0 92.978401
-10.68789 -5.2738214 4.1283665 68 0 0 0 92.318153
-10.34152 -5.366744 4.2771521 45.5 0 0 0 91.996635
-13.967929 -4.6260939 4.4879575 51 0 0 0 94.559792
-13.050282 -4.6790318 4.2303219 125 0 0 0 94.162064
-9.9181252 -4.6954155 4.1630802 47 0 0 0 92.580566
-11.303975 -4.3651867 4.0008864 37 0 0 0 93.762062
-10.626315 -4.1077614 4.042479 64 0 0 0 93.762062
-15.399073 -3.8716526 4.2534571 35.5 0 0 0 95.713188
-11.210863 -3.7152102 4.1898799 121 0 0 0 94.559792
28.443464 -3.8204138 4.4546552 24 0 0 0 51.51062
-13.286827 -3.3431287 4.1814628 21 0 0 0 95.713188
-11.910356 -3.3061748 4.0810604 160 0 0 0 95.331604
-10.92366 -3.0364246 4.0237479 42 0 0 0 95.331604
28.662214 -3.1378365 4.4751401 8 0 0 0 51.1133
-16.894251 -2.5278225 4.3616929 38 0 0 0 97.28167
-15.515881 -2.7109387 4.02424 27 0 0 0 96.885803
-12.713616 -2.5432072 4.2796178 81 0 0 0 96.497131
-14.414727 -2.1594694 4.4468818 60 0 0 0 97.28167
-12.35003 -1.5424783 4.2608223 116 0 0 0 97.671127
-14.083036 -1.4101167 4.3193607 141 0 0 0 98.056145
-13.360522 -0.67808545 4.4156852 111 0 0 0 98.839638
-11.525354 -0.87205547 4.385922 141 0 0 0 98.457001
-11.349558 -0.57994938 4.0347161 50 0 0 0 98.839638
-17.398972 -0.24393739 4.0162125 97.5 0 0 0 99.424141
-15.931566 -0.41828966 4.2701778 286 0 0 0 99.22744
-12.249735 -0.32155034 4.04776 32 0 0 0 99.22744
-11.651305 -0.024839053 4.4216046 84 0 0 0 99.620842
31.258387 -0.34669951 4.0733385 22 0 0 0 49.556328
32.477554 0.43507779 4.230793 15 0 0 0 49.168079
-17.371475 0.84968579 4.0306296 187 0 0 0 0
-15.38505 0.74873227 4.3245401 321 0 0 0 0
-26.259426 1.3042272 4.1618147 9 0 0 0 0
33.057076 1.2526085 4.3082547 9 0 0 0 48.7756
-15.82996 1.5436257 4.4673142 186 0 0 0 0.78200001
-15.331784 1.8706244 4.3386173 379 0 0 0 1.17357
-13.405131 1.9595264 4.1354394 59 0 0 0 1.5646
-16.267202 2.3893507 4.2138991 52 0 0 0 1.5646
-14.596907 2.1399093 4.1442642 25 0 0 0 1.5646
34.281864 2.140485 4.4719419 13 0 0 0 48.39053
-12.857547 3.1769795 4.3703275 95 0 0 0 3.11851
-12.886997 3.6855752 4.2600079 34.5 0 0 0 3.7111449
-18.52026 5.567636 4.4884472 51 0 0 0 3.9057801
-18.500462 6.0599074 4.044404 30 0 0 0 4.2992001
-17.889254 6.8349481 4.4457173 37 0 0 0 5.0753798
-17.415386 7.1428428 4.3700223 34 0 0 0 5.4653001
39.77948 7.4254889 4.2660708 20 0 0 0 46.43586
-23.178833 7.607018 4.4694285 70 0 0 0 4.2992001
-26.203714 9.3206196 4.4085364 21 0 0 0 4.6874499
-22.160696 9.1116743 4.3904672 20 0 0 0 5.4653001
-21.910782 9.6389055 4.3862257 35 0 0 0 5.8501501
-26.389326 10.118073 4.4799089 22 0 0 0 5.0753798
-26.152531 10.764921 4.4829216 43 0 0 0 5.4653001
-36.370869 11.001769 4.1490278 18 0 0 0 3.9057801
-37.71072 13.447862 4.3709564 16 0 0 0 4.6874499
18.964933 17.592815 4.0263357 42 0 0 0 37.458111
19.828846 17.509394 4.1159458 67 0 0 0 37.844753
16.866091 20.003847 4.073812 48 0 0 0 35.496609
17.037689 21.238007 4.2380767 32 0 0 0 35.097038
16.135468 26.088827 4.0126328 31 0 0 0 33.151669
18.523781 28.362328 4.4268928 67 0 0 0 33.542019
17.149002 29.293621 4.4371905 57 0 0 0 32.759972
-9.4778557 -33.718163 4.6075149 14 0 0 0 78.888435
11.029578 -29.187143 4.8721895 58 0 0 0 68.724953
-2.9747496 -28.745762 4.5224504 29 0 0 0 76.152946
11.703976 -28.821117 4.8569012 29 0 0 0 68.333031
9.9422941 -28.393421 4.6993675 38 0 0 0 69.11409
-7.8656402 -27.97098 4.5464311 11 0 0 0 78.888435
-6.6817894 -26.195396 4.9014201 7 0 0 0 78.506172
-7.2978582 -25.946995 4.8866568 21 0 0 0 78.888435
5.4818721 -25.170002 4.6683273 29 0 0 0 71.066231
9.0406837 -23.939898 4.635252 28 0 0 0 68.724953
14.993277 -22.827286 4.9372835 26 0 0 0 65.199913
10.71236 -21.687536 4.9762726 29 0 0 0 67.150818
1.4127384 -20.815683 4.812149 21 0 0 0 73.421028
3.4266133 -20.51647 4.7968674 57 0 0 0 71.857643
2.3976223 -20.468019 4.7531562 31 0 0 0 72.629311
4.4385877 -20.388008 4.8112421 42 0 0 0 71.066231
