# .PCD v0.7 - Point Cloud Data file format
VERSION 0.7
FIELDS x y z intensity normal_x normal_y normal_z curvature
SIZE 4 4 4 4 4 4 4 4
TYPE F F F F F F F F
COUNT 1 1 1 1 1 1 1 1
WIDTH 962
HEIGHT 1
VIEWPOINT 0 0 0 1 0 0 0
POINTS 962
DATA ascii
-6.8767538 -22.650755 3.1156886 141 0 0 0 79.223297
-14.959669 -20.173075 3.2965031 14 0 0 0 84.69072
-10.765972 -20.137274 3.001889 23 0 0 0 82.351883
13.344847 -20.014845 3.22492 62 0 0 0 65.154121
-15.540126 -19.915831 3.3154428 23 0 0 0 85.084892
-17.280903 -19.071333 3.377049 82 0 0 0 86.268684
-15.851075 -18.379368 3.1866076 7 0 0 0 85.871407
-10.956048 -18.274761 3.3295352 31 0 0 0 83.135582
-10.266585 -18.117275 3.2550633 25 0 0 0 82.742302
12.646749 -18.000875 3.4995992 19 0 0 0 64.767502
-5.3605795 -17.64175 3.3461857 183 0 0 0 79.223297
-4.4683189 -17.798618 3.3318634 39 0 0 0 78.450653
-14.169788 -17.267326 3.4877965 25 0 0 0 85.482544
-8.6314716 -17.136982 3.4771631 114 0 0 0 81.967056
-7.5856853 -17.09815 3.3913591 71 0 0 0 81.175407
-4.8052411 -17.329239 3.2650547 157 0 0 0 78.838562
-19.633764 -16.942881 3.4035151 28 0 0 0 88.207153
-15.845815 -16.64727 3.0194318 37 0 0 0 86.66024
-9.1023846 -16.059692 3.3457489 185 0 0 0 82.742302
-8.7124014 -16.290054 3.3485258 36 0 0 0 82.351883
-2.8375144 -16.276884 3.4109881 21 0 0 0 77.271835
-17.511209 -15.876601 3.1048539 15 0 0 0 87.822159
-10.420897 -15.591472 3.397686 17 0 0 0 83.908081
-9.9823494 -15.758221 3.3800514 65 0 0 0 83.52903
-5.8287277 -15.660854 3.0344834 180 0 0 0 80.205048
-5.2260118 -15.790015 3.4299042 32 0 0 0 79.613731
-3.1325996 -15.684973 3.3024776 132 0 0 0 77.660942
-10.637974 -15.101117 3.3470051 181 0 0 0 84.30365
-6.2419176 -15.049109 3.3588927 231 0 0 0 80.78949
-5.5192022 -15.399147 3.373373 185 0 0 0 80.011238
11.837756 -15.209819 3.0745769 10 0 0 0 63.989033
12.370257 -15.113111 3.1171446 8 0 0 0 63.592087
-7.4872403 -14.861104 3.4288287 28 0 0 0 81.967056
-1.8591522 -14.969948 3.4872644 28 0 0 0 76.489471
-7.9749489 -14.06729 3.3322542 25 0 0 0 82.742302
-6.6840076 -14.116078 3.2205117 58 0 0 0 81.57209
-8.7412491 -13.796315 3.3648145 40 0 0 0 83.52903
-5.285305 -13.683354 3.3863859 123 0 0 0 80.398849
-22.440874 -13.458679 3.4370379 16 0 0 0 90.960258
-2.6101925 -13.062222 3.4081075 89 0 0 0 77.660942
21.248188 -13.480435 3.4146183 69 0 0 0 58.520233
-7.7217531 -12.873314 3.0954466 26 0 0 0 83.135582
21.117054 -12.681266 3.3456337 89 0 0 0 58.12804
-6.8181944 -12.37837 3.261971 71 0 0 0 82.547089
-6.2071261 -12.320761 3.1853371 119 0 0 0 81.967056
-5.7721324 -12.191358 3.1153967 67 0 0 0 81.57209
-5.1224055 -12.348347 3.4164793 165 0 0 0 80.78949
-4.7502747 -12.293519 3.3689411 78 0 0 0 80.398849
21.829042 -12.389287 3.4108088 81 0 0 0 57.739922
22.692146 -12.151602 3.4993474 135 0 0 0 57.348461
-7.8886132 -11.802524 3.2756968 69 0 0 0 83.908081
-6.7939792 -11.648678 3.2787452 52.5 0 0 0 82.938942
24.569658 -11.645825 3.0290189 54 0 0 0 56.562569
-8.0307312 -11.399974 3.218092 94 0 0 0 84.30365
-7.1096826 -11.221971 3.0675108 22 0 0 0 83.52903
26.599449 -11.041601 3.2109039 44 0 0 0 55.781033
-19.380898 -10.985917 3.4827416 112 0 0 0 91.348259
27.80757 -10.749588 3.3247707 32 0 0 0 55.400753
-15.504922 -10.364813 3.3810639 21 0 0 0 90.180946
29.172132 -10.46032 3.456984 14 0 0 0 55.002647
-16.357738 -9.8098335 3.4579663 68 0 0 0 90.960258
-15.71094 -9.9538355 3.3722281 120 0 0 0 90.574417
20.838907 -9.8763847 3.1431074 44 0 0 0 56.562569
21.780994 -9.6742611 3.2491014 53 0 0 0 56.166939
27.289396 -9.036025 3.2114201 9 0 0 0 54.619553
26.973461 -8.2020149 3.152256 23 0 0 0 54.228111
55.844093 -1.3988779 3.4841559 7 0 0 0 49.935902
-22.702709 1.7124406 3.3197517 11 0 0 0 0.77829999
-23.824265 2.383621 3.4904039 55 0 0 0 1.1619
-25.316957 5.0645375 3.1295121 23 0 0 0 2.72521
-25.999012 5.8656802 3.2307065 33 0 0 0 3.11994
23.931276 6.0073223 3.384136 92 0 0 0 45.64188
13.805714 7.415535 3.3212428 273 0 0 0 41.752129
14.289775 7.2269702 3.3941457 219 0 0 0 42.141121
14.97185 7.1112957 3.103395 199 0 0 0 42.5327
13.422551 7.6422529 3.2726829 232 0 0 0 41.359806
16.948189 7.5401249 3.2386885 99.5 0 0 0 42.919048
12.88356 8.2017527 3.2335403 272 0 0 0 40.576927
22.599594 8.1054077 3.2902257 113 0 0 0 44.084061
-26.091274 8.6368198 3.3354273 61 0 0 0 4.6754298
12.63455 8.7162762 3.247354 72 0 0 0 39.988281
-25.924379 9.2905502 3.3435957 122 0 0 0 5.0672498
12.448656 9.2841749 3.2820222 48 0 0 0 39.412487
-31.993929 9.7439852 3.234257 46 0 0 0 4.2937002
-25.665102 9.9118681 3.3420761 33 0 0 0 5.4616199
12.388044 9.7224331 3.3256385 16 0 0 0 39.013912
-67.780396 10.198877 3.2293165 13 0 0 0 1.95139
12.378509 10.21657 3.3866763 46 0 0 0 38.628967
12.612528 10.937626 3.1066544 154 0 0 0 38.237991
6.7623906 14.454412 3.3206649 179 0 0 0 31.590401
-72.544525 14.582131 3.4865394 10 0 0 0 2.72521
6.3920422 14.587657 3.311007 205 0 0 0 31.201229
7.3131943 14.668963 3.0089087 276 0 0 0 31.98806
7.8337655 14.787701 3.074369 252 0 0 0 32.374668
8.3824482 14.921227 3.1465034 259 0 0 0 32.76368
-67.361069 15.264374 3.2581432 13 0 0 0 3.11994
6.2605162 15.286029 3.0223022 215 0 0 0 30.81628
8.9382782 15.029782 3.2172842 182 0 0 0 33.146999
9.5444002 15.183046 3.3017237 169 0 0 0 33.54179
6.0678511 15.915529 3.1118679 222 0 0 0 30.42952
10.904154 15.576379 3.0330284 202 0 0 0 34.319168
11.629116 15.768821 3.127461 140 0 0 0 34.708794
12.367483 15.931676 3.2213659 129 0 0 0 35.103928
5.8944154 16.674269 3.2260587 181 0 0 0 30.02957
5.6780939 17.405743 3.33464 141 0 0 0 29.636141
18.220051 17.40399 3.4112694 66 0 0 0 37.458927
17.82527 17.885357 3.4152937 113 0 0 0 37.062199
-28.20507 18.853489 3.3105428 82 0 0 0 8.9691601
5.2358932 19.166676 3.1153781 114 0 0 0 28.865021
4.9772668 20.142807 3.2473893 120 0 0 0 28.46784
4.6761599 21.127905 3.3807364 69 0 0 0 28.0802
4.257112 21.745529 3.4562955 166 0 0 0 27.699551
2.2943795 23.939066 3.1327579 79 0 0 0 26.136959
1.7424374 24.479132 3.1909828 124 0 0 0 25.749689
1.1682209 25.062744 3.2562654 101 0 0 0 25.35601
0.56880277 25.725842 3.3332787 106 0 0 0 24.96262
-0.062386658 26.36734 3.4091411 91 0 0 0 24.57177
-0.72368354 26.953363 3.479676 38 0 0 0 24.17354
-38.79163 27.358561 3.4773703 7 0 0 0 9.3613796
-31.38224 28.457798 3.1313281 8 0 0 0 11.30734
-17.064144 28.413338 3.3187087 62 0 0 0 15.99264
-16.273985 28.665636 3.3064654 76 0 0 0 16.37689
-15.469534 28.873558 3.2916737 98 0 0 0 16.76531
-5.0561323 28.86005 3.0218313 98 0 0 0 21.83629
-14.673596 29.077187 3.2788794 102 0 0 0 17.150761
-13.889262 29.28537 3.2689857 92 0 0 0 17.543461
-13.107141 29.480873 3.2600086 95 0 0 0 17.93721
-7.4156156 29.420708 3.1093864 82 0 0 0 20.668739
-6.6173005 29.259123 3.0807464 98 0 0 0 21.060089
-5.8298078 29.068508 3.0511932 99 0 0 0 21.45351
-12.332876 29.677811 3.2534444 101 0 0 0 18.323959
-11.563835 29.87211 3.2489178 99 0 0 0 18.714979
-9.1273184 29.943958 3.1944299 68 0 0 0 19.886471
-8.2651052 29.703485 3.1529419 86 0 0 0 20.28537
-10.802012 30.072863 3.2473593 89 0 0 0 19.10918
-9.9784698 30.075661 3.2268572 74 0 0 0 19.504919
-33.203281 33.223652 3.4810851 18 0 0 0 12.07988
30.277678 -109.47651 3.7933862 8 0 0 0 70.242279
32.97366 -108.76384 3.8041127 8 0 0 0 69.849167
-28.749104 -36.842976 3.821357 26 0 0 0 85.084892
-29.772678 -36.282898 3.8375955 12 0 0 0 85.482544
5.2961955 -35.831902 3.8894386 23 0 0 0 72.190239
-1.6997283 -34.322533 3.6760154 17 0 0 0 75.32399
-0.85531926 -34.258812 3.6676219 14 0 0 0 74.9291
-15.248152 -32.23085 3.7937016 19 0 0 0 81.57209
2.7954009 -28.532776 3.7869897 44 0 0 0 72.975929
-18.045641 -28.493309 3.5874472 10 0 0 0 83.52903
3.4617472 -28.193092 3.7541919 44 0 0 0 72.586082
-5.9835086 -26.618866 3.5886922 42 0 0 0 78.052925
-7.2382936 -26.138426 3.5659544 92 0 0 0 78.838562
-6.614799 -26.386656 3.5774889 48 0 0 0 78.450653
-17.215355 -24.448421 3.9186981 27 0 0 0 84.30365
-16.061531 -24.041042 3.7904816 72 0 0 0 83.908081
-27.873543 -22.878727 3.8334703 20 0 0 0 88.605598
-3.3517129 -22.523283 3.5663848 40 0 0 0 76.889938
-8.3199492 -21.554722 3.6111145 82 0 0 0 80.398849
-10.167894 -21.490395 3.7130177 38 0 0 0 81.57209
-10.532909 -20.918701 3.6577761 29 0 0 0 81.967056
-6.9306755 -20.95702 3.9987783 18 0 0 0 79.613731
-4.6956558 -20.867012 3.8787344 36 0 0 0 78.052925
-3.4204884 -19.645603 3.6197903 48 0 0 0 77.271835
-20.023796 -19.071089 3.6264205 18 0 0 0 87.445877
12.894539 -19.343313 3.6936085 31 0 0 0 65.154121
-17.211756 -18.994406 3.9975615 20 0 0 0 86.268684
-6.9951668 -18.113686 3.9976978 39 0 0 0 80.398849
-4.5597544 -18.161421 3.8595414 157 0 0 0 78.450653
-5.3476696 -17.597048 3.79 174 0 0 0 79.223297
12.433756 -17.700506 3.9777174 44 0 0 0 64.767502
-17.188961 -17.193445 3.7934799 15 0 0 0 87.046631
-15.030897 -17.427328 3.5924699 38 0 0 0 85.871407
-4.7697015 -17.198389 3.6794758 188 0 0 0 78.838562
-0.22432294 -17.083048 3.9496264 68 0 0 0 74.735321
-17.523039 -16.688183 3.7760456 39 0 0 0 87.445877
-16.074894 -16.887554 3.6391542 39 0 0 0 86.66024
-7.5335321 -16.979099 3.8246679 139 0 0 0 81.175407
-2.4857607 -16.680191 3.8941443 25 0 0 0 76.889938
-1.2376817 -16.5944 3.845222 55 0 0 0 75.717964
0.40004751 -16.953817 3.9219804 22 0 0 0 74.150444
12.131721 -16.402079 3.7558026 22 0 0 0 64.377678
-17.64143 -15.994335 3.7165842 10 0 0 0 87.822159
-8.5066729 -15.903913 3.7133381 25 0 0 0 82.351883
18.092766 -15.639269 3.8262513 84 0 0 0 60.862072
-6.7018099 -15.107348 3.8105605 79 0 0 0 81.175407
-6.2373919 -15.044354 3.7558875 125 0 0 0 80.78949
-5.3001089 -15.387213 3.7547674 297 0 0 0 79.812485
-4.7050552 -15.484481 3.7345481 114 0 0 0 79.223297
-3.0604362 -15.332735 3.6113508 38 0 0 0 77.660942
18.425301 -15.152551 3.8192523 11 0 0 0 60.460728
-10.29229 -14.609338 3.6784086 45 0 0 0 84.30365
13.227944 -14.633783 3.6413553 25 0 0 0 62.81358
13.829227 -14.563105 3.7087181 255 0 0 0 62.426121
18.810337 -14.709964 3.8253312 28 0 0 0 60.073273
-10.693993 -14.415608 3.694277 25 0 0 0 84.69072
-3.6106 -14.374313 3.7874515 208 0 0 0 78.450653
-2.0920506 -14.01198 3.9756806 100 0 0 0 76.889938
14.348618 -14.385281 3.7538474 93 0 0 0 62.029121
14.914552 -14.235372 3.8108857 40 0 0 0 61.633713
15.619411 -14.191054 3.9019909 18 0 0 0 61.245193
21.51239 -14.400312 3.5093939 145 0 0 0 58.906681
-3.767354 -13.576427 3.9511912 59 0 0 0 78.838562
-2.4088874 -13.811373 3.5859919 55 0 0 0 77.271835
16.184175 -13.993892 3.9576476 48 0 0 0 60.862072
-8.690587 -13.00329 3.9893219 49 0 0 0 83.908081
-6.7299643 -13.35968 3.8181462 88 0 0 0 81.967056
-4.7946634 -13.377209 3.6305926 107 0 0 0 80.011238
17.970346 -13.356726 3.5913725 128 0 0 0 59.692513
18.897566 -13.337208 3.710989 9 0 0 0 59.29858
-5.1631861 -12.89156 3.8928957 86 0 0 0 80.59417
-2.8417394 -12.601791 3.6262472 97 0 0 0 78.052925
19.384331 -12.979209 3.7446971 40 0 0 0 58.906681
20.30871 -12.886377 3.8619132 14 0 0 0 58.520233
21.115269 -12.681069 3.9562531 65 0 0 0 58.12804
-10.427125 -12.08988 3.6797059 22 0 0 0 85.871407
-6.6759276 -12.480273 3.6139157 37 0 0 0 82.351883
-3.0922487 -12.299839 3.5602086 92 0 0 0 78.450653
-7.3440657 -11.591885 3.5041084 29 0 0 0 83.52903
-6.8006291 -11.995815 3.8636026 84 0 0 0 82.742302
-6.0038519 -11.914929 3.7397783 36 0 0 0 81.967056
26.66412 -11.063425 3.9298291 7 0 0 0 55.781033
-19.859463 -10.622092 3.5210447 56 0 0 0 91.734886
-20.360847 -10.255976 3.5644233 98 0 0 0 92.111435
-15.121597 -9.5802784 3.6870506 31 0 0 0 90.574417
-15.406319 -9.2390938 3.7004118 59 0 0 0 90.960258
26.848391 -8.8852177 3.8570106 5 0 0 0 54.619553
27.080433 -8.229434 3.8620708 7 0 0 0 54.228111
-21.232975 -0.52660239 3.8630903 35 0 0 0 99.146797
-24.160877 -0.0055998894 3.7926078 10 0 0 0 99.537216
-23.044266 0.61125302 3.927428 7 0 0 0 0
-25.035263 1.2758441 3.6534417 35 0 0 0 0.39002001
-23.949705 2.9883237 3.5185225 75 0 0 0 1.55787
-23.204086 2.8950648 3.9839261 32 0 0 0 1.55787
-22.550486 3.3737667 3.8854368 68 0 0 0 1.95139
-23.951977 3.5844228 3.5309713 105 0 0 0 1.95139
-22.211975 3.879194 3.8429301 22 0 0 0 2.3345599
-24.800972 4.3337178 3.6704378 22 0 0 0 2.3345599
-24.260864 4.8521919 3.6079097 27 0 0 0 2.72521
25.399155 5.0621643 3.5514138 114 0 0 0 46.430927
-22.303432 5.603323 3.9213026 54 0 0 0 3.51564
25.287182 5.6898088 3.5536675 91 0 0 0 46.033958
24.617678 6.8269892 3.5016334 113 0 0 0 45.25396
31.013538 6.9676414 3.565326 75 0 0 0 46.033958
-28.031044 7.0503011 3.502846 52 0 0 0 3.51564
13.782682 7.40837 3.7010255 238 0 0 0 41.752129
14.265821 7.2200346 3.7821467 192 0 0 0 42.141121
14.957527 7.109087 3.7134423 170.5 0 0 0 42.5327
16.825029 7.4886646 3.899858 114 0 0 0 42.919048
24.496437 7.4468303 3.5083196 187 0 0 0 44.871391
-28.312136 7.8619003 3.5617299 39 0 0 0 3.89645
-25.991194 7.9032941 3.9638982 33 0 0 0 4.2937002
13.414301 7.6427999 3.6508334 238 0 0 0 41.359806
12.879301 8.2056637 3.7969482 170.5 0 0 0 40.576927
20.019266 8.3171759 3.5105155 61 0 0 0 43.311768
24.29561 8.0436926 3.5058062 109 0 0 0 44.470581
-23.74272 8.5045805 3.683991 73 0 0 0 5.0672498
-23.158384 8.9387693 3.6279442 86 0 0 0 5.4616199
12.66185 8.6651144 3.7493382 61.333332 0 0 0 40.052814
12.43299 9.278595 3.660001 37 0 0 0 39.412487
23.944059 9.2570934 3.5138562 80 0 0 0 43.703472
-22.216728 9.846693 3.5553486 20 0 0 0 6.2388501
12.437583 9.7674828 3.7282088 14 0 0 0 39.013912
-25.061405 10.387552 3.964834 65 0 0 0 5.8461399
12.389552 10.232297 3.7853816 19 0 0 0 38.628967
12.636515 10.965197 3.7319779 142 0 0 0 38.237991
-23.361641 11.047671 3.7815335 18 0 0 0 6.6273899
-28.502024 12.646868 3.7889943 13 0 0 0 6.2388501
-27.053644 13.622991 3.685854 52 0 0 0 7.0117102
-34.38131 14.277038 3.6054947 6 0 0 0 5.8461399
-33.092869 14.700084 3.5101073 6 0 0 0 6.2388501
8.1246395 15.339122 3.615381 187 0 0 0 32.374668
8.6925774 15.475693 3.6994886 99 0 0 0 32.76368
10.61844 15.996916 3.5355 109 0 0 0 33.934299
6.5870528 16.083664 3.6062701 95 0 0 0 30.81628
11.327209 16.183298 3.6396029 122 0 0 0 34.319168
6.3547812 16.669533 3.6969688 137 0 0 0 30.42952
14.781335 16.790947 3.5774412 80 0 0 0 36.082672
19.883528 18.075544 3.6388571 40 0 0 0 37.845181
-34.245808 19.42705 3.8266814 21 0 0 0 7.7960601
5.8060555 19.378643 3.6765714 34 0 0 0 29.24724
5.4819918 20.071552 3.7760246 80 0 0 0 28.865021
-76.685524 21.37978 3.7561579 8 0 0 0 3.89645
-29.976898 23.401787 3.7205303 14 0 0 0 10.14022
2.3474858 24.527578 3.8184078 73 0 0 0 26.136959
1.781178 25.071188 3.8889878 130 0 0 0 25.749689
1.1971636 25.753569 3.982682 22 0 0 0 25.35601
-1.4247643 27.750387 3.5790937 58 0 0 0 23.786779
-28.300589 28.297676 3.939471 6 0 0 0 12.07988
-3.5685964 28.443678 3.6731598 80 0 0 0 22.61718
-2.8437092 28.255455 3.6450651 95 0 0 0 23.002399
-2.1329012 28.086575 3.6216805 87 0 0 0 23.40337
-4.3131871 28.673084 3.7088385 44 0 0 0 22.229349
-7.5599775 29.953074 3.9236345 31 0 0 0 20.668739
-74.818748 35.538963 3.9384227 16 0 0 0 6.6273899
-34.260857 36.009766 3.688772 19 0 0 0 12.46616
-35.116276 38.77327 3.888124 15 0 0 0 12.86649
-25.733883 40.638195 3.6293733 11 0 0 0 15.59705
20.425203 -46.131081 4.2212262 29 0 0 0 67.892944
-14.737695 -29.280922 4.2956324 27 0 0 0 81.967056
-17.803291 -28.119894 4.3586607 14 0 0 0 83.52903
2.7571161 -28.159622 4.4380918 39 0 0 0 72.975929
3.4668617 -28.246477 4.4655108 23 0 0 0 72.586082
-6.6792617 -26.640436 4.2910099 26 0 0 0 78.450653
-6.0626702 -26.967386 4.3190303 53 0 0 0 78.052925
-15.366242 -24.267212 4.4766226 35 0 0 0 83.52903
-15.371193 -21.827051 4.1624889 20 0 0 0 84.30365
-10.189105 -21.533745 4.3098092 46 0 0 0 81.57209
-0.49530327 -19.496855 4.0260873 20 0 0 0 74.9291
-4.1958909 -18.647392 4.4071198 27 0 0 0 78.052925
-3.1709688 -18.215891 4.2656651 104 0 0 0 77.271835
-0.89828956 -18.002565 4.1634369 29 0 0 0 75.32399
-15.936429 -17.585848 4.2907219 58 0 0 0 86.268684
-1.7553622 -17.694672 4.1058164 48 0 0 0 76.100075
-4.7728882 -17.219339 4.120821 78 0 0 0 78.838562
-0.44109991 -17.335491 4.433291 37 0 0 0 74.9291
-19.430929 -16.767437 4.0034494 15 0 0 0 88.207153
-4.2616334 -16.979988 4.0386586 52 0 0 0 78.450653
-16.887821 -16.082621 4.2171721 20 0 0 0 87.445877
-10.962729 -16.402155 4.0576782 26 0 0 0 83.908081
-4.7285972 -15.560348 4.1517019 152 0 0 0 79.223297
-5.0524516 -15.269822 4.1057563 141 0 0 0 79.613731
-4.6202555 -15.20088 4.4509354 109 0 0 0 79.223297
11.875373 -15.261373 4.0404725 22 0 0 0 63.989033
-7.0755324 -14.949106 4.2185674 57 0 0 0 81.57209
-2.5415545 -14.574025 4.1495304 21 0 0 0 77.271835
12.205797 -14.915884 4.0293941 72 0 0 0 63.592087
12.835988 -14.922279 4.1165161 76 0 0 0 63.20134
13.935297 -14.675975 4.2359037 108 0 0 0 62.426121
-9.9037161 -14.061273 4.3837442 36 0 0 0 84.30365
-6.8461099 -14.462505 4.4794707 75 0 0 0 81.57209
-6.3948197 -14.412347 4.2194848 56.5 0 0 0 81.175407
-2.6856401 -14.36714 4.2803164 48 0 0 0 77.466385
14.349331 -14.387364 4.2551365 41 0 0 0 62.029121
14.981639 -14.300585 4.3386207 34 0 0 0 61.633713
15.642855 -14.213589 4.4290605 7 0 0 0 61.245193
16.120388 -13.940075 4.4678502 29 0 0 0 60.862072
16.703671 -13.740595 4.0027461 34 0 0 0 60.460728
17.47784 -13.671036 4.1077185 34 0 0 0 60.073273
18.162838 -13.500596 4.1909022 15 0 0 0 59.692513
-5.8541384 -13.196044 4.3993983 56 0 0 0 81.175407
-5.1564355 -13.352172 4.3630238 139 0 0 0 80.398849
18.619011 -13.142015 4.2223434 54 0 0 0 59.29858
19.45281 -13.025949 4.338685 10 0 0 0 58.906681
-16.572723 -12.937975 4.3231678 22 0 0 0 88.998482
-8.9633322 -12.724295 4.3562675 12 0 0 0 84.30365
-7.6929808 -12.828313 4.1882954 38 0 0 0 83.135582
-6.4752378 -12.857011 4.3863378 44 0 0 0 81.967056
-0.6351245 -12.647144 4.4941654 60 0 0 0 75.32399
20.294338 -12.878203 4.4556189 23 0 0 0 58.520233
-7.6933689 -12.147474 4.3802423 33 0 0 0 83.52903
-6.924943 -12.219728 4.2798309 60 0 0 0 82.742302
-4.8173018 -12.464084 4.4054399 64 0 0 0 80.398849
-1.8335149 -12.259151 4.0932946 31 0 0 0 76.889938
21.79141 -12.368776 4.0264935 90 0 0 0 57.739922
22.691174 -12.151834 4.1376595 50 0 0 0 57.348461
-8.6953945 -11.72206 4.0867524 22 0 0 0 84.69072
-4.2354012 -11.820622 4.449399 141 0 0 0 80.011238
-3.9419918 -11.900257 4.1356835 48 0 0 0 79.613731
24.588661 -11.650805 4.3765459 44 0 0 0 56.562569
-19.433262 -11.015504 4.0447011 48 0 0 0 91.348259
25.525438 -11.334908 4.4937191 49 0 0 0 56.166939
-19.733738 -10.554765 4.0526323 18 0 0 0 91.734886
-16.001701 -10.700719 4.4328618 15 0 0 0 90.180946
27.788624 -10.737097 4.056499 54 0 0 0 55.400753
-20.129652 -10.139453 4.0819726 40 0 0 0 92.111435
-18.390436 -10.424246 4.3492398 42 0 0 0 91.348259
-20.228729 -6.1432681 4.3557544 27 0 0 0 94.869598
-20.439938 -5.6634307 4.3706565 58 0 0 0 95.245567
-20.093798 -4.5188603 4.2466593 74 0 0 0 96.023628
-19.49177 -4.8890123 4.1435432 32 0 0 0 95.631042
-20.246454 -2.0000155 4.1997237 6 0 0 0 97.9776
-20.108154 -1.4889396 4.1633825 40 0 0 0 98.361725
-20.822809 -0.51652485 4.3016458 13 0 0 0 99.146797
-21.395863 -0.0052009504 4.4186959 13 0 0 0 99.537216
-23.473898 1.1963962 4.0040011 41 0 0 0 0.39002001
-23.756611 1.7929636 4.0582633 21 0 0 0 0.77829999
-23.375511 2.3388646 4.0020375 25 0 0 0 1.1619
-21.565609 3.7657225 4.2656631 13 0 0 0 2.3345599
-23.831211 4.7657299 4.1414704 76 0 0 0 2.72521
-23.276941 5.2484007 4.0672531 107 0 0 0 3.11994
-22.130732 5.5593524 4.4479718 38 0 0 0 3.51564
24.771137 6.2197208 4.1355972 109 0 0 0 45.64188
24.615429 6.8285103 4.1355596 112 0 0 0 45.25396
-28.371229 7.1357203 4.2646756 9 0 0 0 3.51564
-26.968006 7.4866161 4.081923 16 0 0 0 3.89645
13.773474 7.4065356 4.2799926 205 0 0 0 41.752129
14.263039 7.2206368 4.1760597 180 0 0 0 42.141121
14.907825 7.0901093 4.3121185 148 0 0 0 42.5327
16.787352 7.4775548 4.3434753 86 0 0 0 42.919048
13.415545 7.6467066 4.2254071 184 0 0 0 41.359806
12.875245 8.2065725 4.3658247 101 0 0 0 40.576927
19.979807 8.3031883 4.0413251 52 0 0 0 43.311768
24.285616 8.0427847 4.1395698 114 0 0 0 44.470581
-27.156454 8.9898844 4.1743884 20 0 0 0 4.6754298
-24.780584 8.8769379 4.491415 48 0 0 0 5.0672498
12.609918 8.7857542 4.2635899 45.333332 0 0 0 39.923744
24.14382 8.6604786 4.1491222 83 0 0 0 44.084061
-24.4079 9.4220276 4.466002 77 0 0 0 5.4616199
-22.503403 9.321743 4.1606212 49 0 0 0 5.8461399
12.436714 9.2853937 4.2380457 33 0 0 0 39.412487
23.947664 9.2611485 4.1518879 90 0 0 0 43.703472
-31.801174 9.6781282 4.0280113 39 0 0 0 4.2937002
-22.066721 9.7785244 4.1247354 43 0 0 0 6.2388501
12.404214 9.7442455 4.1077199 14 0 0 0 39.013912
15.791363 9.5136223 4.3494444 50 0 0 0 40.966351
16.238987 9.7757444 4.0047889 59 0 0 0 40.966351
-21.321117 10.077075 4.0323682 6 0 0 0 6.6273899
12.482788 10.311992 4.2131596 9 0 0 0 38.628967
12.644147 10.978656 4.3536758 161 0 0 0 38.237991
-32.984634 13.6868 4.3337336 17 0 0 0 5.8461399
-26.884493 13.535396 4.4036241 36 0 0 0 7.0117102
-30.460527 14.421261 4.0958643 17 0 0 0 6.6273899
-26.625036 14.231308 4.4193277 96 0 0 0 7.4120202
-24.767935 15.673063 4.299437 15 0 0 0 8.5773296
14.76374 16.776527 4.1285 80.5 0 0 0 36.082672
18.212023 17.401768 4.0351734 47 0 0 0 37.458927
17.85487 17.920639 4.0489478 93 0 0 0 37.062199
-30.257469 18.141148 4.2983851 14 0 0 0 8.1811895
19.906725 18.102116 4.3110328 78 0 0 0 37.845181
-28.324535 18.922947 4.157927 44 0 0 0 8.9691601
17.573801 18.527597 4.0833945 77 0 0 0 36.669449
16.142458 19.75045 4.0678167 49 0 0 0 35.500889
0.5849635 26.59005 4.101819 10 0 0 0 24.96262
-31.264488 28.344292 4.1412802 10 0 0 0 11.30734
-16.503529 29.049187 4.1701622 60 0 0 0 16.37689
-15.694029 29.270845 4.1516104 72 0 0 0 16.76531
-14.901833 29.506763 4.1381345 52 0 0 0 17.150761
-14.087996 29.68026 4.1190028 66 0 0 0 17.543461
-13.306703 29.904327 4.1097751 49 0 0 0 17.93721
-12.517178 30.094259 4.0987167 47 0 0 0 18.323959
-11.729405 30.270828 4.0887876 57 0 0 0 18.714979
-10.965828 30.497976 4.08846 55 0 0 0 19.10918
-10.163639 30.601328 4.0743513 38 0 0 0 19.504919
3.2257109 -26.30522 4.8169422 23 0 0 0 72.586082
-16.093456 -24.087742 4.5143685 40 0 0 0 83.908081
-4.9980497 -22.211681 4.6864934 36 0 0 0 78.052925
13.43334 -21.262861 4.6136951 18 0 0 0 65.548752
-16.769758 -19.443815 4.6395254 52 0 0 0 85.871407
-18.51667 -18.521503 4.7318802 19 0 0 0 87.046631
-17.583387 -18.472456 4.6085067 44 0 0 0 86.66024
-1.7606354 -17.732925 4.9945278 30 0 0 0 76.100075
-18.864994 -17.103619 4.6020308 28 0 0 0 87.822159
-16.652874 -17.494011 4.9601092 14 0 0 0 86.66024
-4.81071 -17.353935 4.5946817 90 0 0 0 78.838562
-3.9113626 -17.37508 4.5456638 41 0 0 0 78.052925
-5.1602554 -15.594861 4.6002693 189 0 0 0 79.613731
-3.7791958 -15.8822 4.9760456 47 0 0 0 78.251785
-9.248702 -15.426957 4.5838122 47 0 0 0 83.135582
-8.2587605 -15.44344 4.8991446 24 0 0 0 82.351883
-5.5200996 -15.409046 4.784359 123 0 0 0 80.011238
-4.2226939 -15.232315 4.8175611 74 0 0 0 78.838562
11.823532 -15.191942 4.7303028 30.5 0 0 0 63.989033
77.34227 -15.427877 4.8832178 8 0 0 0 52.662022
-6.8850145 -14.550374 4.9017072 49 0 0 0 81.57209
-3.6856143 -14.667704 4.9851518 76 0 0 0 78.450653
-2.1764047 -14.595239 4.5024681 103 0 0 0 76.889938
-1.8400424 -14.807756 4.7359948 24 0 0 0 76.489471
12.247638 -14.963935 4.7544632 73 0 0 0 63.592087
12.809524 -14.887868 4.5891542 45 0 0 0 63.20134
13.365859 -14.783763 4.658597 9 0 0 0 62.81358
13.920676 -14.656919 4.7267284 92 0 0 0 62.426121
14.341513 -14.375889 4.7503877 32 0 0 0 62.029121
14.904376 -14.223343 4.8213162 24 0 0 0 61.633713
15.466859 -14.050356 4.8918138 14 0 0 0 61.245193
16.040796 -13.867712 4.9657264 42 0 0 0 60.862072
16.752739 -13.782046 4.5494571 23 0 0 0 60.460728
17.394636 -13.607208 4.6331067 31 0 0 0 60.073273
-8.066431 -13.456528 4.7769232 26 0 0 0 83.135582
18.03475 -13.406647 4.7159629 14 0 0 0 59.692513
18.716122 -13.211444 4.8092914 29 0 0 0 59.29858
76.940636 -13.393029 4.8397536 11 0 0 0 52.277119
-19.438742 -12.99485 4.8056087 24 0 0 0 90.180946
-9.9214125 -12.712739 4.5122061 20 0 0 0 85.084892
-6.0337791 -12.74154 4.6450219 19 0 0 0 81.57209
-1.2567842 -12.634046 4.5043716 33 0 0 0 76.100075
-0.95341545 -12.747897 4.5358229 43 0 0 0 75.717964
19.386381 -12.982519 4.8995957 14 0 0 0 58.906681
20.993181 -12.608749 4.5412874 39 0 0 0 58.12804
-3.4452536 -12.421262 4.8840261 74 0 0 0 78.838562
-1.2284058 -12.339235 4.7036242 20 0 0 0 76.100075
21.834597 -12.39406 4.6574364 59 0 0 0 57.739922
22.591944 -12.099534 4.7557335 25 0 0 0 57.348461
-9.9403667 -11.528006 4.6348515 21 0 0 0 85.871407
-7.076108 -11.796977 4.5320559 21 0 0 0 83.135582
23.506721 -11.855165 4.8868527 15 0 0 0 56.953701
-10.330948 -11.403603 4.6849608 31 0 0 0 86.268684
26.638157 -11.053151 4.6414628 71 0 0 0 55.781033
76.506935 -11.390342 4.7973495 10 0 0 0 51.880791
27.564926 -10.651191 4.7572322 21 0 0 0 55.400753
-20.203634 -10.176658 4.6531911 46 0 0 0 92.111435
-19.557764 -10.460559 4.5622211 85 0 0 0 91.734886
-17.243568 -9.777997 4.56533 17 0 0 0 91.348259
-19.849045 -9.3948107 4.5186667 71 0 0 0 92.498528
-24.373735 -6.7531586 4.5831885 22 0 0 0 95.245567
-20.592672 -6.8140268 4.9981103 15 0 0 0 94.481117
-20.422995 -6.2061806 4.919805 8 0 0 0 94.869598
-19.122982 -5.3022251 4.5769839 20 0 0 0 95.245567
-19.817425 -2.4538255 4.6105328 31 0 0 0 97.585251
-20.289558 -0.50693697 4.6891923 32 0 0 0 99.146797
-24.945309 0.66299027 4.8593287 24 0 0 0 0
-19.942848 0.52667987 4.8558202 13 0 0 0 0
-22.100342 1.1232654 4.8471932 38 0 0 0 0.39002001
-24.767616 1.870272 4.8366456 20 0 0 0 0.77829999
-22.144686 1.6676862 4.8643818 31 0 0 0 0.77829999
-23.124809 2.3140225 4.526413 23 0 0 0 1.1619
-21.19083 2.1160316 4.6653209 32 0 0 0 1.1619
-23.558434 2.9397774 4.6239762 80 0 0 0 1.55787
-23.220642 3.4746974 4.5734959 21 0 0 0 1.95139
-23.692415 4.7377157 4.7072463 52 0 0 0 2.72521
-23.18478 5.2272668 4.6313615 44 0 0 0 3.11994
24.76878 6.2211556 4.769619 98 0 0 0 45.64188
24.61301 6.8299856 4.7697001 108 0 0 0 45.25396
13.772856 7.4124126 4.8626246 178 0 0 0 41.752129
14.23083 7.2089872 4.7629585 170.5 0 0 0 42.141121
14.929817 7.102531 4.7314663 133 0 0 0 42.5327
16.689766 7.4363093 4.7694135 76 0 0 0 42.919048
24.473387 7.4443746 4.7756486 108 0 0 0 44.871391
-25.965048 7.8945603 4.6271653 130 0 0 0 4.2937002
13.407797 7.6486225 4.79809 164 0 0 0 41.359806
-25.442297 8.4193373 4.5708852 25 0 0 0 4.6754298
12.90027 8.2279406 4.7533007 85 0 0 0 40.576927
13.305829 8.0314703 4.8291235 57 0 0 0 40.966351
19.858377 8.2551956 4.5483851 51 0 0 0 43.311768
24.310972 8.0535593 4.7800698 103 0 0 0 44.470581
12.656566 8.7479839 4.7770753 81.5 0 0 0 39.988281
14.432352 8.7026873 4.8161659 16 0 0 0 40.966351
24.143635 8.6629419 4.7863235 82 0 0 0 44.084061
12.507494 9.3454628 4.8438535 21 0 0 0 39.412487
15.35559 9.2546091 4.6732001 44 0 0 0 40.966351
23.983088 9.2774858 4.7967968 95 0 0 0 43.703472
12.453067 9.7885361 4.7161846 20 0 0 0 39.013912
12.422304 10.272036 4.9950657 42 0 0 0 38.628967
12.664448 10.999537 4.7796412 114 0 0 0 38.237991
-24.357407 13.788969 4.7899404 22 0 0 0 7.7960601
-23.696308 14.189762 4.7295861 14 0 0 0 8.1811895
-66.760475 15.115079 4.9289517 11 0 0 0 3.11994
-26.757851 15.155895 4.5039754 28 0 0 0 7.7960601
14.757159 16.774944 4.6787205 66 0 0 0 36.082672
18.179136 17.37586 4.6526947 61 0 0 0 37.458927
17.834822 17.906265 4.6722827 105 0 0 0 37.062199
19.831364 18.039326 4.9608302 52 0 0 0 37.845181
-28.188757 18.82839 4.972743 34 0 0 0 8.9691601
17.549345 18.507887 4.7113724 88 0 0 0 36.669449
5.8445792 19.546202 4.7094045 28 0 0 0 29.24724
14.74199 19.974232 4.5681181 92 0 0 0 34.708794
15.47027 19.915497 4.6437836 92 0 0 0 35.103928
16.114611 19.723345 4.6935849 99 0 0 0 35.500889
-30.0665 22.295452 4.5748625 16 0 0 0 9.7529297
5.3533278 31.238501 4.9221015 116 0 0 0 27.307159
3.8697052 31.917093 4.9789934 54 0 0 0 26.52804
4.6293769 31.660284 4.9620981 113 0 0 0 26.914749
-6.7243433 38.446575 4.9733663 12 0 0 0 21.83629
20.469687 -46.23851 5.4597597 14 0 0 0 67.892944
2.0368052 -27.844744 5.0690289 46 0 0 0 73.368462
13.5693 -21.480246 5.2862473 27 0 0 0 65.548752
-16.939047 -19.639542 5.3237133 8 0 0 0 85.871407
-1.9390248 -19.556963 5.0169368 21 0 0 0 76.100075
13.037273 -19.556576 5.4715991 28 0 0 0 65.154121
-17.214863 -18.996666 5.2627482 21 0 0 0 86.268684
-18.036739 -18.040796 5.2373028 23 0 0 0 87.046631
-0.91967022 -18.406591 5.1662469 83 0 0 0 75.32399
12.605873 -17.942434 5.1096163 28 0 0 0 64.767502
-18.174223 -17.307699 5.1530819 17 0 0 0 87.445877
-1.2750432 -17.113295 5.2336674 13 0 0 0 75.717964
-19.655666 -16.960695 5.3300223 8 0 0 0 88.207153
-1.6505954 -16.635641 5.0983315 85 0 0 0 76.100075
12.14292 -16.416731 5.2651544 44 0 0 0 64.377678
-6.4574232 -15.579979 5.1351089 63 0 0 0 80.78949
-5.1950269 -15.707741 5.0397067 79 0 0 0 79.613731
-4.7834468 -15.747528 5.0141382 140 0 0 0 79.223297
-3.1712108 -15.878244 5.3363814 18 0 0 0 77.660942
-9.587038 -15.136383 5.0106053 53 0 0 0 83.52903
-5.4934511 -15.327979 5.3623333 41 0 0 0 80.011238
-4.6601253 -15.328805 5.278019 26 0 0 0 79.223297
11.866052 -15.248952 5.4672718 75 0 0 0 63.989033
-7.9220147 -14.818179 5.1145682 47 0 0 0 82.351883
-3.2768776 -14.558802 5.2855945 14 0 0 0 78.052925
-2.5553312 -14.67386 5.2768788 20 0 0 0 77.271835
-1.8119363 -14.60334 5.2151313 37 0 0 0 76.489471
12.780563 -14.855827 5.061295 72 0 0 0 63.20134
13.888547 -14.624599 5.2124591 13 0 0 0 62.426121
-4.641789 -14.035502 5.2338972 77 0 0 0 79.613731
-4.3054137 -14.174436 5.2453203 81 0 0 0 79.223297
-3.9310975 -14.182526 5.2119279 37 0 0 0 78.838562
-2.8436985 -14.251642 5.3252001 20.5 0 0 0 77.660942
-2.0914133 -14.029866 5.0274839 38 0 0 0 76.889938
14.439699 -14.475459 5.286016 101 0 0 0 62.029121
14.995315 -14.311252 5.3608508 97 0 0 0 61.633713
15.568708 -14.143946 5.4416761 120 0 0 0 61.245193
-9.2649879 -13.867661 5.0757174 31 0 0 0 83.908081
-7.2888522 -13.625567 5.0878491 70 0 0 0 82.351883
-6.8649383 -13.636341 5.40134 66 0 0 0 81.967056
-4.4758182 -13.530631 5.3956633 38 0 0 0 79.613731
-2.0380402 -13.66508 5.2359004 14 0 0 0 76.889938
16.85285 -13.860472 5.1112814 7 0 0 0 60.460728
17.508888 -13.692597 5.2081785 76 0 0 0 60.073273
-7.5095515 -13.256861 5.3898568 64 0 0 0 82.742302
-2.3237743 -13.33223 5.1285744 78 0 0 0 77.271835
-1.6468576 -13.255227 5.0635905 37 0 0 0 76.489471
18.091581 -13.444973 5.2833438 66 0 0 0 59.692513
18.821421 -13.281726 5.4009662 59 0 0 0 59.29858
-17.823061 -12.562334 5.0166459 17 0 0 0 89.791565
20.147472 -12.786095 5.0123606 8 0 0 0 58.520233
21.094988 -12.670653 5.1702175 62 0 0 0 58.12804
-9.5157652 -12.199903 5.47194 73 0 0 0 85.084892
-8.7796774 -12.470923 5.3944607 10 0 0 0 84.30365
-7.710463 -12.177994 5.1000195 32 0 0 0 83.52903
21.845074 -12.400806 5.2794042 73 0 0 0 57.739922
22.735086 -12.176816 5.4219403 57 0 0 0 57.348461
-9.7789268 -11.922888 5.4536419 55 0 0 0 85.482544
24.603233 -11.658326 5.0547905 56 0 0 0 56.562569
-19.105394 -11.462127 5.1266432 24 0 0 0 90.960258
-16.995615 -11.365347 5.2079182 46 0 0 0 90.180946
25.634537 -11.383836 5.2088685 47 0 0 0 56.166939
26.694941 -11.077162 5.3685803 48 0 0 0 55.781033
-17.256638 -10.937118 5.2046227 28 0 0 0 90.574417
-19.604282 -10.48976 5.1173677 80 0 0 0 91.734886
-18.39889 -10.433093 5.3881173 33 0 0 0 91.348259
-20.93313 -9.9123526 5.3307424 38 0 0 0 92.498528
-16.984417 -9.6308575 5.4610906 22 0 0 0 91.348259
-20.659344 -5.7281761 5.4683313 20 0 0 0 95.245567
-21.666222 -5.4383712 5.1489053 63 0 0 0 95.631042
-21.570076 -4.8547893 5.0974445 82 0 0 0 96.023628
-21.605446 -2.1380754 5.0108123 29 0 0 0 97.9776
-21.276381 -2.1056061 5.4599938 12 0 0 0 97.9776
-21.013678 -1.5597895 5.3825655 39 0 0 0 98.361725
-20.760418 -1.0292748 5.311038 14 0 0 0 98.75119
-20.80304 -0.5198245 5.318018 7 0 0 0 99.146797
-20.121742 -0.0085944124 5.1443191 27 0 0 0 99.537216
-19.611258 0.51847142 5.257443 8 0 0 0 0
-21.848738 2.1825001 5.3439698 11 0 0 0 1.1619
-23.345196 2.9091778 5.1530476 17 0 0 0 1.55787
-23.422949 3.5011106 5.1878901 40 0 0 0 1.95139
-23.523077 4.1051846 5.2311735 8 0 0 0 2.3345599
-23.831583 4.7612557 5.3245783 11 0 0 0 2.72521
-23.258478 5.2394724 5.224556 25 0 0 0 3.11994
24.774786 6.2246757 5.4017167 107 0 0 0 45.64188
24.614183 6.8324428 5.400887 114 0 0 0 45.25396
-25.89831 7.1872907 5.2379498 42 0 0 0 3.89645
13.772676 7.4112806 5.2515521 144 0 0 0 41.752129
14.228536 7.2092824 5.3563471 164 0 0 0 42.141121
14.871732 7.0801654 5.1211305 134 0 0 0 42.5327
16.65 7.4207497 5.2134881 76 0 0 0 42.919048
24.459341 7.4423661 5.4044361 117 0 0 0 44.871391
-26.07247 7.9266081 5.3119192 121 0 0 0 4.2937002
13.41552 7.6520429 5.1849337 104 0 0 0 41.359806
-24.948526 8.2543907 5.1243167 15 0 0 0 4.6754298
12.898221 8.2257938 5.1329741 23 0 0 0 40.576927
19.772978 8.226162 5.0558748 53 0 0 0 43.311768
24.299625 8.0521936 5.410172 114 0 0 0 44.470581
-24.472137 8.7649689 5.0706081 24 0 0 0 5.0672498
12.722893 8.5625038 5.1438141 9 0 0 0 40.181889
24.150572 8.667942 5.421484 100 0 0 0 44.084061
23.951265 9.2678537 5.4248552 91 0 0 0 43.703472
-24.878155 9.6031275 5.2032137 22 0 0 0 5.4616199
-24.94467 10.336218 5.2700944 11 0 0 0 5.8461399
12.642732 10.987943 5.1866388 109 0 0 0 38.237991
-26.877802 13.529913 5.142858 35 0 0 0 7.0117102
-27.084694 14.475562 5.2509751 13 0 0 0 7.4120202
14.748919 16.777346 5.2263098 51.5 0 0 0 36.082672
18.165684 17.368427 5.2701054 61 0 0 0 37.458927
17.854355 17.931461 5.3024011 72 0 0 0 37.062199
17.558044 18.522985 5.3441129 82 0 0 0 36.669449
13.896732 19.841269 5.0517483 62 0 0 0 34.319168
14.72451 19.957912 5.1754336 53 0 0 0 34.708794
15.443992 19.888838 5.2580037 70 0 0 0 35.103928
16.107395 19.721344 5.3204875 67 0 0 0 35.500889
13.550286 20.395138 5.1018705 99 0 0 0 33.934299
13.340508 21.189653 5.2119288 95 0 0 0 33.54179
13.093263 21.975008 5.3191056 90 0 0 0 33.146999
-30.04212 22.272827 5.4922857 18 0 0 0 9.7529297
-31.13834 28.213243 5.1532907 28 0 0 0 11.30734
-0.065602869 34.394547 5.2875242 48 0 0 0 24.57177
-0.92249608 34.923069 5.3626699 24 0 0 0 24.17354
-1.8109586 35.546497 5.4553747 9 0 0 0 23.786779
-11.843505 38.883469 5.1364598 27 0 0 0 19.886471
-10.889212 39.170715 5.1458273 69 0 0 0 20.28537
-8.9065504 39.435696 5.1337795 25 0 0 0 21.060089
2.7476473 -28.092802 5.8209324 21 0 0 0 72.975929
-27.661276 -22.711655 5.5702901 20 0 0 0 88.605598
13.611385 -21.541058 5.9260492 25 0 0 0 65.548752
-3.7690837 -17.76004 5.7548695 19 0 0 0 77.856934
-1.7423315 -17.531397 5.8070178 28 0 0 0 76.100075
-1.3392948 -17.934887 5.9283595 21 0 0 0 75.717964
12.585557 -17.915665 5.6403184 51 0 0 0 64.767502
-0.85665429 -17.087534 5.6421165 19 0 0 0 75.32399
-4.3097019 -16.323788 5.7693853 31.5 0 0 0 78.644608
12.174253 -16.460859 5.7886124 41 0 0 0 64.377678
-6.4917483 -15.653928 5.578692 129 0 0 0 80.78949
-6.4177041 -15.489022 5.9302869 24 0 0 0 80.78949
11.853157 -15.22861 5.9361877 90 0 0 0 63.989033
12.32043 -15.053183 5.7460728 101 0 0 0 63.592087
-18.930843 -14.78444 5.5220351 11 0 0 0 88.998482
-8.2694721 -14.589309 5.518806 29 0 0 0 82.742302
12.814584 -14.896832 5.5642028 88 0 0 0 63.20134
13.948565 -14.689103 5.7395082 10 0 0 0 62.426121
-8.985136 -14.183654 5.5248876 49 0 0 0 83.52903
-6.2139478 -14.012252 5.798995 21 0 0 0 81.175407
14.438097 -14.475249 5.7948637 101 0 0 0 62.029121
15.015403 -14.331726 5.8852134 103 0 0 0 61.633713
15.568597 -14.145133 5.9658232 97 0 0 0 61.245193
-9.3501225 -13.989289 5.5365238 97 0 0 0 83.908081
-8.3059282 -13.8606 5.7142625 37 0 0 0 83.135582
-5.3876953 -13.95605 5.6612644 18 0 0 0 80.398849
16.176558 -13.98605 5.5339723 76 0 0 0 60.862072
17.503641 -13.689631 5.7538691 71 0 0 0 60.073273
-10.394604 -13.318576 5.5585723 20 0 0 0 85.084892
-9.9466276 -13.41872 5.905129 26 0 0 0 84.69072
-7.681459 -13.181549 5.7707629 22.5 0 0 0 82.938942
18.094143 -13.447947 5.8393064 64 0 0 0 59.692513
18.813017 -13.27683 5.9656849 68 0 0 0 59.29858
19.503721 -13.056983 5.5045719 67 0 0 0 58.906681
-20.311577 -12.873755 5.5303068 24 0 0 0 90.574417
21.07576 -12.654978 5.7685018 68 0 0 0 58.12804
-8.7515488 -12.430393 5.7492065 13 0 0 0 84.30365
21.90538 -12.430726 5.9116759 63 0 0 0 57.739922
24.643213 -11.677865 5.7358141 65 0 0 0 56.562569
-19.166904 -11.498913 5.6915674 39 0 0 0 90.960258
25.606129 -11.371794 5.8944812 56 0 0 0 56.166939
-19.72839 -10.556092 5.698689 56 0 0 0 91.734886
27.859894 -10.765404 5.548995 51 0 0 0 55.400753
-20.874271 -9.8844357 5.8827214 22 0 0 0 92.498528
-18.768198 -9.4575253 5.8770857 24 0 0 0 92.111435
-20.35607 -7.2946343 5.512702 12 0 0 0 94.081917
-19.255075 -6.9001365 5.7242818 15 0 0 0 94.081917
-21.423058 -5.3773975 5.633738 23 0 0 0 95.631042
-20.635101 -2.5551744 5.8264813 15 0 0 0 97.585251
-20.625799 -2.0413311 5.8090248 40 0 0 0 97.9776
-19.195034 -2.3804018 5.8980227 27 0 0 0 97.585251
-20.564373 -1.5265385 5.7805495 38 0 0 0 98.361725
-19.03565 -1.8874601 5.8343358 22 0 0 0 97.9776
-20.18474 -0.50447631 5.6626692 4 0 0 0 99.146797
-19.789707 -0.0085392632 5.5517387 32 0 0 0 99.537216
-25.794584 0.68213189 5.6507411 11 0 0 0 0
-22.708712 1.1550379 5.5335197 28 0 0 0 0.39002001
-23.502285 4.1015449 5.8071651 9 0 0 0 2.3345599
-25.979652 7.2045183 5.9089022 20 0 0 0 3.89645
13.733696 7.3986406 5.6228571 144 0 0 0 41.752129
14.214826 7.2106175 5.7455759 110 0 0 0 42.141121
14.847284 7.0715303 5.7248764 113.5 0 0 0 42.5327
16.583443 7.3967357 5.6423883 88 0 0 0 42.919048
-25.876966 7.8612833 5.9287791 20 0 0 0 4.2937002
13.415771 7.6616011 5.7580566 107 0 0 0 41.359806
-25.219854 8.3388071 5.8247733 14 0 0 0 4.6754298
19.684225 8.1916485 5.559412 52 0 0 0 43.311768
-24.63228 8.8167324 5.7388201 31 0 0 0 5.0672498
12.688108 8.5480661 5.5087285 10 0 0 0 40.181889
12.478901 9.3356886 5.9907179 5 0 0 0 39.412487
-24.374317 10.092627 5.790298 21 0 0 0 5.8461399
-24.260946 10.747266 5.8259773 23 0 0 0 6.2388501
-22.516367 11.317926 5.5379715 7 0 0 0 7.0117102
12.714301 11.049295 5.6342878 104 0 0 0 38.237991
-26.669144 13.422414 5.8328209 9 0 0 0 7.0117102
-24.819204 14.049093 5.5775595 12 0 0 0 7.7960601
14.964089 16.610233 5.7824774 61 0 0 0 36.281879
14.586662 17.014999 5.7931161 38 0 0 0 35.883461
18.186943 17.400126 5.8957767 39 0 0 0 37.458927
17.841829 17.930807 5.9213996 79 0 0 0 37.062199
-28.550446 18.07266 5.7852974 20 0 0 0 8.5773296
19.826353 18.040283 5.6216807 69 0 0 0 37.845181
-28.041685 18.726299 5.776937 21 0 0 0 8.9691601
17.558142 18.535496 5.9726844 74 0 0 0 36.669449
-26.781952 19.844191 5.7185359 11 0 0 0 9.7529297
13.885739 19.840408 5.6443772 58 0 0 0 34.319168
14.701712 19.941641 5.7777491 55 0 0 0 34.708794
15.445241 19.904612 5.8789091 47 0 0 0 35.103928
16.093214 19.717819 5.9425988 59 0 0 0 35.500889
13.577431 20.451416 5.7167983 50 0 0 0 33.934299
13.3495 21.220537 5.8331785 95 0 0 0 33.54179
13.163453 22.110149 5.9814901 37 0 0 0 33.146999
-30.052078 23.442495 5.6015511 17 0 0 0 10.14022
-29.44927 24.154276 5.6024194 11 0 0 0 10.53167
12.911426 25.809095 5.9800773 19 0 0 0 31.98806
6.7587442 30.426218 5.6256948 135 0 0 0 28.0802
7.4453034 30.017523 5.588974 121 0 0 0 28.46784
6.0608554 30.840502 5.666131 102 0 0 0 27.699551
5.3514595 31.265896 5.7113743 130 0 0 0 27.307159
3.863204 31.918468 5.7747188 50 0 0 0 26.52804
4.6228647 31.661282 5.7540126 84 0 0 0 26.914749
3.1352561 32.578663 5.8708463 37 0 0 0 26.136959
2.3654854 33.062027 5.9381385 17 0 0 0 25.749689
-2.7265513 36.093784 5.5397 13 0 0 0 23.40337
-4.6191297 36.941154 5.6809573 27 0 0 0 22.61718
-3.6743207 36.661514 5.6305556 10 0 0 0 23.002399
-24.001865 39.99292 5.802793 43 0 0 0 15.99264
-25.52059 40.256908 5.9212561 25 0 0 0 15.59705
32.556564 -98.631859 6.030673 12 0 0 0 69.461372
-15.787635 -21.294579 6.0893993 21 0 0 0 84.69072
13.083675 -19.628366 6.0714698 29 0 0 0 65.154121
-3.2434316 -18.617222 6.2239866 23 0 0 0 77.271835
12.564476 -17.887825 6.1754284 39 0 0 0 64.767502
-7.8485527 -16.595444 6.4895902 20 0 0 0 81.57209
-7.4161444 -16.722773 6.2433834 52.5 0 0 0 81.175407
-8.2615471 -16.402164 6.0418115 30 0 0 0 81.967056
12.155735 -16.431742 6.2826719 38 0 0 0 64.377678
-4.7518826 -15.647528 6.1877832 86 0 0 0 79.223297
-7.5970397 -15.092106 6.3884716 27 0 0 0 81.967056
-5.4721231 -15.282126 6.140974 65 0 0 0 80.011238
11.873013 -15.261225 6.4272676 60 0 0 0 63.989033
12.319576 -15.057234 6.4690375 98 0 0 0 63.592087
-7.0785966 -14.963787 6.2598586 23 0 0 0 81.57209
12.830501 -14.911568 6.0552301 115 0 0 0 63.20134
13.444775 -14.870126 6.1724296 12 0 0 0 62.81358
13.955166 -14.692338 6.2410989 11 0 0 0 62.426121
-7.5081387 -14.046218 6.0231862 18 0 0 0 82.351883
14.443206 -14.476686 6.3004503 79 0 0 0 62.029121
15.023203 -14.335469 6.3996544 73 0 0 0 61.633713
15.595663 -14.165977 6.4950738 83 0 0 0 61.245193
16.181349 -13.991423 6.0686975 79 0 0 0 60.862072
16.991405 -13.976579 6.2430453 7 0 0 0 60.460728
17.499195 -13.687303 6.3061266 76 0 0 0 60.073273
-18.53882 -13.066538 6.3365564 16 0 0 0 89.791565
-10.191074 -13.065989 6.2639689 15 0 0 0 85.084892
-9.0074387 -13.484978 6.131165 7 0 0 0 83.908081
18.125095 -13.471992 6.412107 76 0 0 0 59.692513
19.514051 -13.064858 6.0858731 66 0 0 0 58.906681
-10.469002 -12.76451 6.240674 11 0 0 0 85.482544
21.080147 -12.658474 6.3753681 56 0 0 0 58.12804
-10.719971 -12.435985 6.2068381 20 0 0 0 85.871407
22.739828 -12.174984 6.0558238 44 0 0 0 57.348461
-17.53517 -11.730334 6.4152436 19 0 0 0 90.180946
24.663895 -11.682993 6.4101801 48 0 0 0 56.562569
-19.068237 -11.439593 6.2145791 29 0 0 0 90.960258
26.726751 -11.090822 6.0889578 61 0 0 0 55.781033
-19.724455 -10.553906 6.2530713 34 0 0 0 91.734886
-17.638035 -10.58555 6.2570133 16 0 0 0 90.960258
27.87867 -10.773052 6.2902217 28 0 0 0 55.400753
-20.984604 -9.9366331 6.4902649 30 0 0 0 92.498528
-20.938898 -9.2931757 6.4048734 18 0 0 0 92.903404
-19.296057 -9.14114 6.4959679 22 0 0 0 92.498528
-21.623089 -5.9953895 6.2792764 27 0 0 0 95.245567
43.733017 -5.401588 6.0080357 9 0 0 0 51.49963
-19.427031 -2.8915939 6.4737043 63 0 0 0 97.191452
-18.732948 -1.8542328 6.2077718 8 0 0 0 97.9776
-20.345541 -0.5121178 6.2081976 28 0 0 0 99.146797
-23.380033 3.4949348 6.3354607 5 0 0 0 1.95139
24.763708 6.228508 6.0271597 92 0 0 0 45.64188
24.626465 6.842608 6.0320325 79 0 0 0 45.25396
13.728429 7.3978648 6.0055399 113 0 0 0 41.752129
14.191268 7.2007093 6.1288056 125 0 0 0 42.141121
14.846659 7.0773778 6.3341451 106 0 0 0 42.5327
16.465273 7.3517828 6.4967442 57 0 0 0 42.919048
16.544151 7.3778782 6.0796161 60 0 0 0 42.919048
24.450756 7.4466777 6.0310645 76 0 0 0 44.871391
-24.817451 8.2043362 6.3685031 9 0 0 0 4.6754298
19.534782 8.1319494 6.0459528 50 0 0 0 43.311768
24.312031 8.0633879 6.0427976 65 0 0 0 44.470581
-24.325838 8.7055788 6.2967114 8 0 0 0 5.0672498
24.161478 8.6791258 6.0552731 91 0 0 0 44.084061
23.943613 9.2723532 6.0546079 79 0 0 0 43.703472
-25.818302 9.9611483 6.0713325 10 0 0 0 5.4616199
-24.51494 10.149754 6.4699154 11 0 0 0 5.8461399
12.660747 10.481326 6.3109374 17 0 0 0 38.628967
12.731766 11.077198 6.2688437 67 0 0 0 38.237991
14.141021 12.906913 6.3951206 98 0 0 0 37.845181
13.992208 13.416813 6.4717822 99 0 0 0 37.458927
15.243423 13.909476 6.3766427 35 0 0 0 37.845181
14.938869 14.32119 6.3917279 55 0 0 0 37.458927
-65.857483 14.909576 6.4977961 9 0 0 0 3.11994
14.591591 14.69451 6.3929596 37 0 0 0 37.062199
14.329842 15.15929 6.4362974 34 0 0 0 36.669449
16.624281 15.154625 6.3918443 33 0 0 0 37.845181
13.767221 15.685966 6.4350367 33.5 0 0 0 36.082672
15.899221 15.99527 6.4017773 26 0 0 0 37.062199
16.298126 15.608708 6.4089293 32 0 0 0 37.458927
13.282055 16.309544 6.4792624 70 0 0 0 35.500889
15.546255 16.429607 6.4170494 26 0 0 0 36.669449
14.916246 16.562843 6.3207798 51 0 0 0 36.281879
18.249884 16.626078 6.3951349 28 0 0 0 37.845181
14.696754 17.148695 6.4004083 23 0 0 0 35.883461
17.871372 17.104498 6.4045897 27 0 0 0 37.458927
-28.016899 17.730589 6.4882579 9 0 0 0 8.5773296
14.42819 17.697926 6.466846 21 0 0 0 35.500889
17.466728 17.560644 6.4089804 30 0 0 0 37.062199
13.623081 18.498375 6.4983797 28 0 0 0 34.708794
14.048052 18.124208 6.4903808 34 0 0 0 35.103928
17.103218 18.062717 6.432919 34 0 0 0 36.669449
19.776733 18.007046 6.2660103 24 0 0 0 37.845181
15.856259 19.435305 6.4746766 30 0 0 0 35.500889
13.892193 19.857027 6.2448816 47 0 0 0 34.319168
14.654161 19.884647 6.3686414 57 0 0 0 34.708794
15.379907 19.827757 6.4733243 36 0 0 0 35.103928
13.586161 20.472427 6.3266578 39 0 0 0 33.934299
13.360209 21.245995 6.4570594 54 0 0 0 33.54179
12.947433 23.013321 6.1321874 54 0 0 0 32.76368
12.643992 23.82349 6.2576475 85 0 0 0 32.374668
-30.737362 27.842447 6.1090045 7 0 0 0 11.30734
9.4761915 28.92791 6.269927 7 0 0 0 29.636141
10.128209 28.530869 6.2422686 20 0 0 0 30.02957
8.0176353 29.261459 6.2367134 75 0 0 0 28.865021
7.4326768 29.992979 6.3446779 56 0 0 0 28.46784
6.7395949 30.369877 6.3806491 46 0 0 0 28.0802
6.0413032 30.775023 6.4256535 37 0 0 0 27.699551
5.331584 31.189177 6.4757223 44 0 0 0 27.307159
1.5739472 33.527031 6.0052528 23 0 0 0 25.35601
-0.072626643 34.411674 6.1412268 19 0 0 0 24.57177
-1.8120409 35.421192 6.3133135 54 0 0 0 23.786779
-0.93221557 35.029602 6.2455335 13 0 0 0 24.17354
-2.7226794 35.94173 6.4077582 26 0 0 0 23.40337
-11.857051 38.901863 6.1436744 58 0 0 0 19.886471
-10.887843 39.136761 6.1451459 62 0 0 0 20.28537
-9.9266434 39.397465 6.1543937 65 0 0 0 20.668739
-8.9089756 39.410721 6.1290689 21 0 0 0 21.060089
30.277494 -109.49943 6.5756984 12 0 0 0 70.242279
32.973896 -108.78651 6.5880618 6 0 0 0 69.849167
-18.416227 -23.608725 6.8739328 16 0 0 0 85.084892
13.615259 -21.549833 6.5550494 25 0 0 0 65.548752
-16.305683 -19.875896 6.5372138 12 0 0 0 85.482544
13.113538 -19.675442 6.6741533 25 0 0 0 65.154121
-18.214718 -19.141016 6.7180629 29 0 0 0 86.66024
-18.211208 -18.220755 6.5508242 27 0 0 0 87.046631
-3.9589548 -17.601192 6.8257232 21 0 0 0 78.052925
12.608727 -17.946104 6.7364445 48 0 0 0 64.767502
12.130166 -16.405109 6.7773633 25 0 0 0 64.377678
11.87051 -15.248699 6.8985105 65 0 0 0 63.989033
12.335334 -15.067314 6.9536314 71 0 0 0 63.592087
77.213295 -15.387413 6.8376532 9 0 0 0 52.662022
12.825897 -14.913045 6.5425248 94 0 0 0 63.20134
13.494416 -14.931645 6.6958165 7 0 0 0 62.81358
13.964597 -14.708834 6.7499056 11 0 0 0 62.426121
14.446007 -14.48593 6.8106351 80 0 0 0 62.029121
15.023146 -14.341766 6.9163332 89 0 0 0 61.633713
16.167311 -13.975601 6.5899291 71 0 0 0 60.862072
17.512501 -13.693889 6.8586822 52 0 0 0 60.073273
18.120474 -13.464727 6.9668398 58 0 0 0 59.692513
18.805862 -13.272826 6.5371757 50 0 0 0 59.29858
19.535597 -13.080241 6.6785836 52 0 0 0 58.906681
77.051529 -13.397462 6.7961807 9 0 0 0 52.277119
21.093956 -12.667628 6.9929047 66 0 0 0 58.12804
21.896727 -12.426632 6.5295472 63 0 0 0 57.739922
22.745077 -12.17854 6.6927776 65 0 0 0 57.348461
-18.448517 -11.696867 6.6418843 15 0 0 0 90.574417
23.725594 -11.962234 6.8940339 5 0 0 0 56.953701
25.637669 -11.380965 6.5899549 64 0 0 0 56.166939
26.807234 -11.119158 6.8193183 23 0 0 0 55.781033
-19.681826 -10.535433 6.7890196 41 0 0 0 91.734886
-18.960867 -10.755968 6.629457 27 0 0 0 91.348259
-17.952591 -10.179723 6.7882733 6 0 0 0 91.348259
-19.162203 -9.0735941 6.974947 18 0 0 0 92.498528
-20.494579 -8.5046225 6.7510538 37 0 0 0 93.28997
-23.268358 -7.0707879 6.8017545 16 0 0 0 94.869598
-21.78793 -7.2137794 6.9844589 14 0 0 0 94.481117
-21.654284 -6.0081506 6.8412271 24 0 0 0 95.245567
-21.018965 -4.7348027 6.5622926 29 0 0 0 96.023628
-19.657154 -3.9203217 6.6040502 60 0 0 0 96.412384
77.745033 -3.842602 6.7790523 8 0 0 0 50.319809
-19.19717 -3.3479061 6.9000583 40 0 0 0 96.804192
-22.054049 -1.6409999 6.7409592 7 0 0 0 98.361725
76.784637 -0.021020791 6.691143 5 0 0 0 49.54213
24.756868 6.2288017 6.6551309 6 0 0 0 45.64188
16.42506 7.3359375 6.9247551 62 0 0 0 42.919048
-26.304441 7.9909315 6.6961536 10 0 0 0 4.2937002
-24.341509 8.0454712 6.8778315 8 0 0 0 4.6754298
19.557783 8.1478176 6.577374 35 0 0 0 43.311768
-24.241026 8.6740866 6.9088612 7 0 0 0 5.0672498
23.931465 9.2703047 6.6845717 51 0 0 0 43.703472
-25.000689 9.6432447 6.5320053 17 0 0 0 5.4616199
-24.833496 11.000416 6.6249118 9 0 0 0 6.2388501
15.65696 12.298276 6.6566911 11 0 0 0 39.013912
14.126637 12.906815 6.8628349 70 0 0 0 37.845181
13.989392 13.427656 6.9510899 64 0 0 0 37.458927
13.857006 13.957367 6.5624833 74 0 0 0 37.062199
13.718692 14.515137 6.6602654 54 0 0 0 36.669449
13.57785 15.092763 6.7660589 68 0 0 0 36.281879
