# .PCD v0.7 - Point Cloud Data file format
VERSION 0.7
FIELDS x y z intensity normal_x normal_y normal_z curvature
SIZE 4 4 4 4 4 4 4 4
TYPE F F F F F F F F
COUNT 1 1 1 1 1 1 1 1
WIDTH 951
HEIGHT 1
VIEWPOINT 0 0 0 1 0 0 0
POINTS 951
DATA ascii
-22.419792 15.745721 0.8578313 16 0 0 0 9.3600502
-21.038979 16.368362 0.83683771 17 0 0 0 10.13902
-20.113129 16.452154 0.81728196 22 0 0 0 10.53055
-17.30558 16.410242 0.7547965 17 0 0 0 11.69884
-20.77026 17.860304 0.86009949 67 0 0 0 10.915359
-19.440765 17.559534 0.82477158 29 0 0 0 11.30622
-28.807259 -35.098511 1.4856312 10 0 0 0 85.510254
-27.078651 -34.694122 1.4419117 16 0 0 0 85.112206
-23.930075 -26.401951 1.1722488 14 0 0 0 86.29673
-24.406235 -25.634495 1.1640458 18 0 0 0 86.688362
-27.926245 -25.312057 1.235491 21 0 0 0 87.850418
-32.446301 -24.066345 1.3196127 16 0 0 0 89.422623
-33.033131 -23.267384 1.3194268 10 0 0 0 89.820541
-26.745487 -23.072603 1.1596256 9 0 0 0 88.235451
-33.949837 -21.501823 1.3117663 34 0 0 0 90.6035
-32.652039 -21.820545 1.2830721 22 0 0 0 90.209923
-25.427568 -19.846605 1.0612383 52 0 0 0 89.026947
-28.17886 -15.066127 1.0497875 75 0 0 0 91.764442
-29.671005 -14.037662 1.0771974 44 0 0 0 92.527939
-28.509233 -14.354637 1.0485768 46 0 0 0 92.140862
-5.5594368 -11.040007 1.3423727 62 0 0 0 81.994202
-5.8240228 -10.682492 1.2211 127.66666 0 0 0 82.50882
-3.245306 -10.228138 1.3034971 72.5 0 0 0 79.446075
8.4630222 -6.6278939 1.1785434 26 0 0 0 60.094421
7.8217869 -6.4420872 1.2379149 101 0 0 0 60.482368
8.688942 -6.4666209 1.1870953 24 0 0 0 59.712967
9.2286148 -6.3504639 1.2263789 25 0 0 0 59.121967
10.393045 -6.2486801 1.1759105 196.5 0 0 0 58.145569
10.941839 -6.2170873 1.0661932 128 0 0 0 57.756699
12.213754 -6.164927 1.155424 92 0 0 0 56.969433
12.899659 -6.1173396 1.2038463 224 0 0 0 56.577713
13.656792 -6.0691156 1.2581928 74 0 0 0 56.1819
14.518441 -6.0284286 1.3213083 72 0 0 0 55.795879
10.521755 -5.9789577 1.3212098 52 0 0 0 57.756699
15.356158 -5.9374294 1.3818119 175 0 0 0 55.41544
16.56377 -5.9414806 1.2543248 22.5 0 0 0 55.017113
20.338514 -5.6432948 1.2334281 132 0 0 0 53.850319
22.218391 -5.5798697 1.3351719 18 0 0 0 53.464138
24.02746 -5.4095688 1.4323207 32 0 0 0 53.067902
-2.5781012 -4.5509539 1.3581364 310 0 0 0 82.769089
-2.2193902 -4.5828266 1.2221234 620.90912 0 0 0 81.741592
-1.5987089 -4.671423 1.2611196 464.20001 0 0 0 79.798378
-1.2245313 -4.6534743 1.2414575 622.26318 0 0 0 78.638206
-0.74728471 -4.5895801 1.2711549 622.4375 0 0 0 77.105659
-0.23395476 -4.540216 1.2449814 581.70001 0 0 0 75.349686
0.24800865 -4.5291605 1.3360449 433.66666 0 0 0 73.654129
0.70511311 -4.5343227 1.4046438 382.79999 0 0 0 72.061966
1.2783861 -4.5254641 1.4434338 573 0 0 0 70.135216
1.7536132 -4.5219378 1.4123431 471.60001 0 0 0 68.621803
2.2987623 -4.5343332 1.4226229 593.5 0 0 0 67.039536
2.6593366 -4.5316987 1.4041629 726.75 0 0 0 66.060684
3.2134273 -4.5439954 1.3967062 858.79999 0 0 0 64.713852
3.7491086 -4.5484796 1.3328674 954.40002 0 0 0 63.539612
4.2318053 -4.5647101 1.2702649 1088.5714 0 0 0 62.615696
4.6834607 -4.5935407 1.2212232 1156.1666 0 0 0 61.854198
5.2309775 -4.6472154 1.2998974 918 0 0 0 61.075802
8.961935 -4.8068466 1.2415788 590 0 0 0 57.3647
14.26993 -4.726347 1.2648396 233 0 0 0 54.633839
-2.5352604 -4.4752374 1.4634963 622 0 0 0 82.769089
-2.4000709 -4.4889793 1.3231162 809.66669 0 0 0 82.378685
0.2868306 -4.4858446 1.112965 418 0 0 0 73.50499
0.77050781 -4.4724908 1.1808884 440.28571 0 0 0 71.800392
1.2635133 -4.4667039 1.2050246 513.27271 0 0 0 70.123848
1.7783717 -4.4467478 1.1461983 479.36365 0 0 0 68.451317
2.2323098 -4.4422002 1.1506567 562.66669 0 0 0 67.095261
2.7563739 -4.4516983 1.1838564 738 0 0 0 65.68409
3.2754581 -4.4450221 1.1016365 874.33331 0 0 0 64.40303
3.7415285 -4.4744349 1.0896628 987.5 0 0 0 63.421043
18.969727 -3.7850907 1.1332604 123 0 0 0 52.675392
24.027916 -3.5754659 1.4128492 39 0 0 0 51.893341
33.710407 -3.3319192 1.1245896 19 0 0 0 51.116673
38.93079 -2.8837266 1.2901238 53 0 0 0 50.720478
-24.193216 1.202976 1.3428211 184 0 0 0 0.39013001
2.771379 3.3728836 1.260042 725.25 0 0 0 35.691151
3.2814353 3.2784641 1.2554637 868.41174 0 0 0 37.223518
3.7323654 3.2421906 1.2140522 865 0 0 0 38.314503
4.2314615 3.2107327 1.2386855 1026.8334 0 0 0 39.340691
4.7545524 3.1935463 1.2566346 1133 0 0 0 40.238735
5.2308021 3.2314365 1.1740171 1132.1666 0 0 0 40.836395
5.7173362 3.1981778 1.2547653 1142.2 0 0 0 41.517365
6.2598267 3.2296472 1.2681245 968.75 0 0 0 42.045071
6.7416892 3.2859929 1.207373 851.66669 0 0 0 42.403645
7.237535 3.3060312 1.2799202 794.66669 0 0 0 42.792034
7.5607533 3.3787539 1.1229081 647 0 0 0 42.920929
8.1220293 3.3897963 1.2990839 577.5 0 0 0 43.313911
0.57766056 3.7833397 1.4305699 48.5 0 0 0 27.301979
1.0295544 3.646903 1.4668641 50 0 0 0 29.242229
8.4739075 3.5338061 1.0135199 602 0 0 0 43.313911
10.862457 3.7570686 1.2580935 477.5 0 0 0 44.280296
20.890594 4.1617107 1.2450858 30 0 0 0 46.43671
41.032181 5.0577736 1.3651325 7 0 0 0 47.600128
-4.0647292 5.6465106 1.2664849 687.66669 0 0 0 14.82068
-3.8241746 5.8994918 1.1093179 919.66669 0 0 0 15.596297
-3.482265 5.9939218 1.0951697 740 0 0 0 16.373871
-22.875116 6.321013 1.3194815 36 0 0 0 3.89516
-3.7880058 6.1724076 1.3200421 833 0 0 0 15.985726
-3.2695413 6.2479792 1.1851827 823.20001 0 0 0 17.072124
5.650528 6.3084154 1.2515185 274 0 0 0 36.28075
-22.737543 6.8854065 1.3212913 195 0 0 0 4.2920699
-3.1052496 6.5909653 1.2417799 696 0 0 0 17.737535
-2.5344048 6.8471913 1.1560832 353 0 0 0 19.10607
10.883526 6.9297223 1.0934471 371 0 0 0 40.576511
-22.588833 7.447814 1.3232576 172 0 0 0 4.67342
-3.2861137 7.2211127 1.0565341 465 0 0 0 17.93441
-2.8641534 7.3451896 1.1959002 214.5 0 0 0 18.811323
-1.2609975 7.3292494 1.2737784 418.5 0 0 0 22.029118
5.4217701 7.4002552 1.011282 584 0 0 0 34.706913
5.707417 7.3981709 1.0294565 726 0 0 0 35.102127
6.1835947 7.4245615 1.0634985 544.5 0 0 0 35.690865
7.0947247 7.1599374 1.2319894 365 0 0 0 37.061127
9.5298176 7.4850907 1.0292549 247 0 0 0 39.012539
10.957068 7.3614578 1.278564 333.5 0 0 0 40.181118
11.192419 7.1253672 1.4464297 295 0 0 0 40.576511
11.815051 7.117146 1.1661116 196 0 0 0 40.966339
12.351707 7.0304298 1.2003183 142 0 0 0 41.360287
15.696859 7.4474893 1.0243545 121 0 0 0 42.534248
29.586432 7.4176502 1.0183859 32 0 0 0 45.646248
-2.9876771 7.5253363 1.377188 163.5 0 0 0 18.71199
0.31416428 7.9885092 1.0749706 459 0 0 0 25.35157
0.69880646 7.8796463 1.0652837 506.66666 0 0 0 26.133314
1.2875348 7.8563862 1.0733165 517.33331 0 0 0 27.301971
3.2801809 7.8200951 1.144644 489 0 0 0 31.004576
3.7600729 7.8487272 1.1742624 709.5 0 0 0 31.78578
4.2780771 7.8992481 1.2113218 609.5 0 0 0 32.566181
4.8323207 7.9553585 1.254181 574.5 0 0 0 33.341774
7.158823 7.5866995 1.1451612 479 0 0 0 36.66835
8.1679306 7.8368297 1.2394632 508 0 0 0 37.457752
8.7266588 7.9663677 1.2921382 266 0 0 0 37.84399
10.285907 7.6737361 1.087639 302 0 0 0 39.41116
10.87494 7.70158 1.1278954 218 0 0 0 39.79364
17.367867 7.7197824 1.1166408 66 0 0 0 42.920929
-22.455257 8.0175343 1.326921 192 0 0 0 5.06499
0.12093855 8.1316042 1.0923185 576 0 0 0 24.958521
5.3050528 8.0437765 1.2971791 499 0 0 0 33.931992
5.7805252 8.090765 1.3377852 533.5 0 0 0 34.511997
6.280036 8.134903 1.3814913 534 0 0 0 35.102127
6.663136 8.2020855 1.4195895 470 0 0 0 35.499458
7.1257591 8.3393583 1.472168 399 0 0 0 35.882271
9.4606552 8.2146149 1.3677542 260 0 0 0 38.236698
10.047288 8.296382 1.4208465 269 0 0 0 38.627567
10.757111 8.4428434 1.489197 228 0 0 0 39.012539
15.475399 8.3027058 1.4734992 129 0 0 0 41.752979
36.556591 8.21241 1.2417194 28 0 0 0 46.039021
1.2336382 8.8336258 1.4179478 254 0 0 0 26.911499
-22.445425 9.275198 1.3519204 46 0 0 0 5.8438601
-22.536446 9.9653349 1.3717027 49 0 0 0 6.23668
-2.785919 9.7744246 1.099193 92 0 0 0 20.28179
-2.151895 9.7834587 1.0853922 110 0 0 0 21.253101
-0.81116188 9.9093266 1.3245776 30 0 0 0 23.39975
-0.32230732 9.8914633 1.319916 198 0 0 0 24.16972
-22.323507 10.531225 1.3744915 18 0 0 0 6.6252499
-23.822474 11.962953 1.4821986 112 0 0 0 7.0096598
-20.277372 12.799248 1.3390313 392 0 0 0 8.5758295
-20.14361 16.476818 1.4532264 8 0 0 0 10.53055
-30.040699 -34.823009 1.5034156 19 0 0 0 85.899284
-23.676615 -22.54324 1.876922 8 0 0 0 87.473953
-25.029911 -21.593037 1.8965647 50 0 0 0 88.235451
-24.761404 -20.323715 1.8385626 28 0 0 0 88.633965
-22.37785 -20.283964 1.7362785 17 0 0 0 87.850418
-27.428207 -18.330681 1.8909709 14 0 0 0 90.209923
-28.207483 -15.081712 1.833734 60 0 0 0 91.764442
-29.741919 -14.071528 1.8850676 53 0 0 0 92.527939
-28.565908 -14.383465 1.8334333 52 0 0 0 92.140862
-4.3882532 -13.266892 1.515116 212 0 0 0 79.64135
-56.93684 -9.8824472 1.8715955 5 0 0 0 96.831436
14.652674 -9.2986574 1.8779974 34 0 0 0 58.538433
7.7025976 -6.1847229 1.574389 39 0 0 0 60.288395
13.139631 -5.8397026 1.5618861 6 0 0 0 56.1819
3.4710255 -5.2251568 1.8636303 641 0 0 0 65.178848
3.5802784 -5.1130085 1.8549737 989.5 0 0 0 64.792503
4.429666 -5.161499 1.7657663 130 0 0 0 63.225479
4.6326723 -5.1366887 1.7952535 74 0 0 0 62.837379
-2.6980634 -4.505918 1.8804355 566 0 0 0 83.162239
-2.2834496 -4.5927 1.7368777 419.39999 0 0 0 81.915199
-1.6757594 -4.669589 1.5356905 455 0 0 0 80.033913
-1.2835191 -4.6129799 1.5419674 354 0 0 0 78.864395
-0.80268431 -4.5781703 1.5564414 7.3333335 0 0 0 77.301796
-0.23543486 -4.5742249 1.5359013 527.20001 0 0 0 75.349686
0.2682243 -4.5644827 1.534072 387 0 0 0 73.588882
0.54853767 -4.5568542 1.5398834 103 0 0 0 72.609917
1.7945297 -4.5295916 1.5142179 523 0 0 0 68.505676
2.7962332 -4.5707464 1.5313119 344 0 0 0 65.769859
3.6399035 -4.5756569 1.5231019 429 0 0 0 63.815243
4.7314425 -4.6386709 1.5588479 519 0 0 0 61.854195
6.7724814 -4.7873139 1.9414998 114 0 0 0 59.318287
8.0998554 -4.6046362 1.9477135 347 0 0 0 57.756699
8.8321867 -4.8296933 1.7694799 483.66666 0 0 0 57.495365
14.182909 -4.6960125 1.8046331 331.5 0 0 0 54.633839
-2.5582409 -4.4665585 1.8189068 541.79999 0 0 0 82.847717
-2.3895006 -4.4714689 1.7542448 701.25 0 0 0 82.378685
18.933071 -3.7742043 1.6125089 57 0 0 0 52.675392
28.844263 -3.568929 1.6826432 90 0 0 0 51.511581
48.686543 -2.4053099 1.6013817 23 0 0 0 50.330368
-54.196945 1.366262 1.637482 45 0 0 0 0
-24.212568 1.1999526 1.9442164 161 0 0 0 0.39013001
2.7447517 3.3890581 1.6441202 572.11108 0 0 0 35.581795
3.2462201 3.3126369 1.6834962 699.66669 0 0 0 37.062408
3.7073364 3.2749016 1.7004418 698.25 0 0 0 38.187149
4.218111 3.2489309 1.7494874 617.77777 0 0 0 39.233719
4.7716684 3.2303104 1.6867454 904.25 0 0 0 40.183098
5.2352948 3.2649198 1.7656767 645.75 0 0 0 40.771423
5.7452483 3.2432604 1.6814338 664 0 0 0 41.458462
6.1929259 3.3449061 1.8321055 816 0 0 0 41.752979
6.683042 3.3261454 1.7557973 672.66669 0 0 0 42.273037
7.1511416 3.4130442 1.8610876 547 0 0 0 42.534248
7.6309361 3.410784 1.8589172 625 0 0 0 42.920929
8.2240772 3.4321411 1.759252 521.5 0 0 0 43.313911
9.0376129 3.5100985 1.6682127 38.5 0 0 0 43.705952
10.807815 3.7405999 1.6757888 383.5 0 0 0 44.280296
20.789574 4.1455083 1.7680382 14 0 0 0 46.43671
20.639252 4.6463289 1.7646888 36 0 0 0 46.039021
-4.0791688 5.5906782 1.7651989 236 0 0 0 14.723735
-3.9667308 5.8024101 1.7927361 461 0 0 0 15.20558
-22.904993 6.3250446 1.9096971 168 0 0 0 3.89516
-22.753914 6.8860712 1.9110471 177 0 0 0 4.2920699
-22.624063 7.4551001 1.9153068 55 0 0 0 4.67342
-2.8601329 7.4633865 1.6543052 85 0 0 0 18.909031
-1.3751391 7.4512186 1.575017 435 0 0 0 21.832569
7.0492997 7.115931 1.5971174 327 0 0 0 37.061127
29.900103 7.4962516 1.7843089 32 0 0 0 45.646248
-2.9876711 7.5201859 1.8707842 69 0 0 0 18.71199
-1.6700697 7.6407509 1.7518276 491.66666 0 0 0 21.318684
-1.410162 7.6441092 1.8043469 265 0 0 0 21.832569
-22.477068 8.0209084 1.9193509 170 0 0 0 5.06499
-5.7156644 8.423461 1.8418411 129 0 0 0 15.20558
0.74822825 8.3893461 1.7549765 500 0 0 0 26.132059
1.2488874 8.2469082 1.8427453 559.75 0 0 0 27.105804
16.704142 8.4368639 1.5672688 138 0 0 0 42.142433
0.83302057 8.7006645 1.7117438 300.5 0 0 0 26.230707
1.4157778 8.6014462 1.6026318 310 0 0 0 27.301979
1.6168371 8.5128613 1.8069974 84 0 0 0 27.694309
4.0628581 8.7433538 1.7726661 450.33334 0 0 0 31.5868
5.9418211 8.9972267 1.713982 386 0 0 0 33.931992
6.2346349 8.9512568 1.7338698 375 0 0 0 34.317081
6.566442 8.9470978 1.7635634 357 0 0 0 34.706913
8.1042023 8.5826702 1.5814627 330 0 0 0 36.66835
9.1677036 8.79177 1.6989012 222 0 0 0 37.457752
9.7374315 8.8856001 1.7616918 250 0 0 0 37.84399
11.453563 8.5396986 1.5540686 235 0 0 0 39.41116
12.313016 8.7143316 1.6386203 188 0 0 0 39.79364
18.427567 8.7422066 1.7042823 74 0 0 0 42.534248
20.174244 8.9672298 1.8411943 61 0 0 0 42.920929
4.8797617 9.2632389 1.6642721 120 0 0 0 32.371571
5.2182817 9.0742588 1.6645544 361.5 0 0 0 32.952541
5.6733103 9.0702076 1.7006797 434 0 0 0 33.539261
6.9722934 9.0223513 1.811035 369 0 0 0 35.102127
7.5493202 9.2823439 1.8985158 262 0 0 0 35.499458
10.399707 9.0278473 1.8387059 276 0 0 0 38.236698
11.214088 9.2572355 1.9392574 156 0 0 0 38.627567
15.143978 9.1121988 1.9128617 110 0 0 0 40.966339
-21.706665 9.5922632 1.9103956 27 0 0 0 6.23668
-21.629204 10.197573 1.9252752 24 0 0 0 6.6252499
4.3205633 10.247131 1.7640033 141.5 0 0 0 31.004576
5.1839895 10.442102 1.8480866 32 0 0 0 31.98476
-21.615074 10.845211 1.9472666 45 0 0 0 7.0096598
-29.556265 11.386813 1.7517498 33 0 0 0 5.4594398
-21.567886 11.490722 1.9680233 45 0 0 0 7.4102798
-21.480181 12.128105 1.9868068 33 0 0 0 7.79427
-24.163055 12.884997 1.5222408 54 0 0 0 7.4102798
-20.223623 12.760001 1.9281963 123 0 0 0 8.5758295
-27.112518 15.328674 1.7271702 51 0 0 0 7.79427
-26.889582 16.084042 1.7380321 77 0 0 0 8.1795502
-8.6576824 19.353735 1.7340276 93 0 0 0 17.93441
-7.6533813 19.637186 1.7259623 60 0 0 0 18.71199
-8.4215021 20.142027 1.7855105 25 0 0 0 18.321159
-25.715675 -25.716072 2.0845313 22 0 0 0 87.074799
-27.988239 -21.844936 2.0334628 10 0 0 0 89.026947
-28.613203 -21.224031 2.0398972 9 0 0 0 89.422623
-22.726501 -18.66066 2.4225931 19 0 0 0 88.633965
-30.956844 -17.54105 2.035991 18 0 0 0 91.377716
13.404601 -10.480053 2.2618349 80 0 0 0 60.094421
13.908191 -10.333231 2.3023088 31 0 0 0 59.712967
14.666283 -10.34653 2.3833091 150 0 0 0 59.318287
3.4436035 -5.1822567 2.2319815 565 0 0 0 65.178848
3.5923913 -5.1283188 2.2465134 570.66669 0 0 0 64.792503
7.3690033 -4.6821446 2.2576168 842.66669 0 0 0 58.538433
7.7048593 -4.6330862 2.212096 863.5 0 0 0 58.145569
8.1017208 -4.6036444 2.2911074 507 0 0 0 57.756699
8.6745052 -4.5577693 2.1256225 671.33331 0 0 0 57.232944
9.0225563 -4.553875 2.3572271 584 0 0 0 56.969433
9.5607395 -4.5343261 2.336509 477 0 0 0 56.577713
10.206732 -4.5370121 2.1884437 432.5 0 0 0 56.1819
10.933659 -4.5406275 2.3175745 424 0 0 0 55.795879
11.88248 -4.5944324 2.3339741 361 0 0 0 55.41544
14.103653 -4.6682539 2.3463116 275 0 0 0 54.633839
18.865047 -3.7605271 2.0748746 40 0 0 0 52.675392
28.818344 -3.5604253 2.4049299 77 0 0 0 51.511581
38.748276 -2.8699849 2.2362621 47 0 0 0 50.720478
67.822754 -1.6823927 2.2136405 11 0 0 0 49.946033
8.9835291 3.4892795 2.0165455 108 0 0 0 43.705952
10.718102 3.7096462 2.2248936 324.5 0 0 0 44.280296
20.733879 4.1345186 2.2779207 15 0 0 0 46.43671
20.482056 4.6111231 2.262495 103 0 0 0 46.039021
-21.864843 6.0366907 2.3724258 42 0 0 0 3.89516
-21.712559 6.5696464 2.3731189 32 0 0 0 4.2920699
-21.658678 7.1356587 2.3859344 136 0 0 0 4.67342
-2.9545603 7.4321404 2.2407038 100 0 0 0 18.71199
-21.547806 7.6878848 2.3941467 34 0 0 0 5.06499
-3.4004333 7.9976778 2.4328332 103 0 0 0 18.321159
-1.7703656 7.8016601 2.1172307 603 0 0 0 21.187517
-21.578648 8.2991886 2.4196467 18 0 0 0 5.4594398
-5.7244959 8.4345675 2.2173123 121 0 0 0 15.20558
-5.1123548 8.3841448 2.019254 28 0 0 0 15.98948
36.868629 8.2825441 2.1779799 15 0 0 0 46.039021
3.9659431 8.5431147 2.4288878 1012 0 0 0 31.5868
4.0061626 8.6279287 2.2187324 335 0 0 0 31.5868
6.354476 9.3631573 2.356761 168.5 0 0 0 34.124535
6.927155 9.4338017 2.1478639 242 0 0 0 34.706913
7.1588302 9.2616339 2.1485093 63 0 0 0 35.102127
9.9086037 9.4974794 2.1728041 285 0 0 0 37.457752
16.326548 9.281867 2.0300105 107 0 0 0 41.360287
6.6845927 9.5905447 2.1450868 84 0 0 0 34.317081
12.112107 9.503686 2.0508015 130 0 0 0 39.012539
13.167995 9.8147268 2.1849768 119 0 0 0 39.41116
18.085581 9.6977234 2.2143068 89 0 0 0 41.752979
-24.334743 10.054151 2.1153853 10 0 0 0 5.8438601
-0.58135521 10.194547 2.1150904 78 0 0 0 23.78314
5.4344606 10.301638 2.13552 9 0 0 0 32.371571
8.9414225 10.444908 2.1756384 151 0 0 0 35.882271
14.532935 10.281482 2.3649414 59 0 0 0 39.79364
20.604166 10.399717 2.484936 41 0 0 0 42.142433
5.2712841 10.616096 2.3179379 22 0 0 0 31.98476
4.9746094 11.387787 2.2744567 18 0 0 0 31.197201
10.70029 11.310253 2.4585781 85 0 0 0 36.66835
-21.395367 12.780883 2.0075786 41 0 0 0 8.1795502
-19.410229 13.617343 2.4868686 25 0 0 0 9.3600502
-21.185026 14.106775 2.0508327 24 0 0 0 8.9676704
-21.066692 14.785359 2.0740972 24 0 0 0 9.3600502
-20.948427 15.482006 2.0994291 36 0 0 0 9.7517204
-20.810017 16.182892 2.124929 21 0 0 0 10.13902
-20.617256 16.859638 2.1471212 25 0 0 0 10.53055
-8.6535969 19.34339 2.2465727 126 0 0 0 17.93441
-7.2921624 21.837458 2.4423835 100 0 0 0 19.50176
-19.631752 30.900442 2.0479925 21 0 0 0 15.59383
-28.755009 -40.822319 2.8552747 6 0 0 0 84.330528
-30.188953 -34.994904 2.641839 8 0 0 0 85.899284
-28.356218 -34.549007 2.5568578 7 0 0 0 85.510254
-23.332067 -22.223101 2.6524825 14 0 0 0 87.473953
-29.201937 -21.66873 2.9866335 21 0 0 0 89.422623
-23.824125 -21.602339 2.6469979 9 0 0 0 87.850418
-25.736034 -20.094873 2.6857486 27 0 0 0 89.026947
-23.236492 -20.053379 2.5274882 21 0 0 0 88.235451
-27.189432 -19.159735 2.7345896 6 0 0 0 89.820541
-27.547319 -18.417439 2.7241585 12 0 0 0 90.209923
-25.712816 -16.293058 2.5051081 12 0 0 0 90.6035
-26.373657 -15.818521 2.5303497 20 0 0 0 90.989594
-28.304451 -15.14018 2.6392074 22 0 0 0 91.764442
-29.760864 -14.087177 2.7061472 20 0 0 0 92.527939
-28.644693 -14.429694 2.637053 34 0 0 0 92.140862
-7.3513031 -12.268872 2.9572988 91 0 0 0 83.162239
-8.3061132 -10.650241 2.7931721 245 0 0 0 85.112206
-7.7093601 -10.669352 2.7236061 42 0 0 0 84.524193
-7.3057961 -10.938798 2.7219331 21 0 0 0 83.93486
33.529835 -10.183592 2.895479 16 0 0 0 54.242207
-8.0891438 -9.8637791 2.6397405 133 0 0 0 85.510254
-7.8790951 -9.8552799 2.9202666 178 0 0 0 85.311234
-8.1140099 -9.4171791 2.8769572 188 0 0 0 85.899284
-1.0826685 -8.7215834 2.9153843 308 0 0 0 76.517242
1.8309538 -8.7099247 2.9564757 285 0 0 0 71.24424
-8.8479662 -8.0312605 2.7661855 261 0 0 0 87.850418
23.10113 -8.2789297 2.6368077 79 0 0 0 55.017113
-8.8161068 -7.616817 2.9836397 76 0 0 0 88.235451
-8.7863607 -7.2228022 2.9135027 12 0 0 0 88.633965
-27.692928 -4.8151665 2.9997816 39 0 0 0 96.831436
6.2380066 -4.8833618 2.8346062 77 0 0 0 60.094421
7.3760047 -4.6845307 2.6913486 716 0 0 0 58.538433
7.7161174 -4.6386752 2.6608737 708.5 0 0 0 58.145569
8.1092634 -4.6077361 2.6402364 731 0 0 0 57.756699
8.5449066 -4.5803933 2.6221211 557 0 0 0 57.3647
9.0164356 -4.5506172 2.7297635 609 0 0 0 56.969433
9.5436335 -4.5250421 2.7215133 581 0 0 0 56.577713
10.162846 -4.5151982 2.7261701 417.5 0 0 0 56.1819
10.884405 -4.5178199 2.7417622 368 0 0 0 55.795879
11.827944 -4.5720282 2.7911382 349.5 0 0 0 55.41544
14.054281 -4.6518126 2.7053723 226 0 0 0 54.633839
18.807817 -3.7455795 2.5410035 19 0 0 0 52.675392
48.357643 -2.3887885 2.7769625 18 0 0 0 50.330368
-54.180756 1.3664006 2.9605873 24 0 0 0 0
-24.226376 1.2008594 2.531338 153 0 0 0 0.39013001
10.65703 3.6907444 2.7679498 313.5 0 0 0 44.280296
20.343218 4.583775 2.7613266 142 0 0 0 46.039021
91.9459 6.7633095 2.9952664 9 0 0 0 48.38596
-2.9252198 7.3508735 2.7984524 53.666668 0 0 0 18.71199
-3.390059 7.969945 2.7427912 187 0 0 0 18.321159
-1.8830488 7.9995995 2.5095501 289 0 0 0 21.056351
-1.9119399 8.1337299 2.7567396 210 0 0 0 21.056351
3.9119284 8.4331999 2.8582118 305 0 0 0 31.5868
3.951746 8.5133724 2.6540949 271 0 0 0 31.5868
6.3339691 8.863245 2.5380974 272 0 0 0 34.511997
-23.344437 9.6433229 2.6412787 24 0 0 0 5.8438601
-23.800407 10.521399 2.7209542 47 0 0 0 6.23668
5.2884669 10.655383 2.7644477 12 0 0 0 31.98476
-29.696617 11.435039 2.5491607 34 0 0 0 5.4594398
-23.850182 11.249129 2.7575541 28 0 0 0 6.6252499
16.839067 11.295548 2.687839 151 0 0 0 40.181118
-23.674906 11.883064 2.7706041 41 0 0 0 7.0096598
10.292168 12.011422 2.8888192 43 0 0 0 35.882271
-24.213291 12.906085 2.8694158 56 0 0 0 7.4102798
-23.237345 13.124373 2.7924235 13 0 0 0 7.79427
-22.907007 13.687623 2.792836 25 0 0 0 8.1795502
-19.267061 14.233539 2.5127842 21 0 0 0 9.7517204
-21.964785 14.62802 2.7637053 68 0 0 0 8.9676704
-19.762842 15.364564 2.6251848 10 0 0 0 10.13902
-19.674566 16.084906 2.6652608 8 0 0 0 10.53055
-19.428591 16.694344 2.6869934 21 0 0 0 10.915359
-4.5596027 19.939926 2.6799972 69 0 0 0 21.056351
-0.079319194 19.683424 2.5895762 63 0 0 0 24.567841
-6.9473462 22.646257 2.5130575 46 0 0 0 19.882931
-6.1278672 24.156593 2.6444485 105 0 0 0 20.6651
-13.697739 28.802689 2.5888324 52 0 0 0 17.540661
-23.977871 -20.69319 3.3762269 17 0 0 0 88.235451
-25.721003 -17.196976 3.2973938 22 0 0 0 90.209923
-24.790146 -17.469669 3.2329886 22 0 0 0 89.820541
-26.371647 -16.710617 3.3266881 11 0 0 0 90.6035
-26.485823 -15.886012 3.2911186 14 0 0 0 90.989594
-26.737373 -15.157633 3.2751882 9 0 0 0 91.377716
-28.136118 -13.318733 3.3165052 43 0 0 0 92.527939
-27.813908 -12.340312 3.2426195 55 0 0 0 92.932724
-7.7663651 -12.274017 3.3576431 147 0 0 0 83.555641
-7.2615023 -12.12372 3.2680326 274 0 0 0 83.162239
-6.8677092 -12.130979 3.2243903 205 0 0 0 82.769089
21.878975 -12.407317 3.3227499 81 0 0 0 57.756699
-27.526262 -11.412892 3.1762297 39 0 0 0 93.319107
-27.235247 -10.516811 3.1126981 66 0 0 0 93.712997
-7.7983327 -10.524838 3.0305357 156 0 0 0 84.717857
-7.3661852 -10.745864 3.0148911 204.5 0 0 0 84.13269
-7.6913824 -10.38049 3.3063707 92 0 0 0 84.717857
-7.2262011 -10.269497 3.2147572 253 0 0 0 84.330528
-6.8498054 -10.259789 3.1590142 174 0 0 0 83.93486
-7.697144 -9.8730097 3.2046494 41 0 0 0 85.112206
56.290977 -9.7881937 3.2700629 12 0 0 0 52.290089
-8.0015898 -9.2867546 3.4425759 223 0 0 0 85.899284
5.1646533 -9.1454353 3.3544865 296 0 0 0 66.351517
-9.0987329 -8.6748772 3.2170091 145 0 0 0 87.473953
-8.8713026 -8.883173 3.2128019 197 0 0 0 87.074799
-8.1856489 -8.6087961 3.3367918 193 0 0 0 86.688362
-7.9827781 -8.81845 3.3412957 50 0 0 0 86.29673
-1.0837069 -8.7552109 3.25069 259 0 0 0 76.517242
-0.43449256 -8.7357893 3.1168725 18 0 0 0 75.351273
1.6717368 -8.8306055 3.3526905 189.66667 0 0 0 71.572388
35.324245 -8.8592539 3.0069728 7 0 0 0 53.464138
-9.008276 -8.1767416 3.1141882 171 0 0 0 87.850418
-8.8684597 -8.4554634 3.44063 228 0 0 0 87.473953
8.1769629 -8.1972685 3.2672901 389 0 0 0 62.052113
22.960854 -8.2239676 3.2213604 120 0 0 0 55.017113
-8.0869532 -7.7134051 3.4154987 197 0 0 0 87.473953
-8.7023621 -7.3354936 3.1982231 208.5 0 0 0 88.434708
-8.3436623 -7.3896494 3.2703869 156 0 0 0 88.042938
-8.7419844 -6.7201781 3.2807839 237.66667 0 0 0 89.158836
-8.4970751 -6.9877319 3.3625612 258 0 0 0 88.633965
10.218923 -6.8425303 3.4679463 53 0 0 0 58.925648
15.775033 -5.6535759 3.4699075 49 0 0 0 55.017113
-25.757221 -5.1383038 3.4510691 148 0 0 0 96.439751
8.7035007 -4.8021336 3.1794906 303.5 0 0 0 57.560699
13.985769 -4.6276283 3.2360406 240.5 0 0 0 54.633839
18.38933 -4.1345181 3.4327798 239 0 0 0 53.067902
18.661394 -4.1957231 3.0086892 91 0 0 0 53.067902
18.730656 -3.7300262 3.2402163 105 0 0 0 52.675392
23.875372 -3.5437872 3.1873372 14 0 0 0 51.893341
28.753424 -3.5522294 3.1042213 84 0 0 0 51.511581
23.76668 -2.9324167 3.1626408 120 0 0 0 51.511581
38.628883 -2.8541296 3.1947696 42 0 0 0 50.720478
58.681637 -1.4552286 3.3584578 12 0 0 0 49.946033
-24.253286 1.1981995 3.1279864 88 0 0 0 0.39013001
-24.085609 1.780632 3.1114588 102 0 0 0 0.77827001
10.5133 3.4970887 3.2693641 373.5 0 0 0 44.473721
10.420588 3.7552421 3.4053907 461 0 0 0 44.086872
10.533105 3.7934408 3.1650715 177 0 0 0 44.086872
20.298786 4.5738745 3.2713211 185 0 0 0 46.039021
40.587322 5.0105867 3.3720684 4 0 0 0 47.600128
-3.3484473 7.8628073 3.1231759 144.5 0 0 0 18.321159
-1.9563596 8.3164177 3.131567 192.5 0 0 0 21.056351
3.8659515 8.3376722 3.2789211 196.33333 0 0 0 31.5868
-24.248608 8.6508675 3.3206344 53 0 0 0 5.06499
-24.108173 9.2714014 3.3320162 48 0 0 0 5.4594398
-22.893463 9.4515333 3.1967793 64 0 0 0 5.8438601
-22.522738 9.9495554 3.1788292 54 0 0 0 6.23668
-23.829588 11.234171 3.3999853 76 0 0 0 6.6252499
-22.72323 12.103506 3.3246531 78 0 0 0 7.4102798
25.400782 12.039798 3.0170944 38 0 0 0 42.534248
-22.330078 12.604543 3.3120587 44 0 0 0 7.79427
-21.69401 13.686266 3.3145816 25 0 0 0 8.5758295
-22.536936 15.004732 3.4978642 30 0 0 0 8.9676704
-2.3979023 18.779482 3.4228072 83 0 0 0 22.6136
-1.9242508 18.710987 3.4020691 74 0 0 0 22.99872
-0.98985219 18.505253 3.3545516 117 0 0 0 23.78314
-4.5009675 19.676687 3.1437411 47 0 0 0 21.056351
0.89438248 19.81601 3.1019549 46 0 0 0 25.35157
1.3679346 19.612589 3.075789 28 0 0 0 25.744989
1.8499076 19.578962 3.0776961 36 0 0 0 26.132059
-23.421824 21.16345 3.3047476 28 0 0 0 11.30622
-0.60625792 21.431866 3.3464246 138 0 0 0 24.16972
4.1547084 21.275648 3.3926265 201 0 0 0 27.694309
-22.878414 21.713648 3.3029928 9 0 0 0 11.69884
-7.2909937 21.81949 3.0051885 89 0 0 0 19.50176
-6.9994402 22.801977 3.1157308 46 0 0 0 19.882931
-6.5747156 23.460697 3.1831582 37 0 0 0 20.28179
-2.4399104 23.955404 3.1546586 139 0 0 0 22.99872
-1.2367469 23.546732 3.0923307 40 0 0 0 23.78314
-6.2015085 24.430468 3.2930288 60 0 0 0 20.6651
-3.0666959 24.209372 3.1952806 100 0 0 0 22.6136
-5.0623193 25.040335 3.3396459 37 0 0 0 21.44985
-11.6197 27.868174 3.1877279 46 0 0 0 18.321159
-28.666643 -34.939671 3.7100739 7 0 0 0 85.510254
-29.060427 -21.563951 3.8512788 13 0 0 0 89.422623
-25.746229 -21.139685 3.548883 8 0 0 0 88.633965
24.486206 -16.375015 3.8859277 20 0 0 0 58.925648
25.260582 -16.009253 3.9441662 21 0 0 0 58.538433
21.814503 -12.37049 3.9342885 52 0 0 0 57.756699
-7.5536122 -11.937687 3.6131356 72 0 0 0 83.555641
-7.1079903 -11.867311 3.5389969 190 0 0 0 83.162239
-6.9311962 -11.572021 3.7865965 104 0 0 0 83.162239
-6.7224994 -11.227893 3.9961648 192 0 0 0 83.162239
-6.92521 -10.944329 3.636656 185 0 0 0 83.555641
-4.6895628 -10.583468 3.683269 211 0 0 0 81.20269
-4.290751 -10.601008 3.6861784 225 0 0 0 80.686836
-3.7259312 -10.744876 3.8129451 122 0 0 0 79.879967
-3.3364418 -10.991468 3.7982874 93 0 0 0 79.250809
-6.5602241 -10.371367 3.7491219 162 0 0 0 83.555641
-4.9607263 -10.491274 3.8351798 143 0 0 0 81.599167
-3.979589 -10.325451 3.9303658 109 0 0 0 80.426476
1.7888813 -10.3534 3.7412858 15 0 0 0 71.827599
2.2890439 -10.231019 3.9903846 54 0 0 0 71.043694
-4.0511928 -9.7891302 3.7638931 191 0 0 0 80.817024
-7.8949952 -9.1663074 3.695118 14 0 0 0 85.899284
5.1866217 -9.1782665 3.7560413 199 0 0 0 66.351517
-8.8644505 -8.8763475 3.5217717 102 0 0 0 87.074799
-8.2216835 -8.7924995 3.7757027 127 0 0 0 86.557823
-7.4763451 -8.2591896 3.6805184 129 0 0 0 86.29673
8.08255 -8.0999279 3.5112736 48 0 0 0 62.052113
33.078125 -8.2962055 3.647516 7 0 0 0 53.464138
-8.5419188 -7.7564402 3.5251455 169 0 0 0 87.850418
-8.2319984 -7.6597776 3.7145519 242.5 0 0 0 87.662186
8.1563988 -7.7849622 3.7399082 101 0 0 0 61.656281
8.8004332 -7.609128 3.8576136 22 0 0 0 60.883991
25.846647 -7.8470788 3.5629203 39 0 0 0 54.242207
-8.5388517 -7.0196228 3.6517415 199 0 0 0 88.633965
-8.3523226 -7.2164884 3.646611 204 0 0 0 88.235451
9.4942055 -7.4255948 3.9952533 15 0 0 0 60.094421
10.241748 -7.2251954 3.8423624 145 0 0 0 59.318287
-8.6982794 -6.800364 3.6475484 83 0 0 0 89.026947
9.5306807 -6.7274108 3.868259 43 0 0 0 59.318287
-8.6224165 -6.4069648 3.5496998 165 0 0 0 89.422623
10.285272 -6.1777048 3.9773479 36 0 0 0 58.145569
8.7451382 -5.251123 3.8890254 18 0 0 0 58.145569
8.6138439 -4.7496777 3.6311212 257.5 0 0 0 57.560699
13.945466 -4.6127667 3.7682683 197 0 0 0 54.633839
18.246075 -4.5761175 3.8897512 143 0 0 0 53.464138
18.719479 -4.208457 3.9665174 110 0 0 0 53.067902
18.63983 -3.7117593 3.9294991 141 0 0 0 52.675392
23.997089 -3.561666 3.8046 45 0 0 0 51.893341
33.758968 -3.3301339 3.6277814 63 0 0 0 51.116673
11.397463 -2.8591402 3.8973303 116 0 0 0 53.464138
12.452823 -2.7972181 3.9127483 120 0 0 0 53.067902
11.461532 -2.2824247 3.8765898 34 0 0 0 52.675392
23.917707 -2.3555784 3.7696681 132 0 0 0 51.116673
10.252106 -1.7749681 3.709337 61 0 0 0 52.284367
11.017371 -1.9135906 3.7114458 62 0 0 0 52.290089
11.157953 -1.0978189 3.7216868 277 0 0 0 51.116673
11.892955 0.0056377966 3.9457474 232 0 0 0 49.551781
19.028196 0.47235757 3.9363027 37 0 0 0 49.158928
12.151351 0.60705584 3.7338479 47 0 0 0 48.774406
18.997667 0.93970782 3.9337695 27 0 0 0 48.774406
-24.369865 1.2041918 3.7433686 50 0 0 0 0.39013001
10.370081 1.2939856 3.9881401 14 0 0 0 47.600128
-24.232019 1.7916858 3.7281935 92 0 0 0 0.77827001
9.0236645 2.2814744 3.5583019 283 0 0 0 45.646248
9.7539244 2.9837224 3.8948827 284 0 0 0 44.874832
10.466707 3.4807198 3.665153 247 0 0 0 44.473721
10.883882 3.3240883 3.638062 314.5 0 0 0 44.874832
10.227732 3.6861794 3.7463405 396.5 0 0 0 44.086872
9.3458242 4.1764951 3.909116 7 0 0 0 42.920929
10.333773 4.1631351 3.8379374 264 0 0 0 43.509933
9.0400152 4.588089 3.8719375 358 0 0 0 42.142433
17.727905 4.9244614 3.8081405 18 0 0 0 45.257801
20.192894 4.5501657 3.767873 131 0 0 0 46.039021
9.0178032 5.1509786 3.9652236 117 0 0 0 41.360287
9.1125984 5.5068607 3.8020267 402 0 0 0 40.966339
-5.3602271 8.3146763 3.7247036 5 0 0 0 15.59383
-24.274591 8.6601286 3.9589088 60 0 0 0 5.06499
-23.982407 9.2227764 3.9476018 68 0 0 0 5.4594398
-23.672651 9.7744503 3.9355347 41 0 0 0 5.8438601
34.554642 10.497149 3.8625362 20 0 0 0 44.874832
41.369488 10.373937 3.51634 11 0 0 0 45.646248
-23.246881 11.661982 3.9982872 22 0 0 0 7.0096598
-24.760841 12.424731 3.5746019 22 0 0 0 7.0096598
-24.764595 14.796041 3.7234812 16 0 0 0 8.1795502
-22.372313 15.699307 3.531451 36 0 0 0 9.3600502
-22.410797 17.426273 3.6685965 19 0 0 0 10.13902
-7.3944988 17.646275 3.9158399 122 0 0 0 18.321159
-5.9768796 17.836689 3.8541555 91 0 0 0 19.50176
-22.294867 18.230356 3.7220671 23 0 0 0 10.53055
-5.5913787 18.154808 3.8929148 99 0 0 0 19.882931
-5.0899849 18.089712 3.8525918 82 0 0 0 20.28179
-21.825338 18.756556 3.7200847 24 0 0 0 10.915359
-8.3031683 18.540201 3.6561406 52 0 0 0 17.93441
-7.7820902 18.583218 3.627424 49 0 0 0 18.321159
-4.7451673 18.609953 3.9377801 33 0 0 0 20.6651
-4.2587962 18.59425 3.9125702 40 0 0 0 21.056351
-22.42198 20.248837 3.9048789 12 0 0 0 11.30622
-21.77137 20.650976 3.879509 25 0 0 0 11.69884
-6.4306235 20.923038 3.9434743 42 0 0 0 19.882931
4.1498022 21.253109 3.9250994 143 0 0 0 27.694309
-7.296876 21.835653 3.5760145 68 0 0 0 19.50176
3.1329641 21.649277 3.9625638 106 0 0 0 26.90963
-21.171022 22.151083 3.9635389 43 0 0 0 12.46463
-6.9802833 22.736965 3.6944919 59 0 0 0 19.882931
-0.079893455 22.992762 3.5873015 124 0 0 0 24.567841
0.47939482 22.770327 3.5548892 113 0 0 0 24.958521
-1.2327102 23.453978 3.6610222 137 0 0 0 23.78314
-6.592278 23.522102 3.7949262 54 0 0 0 20.28179
-2.4385452 23.936062 3.746953 117 0 0 0 22.99872
-1.8280157 23.686893 3.701576 99 0 0 0 23.39975
-6.2005415 24.424261 3.9148657 53 0 0 0 20.6651
-3.0631599 24.176247 3.7933769 102 0 0 0 22.6136
-5.0544801 24.997978 3.9643829 91 0 0 0 21.44985
-11.572836 27.739527 3.9113019 62 0 0 0 18.321159
-26.229248 -21.544012 4.4499369 12 0 0 0 88.633965
-24.039431 -20.753754 4.1661935 12 0 0 0 88.235451
-25.704557 -20.077856 4.2770553 18 0 0 0 89.026947
-26.636581 -18.777622 4.2729592 7 0 0 0 89.820541
-26.355989 -17.628263 4.1580038 6 0 0 0 90.209923
-28.528337 -17.117693 4.3606896 14 0 0 0 90.989594
26.15572 -15.689589 4.0213013 18 0 0 0 58.145569
18.777563 -15.427178 4.4182229 33 0 0 0 60.482368
-6.620831 -11.05363 4.2535772 95 0 0 0 83.162239
-6.7529492 -10.671985 4.1695104 158 0 0 0 83.555641
-4.9995441 -10.582944 4.1545329 124 0 0 0 81.599167
-4.2468486 -10.626453 4.3438826 108.5 0 0 0 80.62175
-3.758877 -10.513299 4.2390146 151 0 0 0 80.039047
-3.484401 -10.554102 4.220253 132 0 0 0 79.64135
-6.948266 -10.411133 4.2848358 50 0 0 0 83.93486
-4.5690255 -10.318385 4.0069227 158 0 0 0 81.20269
-4.4968772 -10.155233 4.2159576 115 0 0 0 81.20269
-4.5613246 -9.6545019 4.0541534 134 0 0 0 81.599167
4.9918675 -9.3621635 4.0398164 183 0 0 0 66.742142
5.2215071 -9.239521 4.0411506 138 0 0 0 66.351517
25.403 -9.0970993 4.2281165 9 0 0 0 55.017113
-8.729845 -8.7447166 4.2289701 136 0 0 0 87.074799
-7.8975983 -8.730546 4.1760192 84 0 0 0 86.29673
31.820715 -8.8109856 4.34586 18 0 0 0 53.850319
-8.7387476 -8.3377752 4.2833228 223 0 0 0 87.473953
-7.8106132 -8.4234028 4.2156334 144.5 0 0 0 86.492546
-7.3048887 -8.4843426 4.2471404 15 0 0 0 85.899284
-8.8418427 -7.8362703 4.1907444 108 0 0 0 88.042938
-8.4166937 -7.8364906 4.36166 131.5 0 0 0 87.662186
-9.2257557 -7.2177253 4.2977934 97.5 0 0 0 89.026947
-8.8137436 -7.4320898 4.2301655 160 0 0 0 88.434708
8.6951876 -7.3292894 4.1903529 40 0 0 0 60.683182
8.8926096 -6.9512358 4.2982006 28 0 0 0 60.094421
-27.357714 -6.1595478 4.3760285 28 0 0 0 96.051392
10.146719 -6.0897717 4.2142801 51 0 0 0 58.145569
15.675048 -5.6144056 4.2657375 29 0 0 0 55.017113
10.869026 -4.5062547 4.4799585 31 0 0 0 55.795879
13.861378 -4.7116485 4.2401614 209.33333 0 0 0 54.761597
15.721965 -4.7736011 4.2100582 12 0 0 0 54.242207
18.439163 -4.620872 4.3963537 93 0 0 0 53.464138
10.862362 -4.1936398 4.4339643 66 0 0 0 55.41544
14.515946 -4.4080925 4.2681484 36 0 0 0 54.242207
18.549379 -4.1667328 4.3968544 194 0 0 0 53.067902
10.98092 -3.9318864 4.4415846 22 0 0 0 55.017113
12.907027 -3.5762503 4.4356732 122 0 0 0 53.850319
18.864986 -3.2730622 4.4278064 152 0 0 0 52.290089
33.887966 -3.3366621 4.4797621 62 0 0 0 51.116673
11.22369 -2.5195534 4.3817825 40 0 0 0 53.067902
11.759024 -2.9450951 4.3171415 78 0 0 0 53.464138
12.144019 -2.1042235 4.3889694 58 0 0 0 52.290089
15.804889 -2.3440471 4.4932055 32 0 0 0 51.893341
17.525482 -2.1597362 4.0871067 44 0 0 0 51.511581
24.028008 -2.3662796 4.3854141 115 0 0 0 51.116673
32.886162 -2.423882 4.3395753 76 0 0 0 50.720478
48.74828 -2.3992653 4.0152183 29 0 0 0 50.330368
12.24564 -1.8126187 4.4081655 80 0 0 0 51.893341
17.616371 -1.7322167 4.0971713 88 0 0 0 51.116673
33.83852 -1.659265 4.4574966 43 0 0 0 50.330368
27.117462 -1.3296266 4.2532787 20 0 0 0 50.330368
10.953482 -0.80189437 4.1869779 102 0 0 0 50.720478
11.369408 -0.69278014 4.061029 37.5 0 0 0 50.525421
16.241272 -0.79329371 4.1677947 68 0 0 0 50.330368
11.033834 -0.26262528 4.2078462 54 0 0 0 49.946033
11.175536 0.28491813 4.2618828 104 0 0 0 49.158928
12.075779 0.009986585 4.3026757 108 0 0 0 49.551781
12.592816 0.32060915 4.4864669 58 0 0 0 49.158928
20.82547 0.0043136999 4.302433 63 0 0 0 49.551781
11.594929 0.86848319 4.1453414 41 0 0 0 48.38596
11.725225 1.169421 4.4901848 18 0 0 0 47.997009
12.239775 1.2203932 4.3826456 164 0 0 0 47.997009
19.194828 1.4270035 4.4524193 39 0 0 0 48.38596
23.473825 1.1600262 4.2708898 32 0 0 0 48.774406
12.947148 1.9338467 4.3394876 85 0 0 0 47.209167
14.262636 1.7714219 4.0482717 29 0 0 0 47.600128
19.74958 1.9541128 4.1028247 46 0 0 0 47.997009
23.431904 1.7364773 4.2699232 28 0 0 0 48.38596
13.22578 2.3096569 4.4495168 51 0 0 0 46.825119
14.190504 2.298924 4.4043236 44.5 0 0 0 47.017143
23.009539 2.2754741 4.2027578 40 0 0 0 47.997009
13.67681 2.7392328 4.2748337 109 0 0 0 46.43671
22.569218 2.7941105 4.1345415 14 0 0 0 47.600128
10.137397 3.3758345 4.0776505 242 0 0 0 44.473721
10.80786 3.3041558 4.0320821 350 0 0 0 44.874832
11.195202 3.1224065 4.2893696 101 0 0 0 45.257801
18.658798 3.253808 4.3827415 33 0 0 0 46.825119
10.183998 3.6725893 4.1309967 200 0 0 0 44.086872
10.74896 3.578279 4.041821 224 0 0 0 44.473721
19.887394 3.9701514 4.1922326 196 0 0 0 46.43671
10.394048 4.0401201 4.2538214 268 0 0 0 43.705952
10.35373 4.6240325 4.0458956 288 0 0 0 42.920929
23.137821 4.6170034 4.2884278 40 0 0 0 46.43671
30.463675 4.5312905 4.0573559 66 0 0 0 47.209167
40.407005 4.9885392 4.3473048 23 0 0 0 47.600128
9.0919514 5.4945159 4.0548263 20 0 0 0 40.966339
30.770723 5.3530622 4.1141419 37 0 0 0 46.825119
53.652851 5.2866459 4.4321618 7 0 0 0 47.997009
9.0107689 5.7535396 4.0802288 11 0 0 0 40.576511
12.11485 5.7627029 4.4476228 26 0 0 0 42.534248
38.891766 5.7752724 4.1999483 22 0 0 0 47.209167
10.878705 6.2067699 4.4637551 87 0 0 0 41.360287
10.411656 6.6367335 4.0971661 122 0 0 0 40.576511
14.933859 6.6514144 4.1930799 50 0 0 0 42.920929
12.487049 7.5294065 4.4680901 25 0 0 0 40.966339
4.3428879 10.318033 4.2593603 70.5 0 0 0 31.004576
-24.174335 10.682092 4.0611796 53 0 0 0 6.23668
-24.244923 11.430605 4.1192088 19 0 0 0 6.6252499
-23.017761 12.260848 4.0099721 51 0 0 0 7.4102798
-22.560629 13.473997 4.0417953 41 0 0 0 8.1795502
-23.739975 14.982333 4.3168788 26 0 0 0 8.5758295
-22.635807 15.070535 4.1833797 40 0 0 0 8.9676704
-22.526192 15.807414 4.2339473 56 0 0 0 9.3600502
-22.416098 17.430017 4.3695908 33 0 0 0 10.13902
-6.505167 17.932907 4.3724685 47 0 0 0 19.10607
-4.5714984 17.901754 4.2407379 106 0 0 0 20.6651
-21.0781 18.111212 4.2787528 21 0 0 0 10.915359
-5.1175637 18.175459 4.3320107 69 0 0 0 20.28179
-1.8777676 18.198462 4.2066197 89 0 0 0 22.99872
-2.3818016 18.615477 4.3130531 88 0 0 0 22.6136
-0.546749 18.827526 4.33359 93 0 0 0 24.16972
0.84601313 18.922331 4.3613038 108 0 0 0 25.35157
-8.6385746 19.295843 4.3224487 52 0 0 0 17.93441
-0.08437141 19.363491 4.4553714 48 0 0 0 24.567841
-7.3284698 21.929649 4.1624584 41 0 0 0 19.50176
1.5642512 22.282618 4.0422063 60 0 0 0 25.744989
-0.080393471 22.962675 4.1506691 118 0 0 0 24.567841
0.47804248 22.735197 4.1120181 149 0 0 0 24.958521
1.0258582 22.505119 4.0752764 164 0 0 0 25.35157
-0.64912558 23.154688 4.1853991 112 0 0 0 24.16972
-6.6206284 23.622482 4.4172168 55 0 0 0 20.28179
-1.8256749 23.648001 4.2821116 105 0 0 0 23.39975
-29.121019 -21.616989 4.7515512 16 0 0 0 89.422623
-31.211872 -16.702417 4.6373496 9 0 0 0 91.764442
4.5572629 -13.83081 4.8162537 51 0 0 0 69.485085
-6.4999967 -10.280025 4.6124105 43 0 0 0 83.555641
-8.5696669 -9.9529896 4.6555023 154 0 0 0 85.899284
-6.9197192 -9.8411398 4.5621696 92 0 0 0 84.330528
44.363472 -9.972641 4.849565 14 0 0 0 53.067902
56.111115 -9.7464342 4.6785417 7 0 0 0 52.290089
25.530514 -9.1424341 4.9211645 29 0 0 0 55.017113
-8.4379797 -8.8803759 4.6439066 82 0 0 0 86.688362
-8.4227657 -8.440238 4.5210571 88 0 0 0 87.074799
35.734612 -8.027586 4.8156266 6 0 0 0 53.067902
11.305326 -7.5614567 4.8371034 20 0 0 0 58.925648
11.630534 -7.3717184 4.8967099 40 0 0 0 58.538433
14.316666 -7.2123756 4.9026399 23 0 0 0 56.969433
17.469364 -7.2422948 4.8392363 69 0 0 0 55.795879
18.798666 -6.7309365 4.6159596 30 0 0 0 55.017113
20.281487 -5.6147828 4.8624043 47 0 0 0 53.850319
10.811701 -5.1188641 4.5536418 59 0 0 0 56.577713
13.833331 -5.3415661 4.722456 137 0 0 0 55.41544
18.597567 -5.1492343 4.9369345 192 0 0 0 53.850319
13.824126 -4.5723176 4.818162 228 0 0 0 54.633839
14.1937 -4.308917 4.7241259 92.5 0 0 0 54.242207
16.02511 -4.4381661 4.6740828 20 0 0 0 53.850319
18.677414 -4.1952906 4.8977456 26 0 0 0 53.067902
20.590288 -4.095552 4.8506789 27 0 0 0 52.675392
18.990097 -3.7776437 4.9533777 112 0 0 0 52.675392
29.458248 -3.63361 4.6455126 32 0 0 0 51.511581
18.625805 -3.2315044 4.8372402 57 0 0 0 52.290089
44.437859 -3.2828431 4.7525039 21 0 0 0 50.720478
12.366642 -2.7754428 4.5117583 108 0 0 0 53.067902
12.42436 -2.3108459 4.6541543 65.5 0 0 0 52.482742
15.967282 -2.3651226 4.9366407 42 0 0 0 51.893341
17.730543 -2.1848502 4.5739212 45 0 0 0 51.511581
23.813253 -2.345006 4.9362679 145 0 0 0 51.116673
43.756638 -2.1533852 4.6733885 20 0 0 0 50.330368
13.7005 -1.6838431 4.9102111 33 0 0 0 51.511581
15.36079 -1.8903906 4.7354078 18 0 0 0 51.511581
15.968788 -1.5673316 4.9079566 60 0 0 0 51.116673
16.866282 -1.6583588 4.7635493 82 0 0 0 51.116673
20.932169 -1.5391781 4.8499832 22 0 0 0 50.720478
23.379478 -1.7232043 4.8371425 35 0 0 0 50.720478
13.032996 -1.2771088 4.9827447 54 0 0 0 51.116673
13.953107 -1.0261604 4.6326642 36 0 0 0 50.720478
23.427938 -1.1485094 4.8399901 32 0 0 0 50.330368
25.117836 -1.2314669 4.5662231 32 0 0 0 50.330368
20.925936 -0.50671571 4.8373504 26 0 0 0 49.946033
22.350636 -0.54529244 4.6154776 29 0 0 0 49.946033
29.963846 -0.73159766 4.6912003 14 0 0 0 49.946033
13.595672 -0.32383886 4.8392291 50 0 0 0 49.946033
12.949184 0.010645466 4.9285898 67 0 0 0 49.551781
13.892227 0.34844998 4.6026287 7 0 0 0 49.158928
18.263842 0.45688385 4.6776347 18 0 0 0 49.158928
18.838053 0.0075676334 4.821579 27 0 0 0 49.551781
12.176396 0.91182512 4.650908 110 0 0 0 48.38596
19.09713 1.4198588 4.9011745 38 0 0 0 48.38596
57.89127 1.4194496 4.7569423 5 0 0 0 49.158928
19.570652 1.9400136 4.5484829 48 0 0 0 47.997009
22.696867 1.6822821 4.6983266 7 0 0 0 48.38596
12.813992 2.2427466 4.63275 36 0 0 0 46.825119
12.724993 2.5518484 4.6222043 39 0 0 0 46.43671
20.726864 2.570529 4.8278079 18 0 0 0 47.600128
13.296905 3.3548434 4.8815918 108 0 0 0 45.646248
20.396706 3.040916 4.7676573 32 0 0 0 47.209167
23.411282 3.4847167 4.8849912 30 0 0 0 47.209167
14.411115 3.6293063 4.9204516 28 0 0 0 45.646248
20.170273 4.0302029 4.7558475 43 0 0 0 46.43671
30.04545 4.4693389 4.7550197 37 0 0 0 47.209167
12.813132 4.9698625 4.5547175 30 0 0 0 43.705952
18.173264 4.5727019 4.7984905 24 0 0 0 45.646248
20.931154 4.720048 4.9593387 102 0 0 0 46.039021
31.247416 5.4359612 4.9631944 6 0 0 0 46.825119
10.393417 5.5966597 4.500246 129 0 0 0 41.752979
11.798101 5.6178756 4.6548791 120 0 0 0 42.534248
12.492836 5.568646 4.5334773 122 0 0 0 42.920929
14.782066 6.5857015 4.7530298 16.5 0 0 0 42.920929
9.8750505 7.0088029 4.6145554 17 0 0 0 39.79364
14.42537 7.3000193 4.9488134 15 0 0 0 42.142433
12.639212 7.6177711 4.887557 20 0 0 0 40.966339
12.366858 8.3104181 4.9339752 19 0 0 0 40.181118
19.266136 8.0114956 4.8252015 32 0 0 0 43.313911
-24.179846 9.2989321 4.6180925 45 0 0 0 5.4594398
-30.161411 9.943121 4.871913 20 0 0 0 4.67342
-24.062197 9.9358387 4.6412749 44 0 0 0 5.8438601
34.402588 10.45773 4.7312813 45 0 0 0 44.874832
41.162357 10.322229 4.5308795 10 0 0 0 45.646248
-24.699032 10.914725 4.8142385 42 0 0 0 6.23668
-24.450022 11.52753 4.8199887 41 0 0 0 6.6252499
-23.651087 11.86541 4.7194686 38 0 0 0 7.0096598
-23.697895 12.624425 4.7895603 35 0 0 0 7.4102798
-22.299557 12.586823 4.569437 29 0 0 0 7.79427
-21.897413 13.076015 4.5520954 38 0 0 0 8.1795502
-21.413969 13.50832 4.5198956 37 0 0 0 8.5758295
-20.490088 13.635487 4.9981003 36 0 0 0 8.9676704
-22.443346 14.941569 4.8126378 45 0 0 0 8.9676704
-21.798391 16.947327 4.930573 23 0 0 0 10.13902
-7.76404 17.312584 4.8097415 72 0 0 0 17.93441
-24.075947 17.796097 4.6048622 32 0 0 0 9.7517204
-7.3398581 17.503555 4.8126926 59 0 0 0 18.321159
-6.4431396 17.758413 4.7929087 51 0 0 0 19.10607
-0.96814507 17.975857 4.5836606 126 0 0 0 23.78314
-6.188889 18.46488 4.9413815 42 0 0 0 19.50176
-4.6766787 18.319527 4.8021312 65 0 0 0 20.6651
-2.3538456 18.385933 4.714746 67 0 0 0 22.6136
-1.897343 18.392521 4.7044659 85 0 0 0 22.99872
-0.53261334 18.24209 4.6475787 74 0 0 0 24.16972
0.36739311 18.394123 4.6874428 42 0 0 0 24.958521
0.82284343 18.455885 4.7079759 69 0 0 0 25.35157
-8.3792467 18.700867 4.6908135 83 0 0 0 17.93441
-5.7899027 18.794416 4.9910464 68 0 0 0 19.882931
-5.2502375 18.652859 4.9196143 68 0 0 0 20.28179
-1.4578993 18.604403 4.7490625 87 0 0 0 23.39975
-10.297687 19.096186 4.9604125 68 0 0 0 16.76214
-9.8098612 19.309315 4.9533052 39 0 0 0 17.14784
-8.0910625 19.31732 4.794816 49 0 0 0 18.321159
-22.138269 19.99106 4.5914855 24 0 0 0 11.30622
-9.3836069 19.649305 4.9812479 34 0 0 0 17.540661
1.3702354 19.707581 4.5483394 62 0 0 0 25.744989
-6.7562642 20.182596 4.8763309 89 0 0 0 19.50176
0.4078069 20.043743 4.6127863 57 0 0 0 24.958521
-21.794468 20.672434 4.6245914 19 0 0 0 11.69884
-20.847013 20.764988 4.531776 44 0 0 0 12.07854
-20.340424 21.277645 4.535037 59 0 0 0 12.46463
-12.066586 21.149261 4.968039 49 0 0 0 16.373871
-11.486365 21.329329 4.9443731 35 0 0 0 16.76214
-20.077314 22.060724 4.5967746 23 0 0 0 12.86478
1.0247937 22.493181 4.6268544 60 0 0 0 25.35157
-0.080887407 22.912537 4.7050471 135 0 0 0 24.567841
0.47635201 22.686064 4.6611729 5 0 0 0 24.958521
-0.64970315 23.157549 4.7554688 70 0 0 0 24.16972
-2.4343367 23.882437 4.922307 99 0 0 0 22.99872
-1.8262295 23.648386 4.8652129 86 0 0 0 23.39975
-3.0532568 24.08712 4.9765906 80 0 0 0 22.6136
-5.7455215 25.216698 4.6577044 64 0 0 0 21.056351
-5.0587859 25.01668 4.5982647 71 0 0 0 21.44985
-6.4966803 25.604174 4.7551131 36 0 0 0 20.6651
-30.993668 -39.724361 5.3569188 6 0 0 0 85.112206
-30.146395 -36.743183 5.0541787 7 0 0 0 85.510254
-24.938156 -20.483923 5.0311713 16 0 0 0 88.633965
-27.898985 -18.66021 5.2299547 8 0 0 0 90.209923
-28.033268 -17.77051 5.1719913 9 0 0 0 90.6035
-28.59936 -17.160557 5.196825 9 0 0 0 90.989594
37.08519 -16.446314 5.3328152 6 0 0 0 56.1819
3.8352857 -15.351008 5.2299452 36 0 0 0 70.658653
4.2659879 -15.452317 5.2981815 20 0 0 0 70.265915
17.915033 -14.71372 5.3554339 91 0 0 0 60.482368
19.109179 -14.928837 5.005558 73 0 0 0 60.094421
3.9773612 -14.391541 5.3033776 35 0 0 0 70.265915
4.3852925 -14.483768 5.1891232 30 0 0 0 69.872841
5.1137629 -14.325184 5.0292487 24 0 0 0 69.090675
4.5612416 -13.826336 5.1723957 84 0 0 0 69.485085
-8.0426512 -12.720428 5.3315921 104 0 0 0 83.555641
21.284546 -12.770232 5.1211982 55 0 0 0 58.145569
-8.5460272 -12.154249 5.2635021 153 0 0 0 84.330528
-8.5664825 -11.569948 5.27738 116 0 0 0 84.717857
-8.8719702 -11.38802 5.4679275 66 0 0 0 85.112206
31.751869 -9.6372023 5.1895409 17 0 0 0 54.242207
48.318806 -8.3933821 5.2266393 7 0 0 0 52.290089
11.446461 -7.255187 5.1525803 18 0 0 0 58.538433
13.286232 -6.6912146 5.2867241 17 0 0 0 56.969433
23.953003 -6.6341925 5.1257992 17 0 0 0 53.850319
14.134719 -6.2733684 5.1142406 53 0 0 0 56.1819
13.758464 -5.7006021 5.2927399 44 0 0 0 55.795879
29.845188 -5.1805558 5.4908867 20 0 0 0 52.290089
13.326929 -4.7694097 5.0328145 22 0 0 0 55.017113
13.754823 -4.5439849 5.1496315 94 0 0 0 54.633839
18.634321 -4.6693702 5.3930001 183 0 0 0 53.464138
12.756047 -4.2147384 5.1090317 51 0 0 0 54.633839
13.289576 -4.0309939 5.2799215 81 0 0 0 54.242207
13.92041 -4.2219696 5.1710758 157 0 0 0 54.242207
18.512516 -4.1581693 5.3271194 18 0 0 0 53.067902
28.532671 -4.2337437 5.2306418 61 0 0 0 51.893341
13.260452 -3.668685 5.231472 61 0 0 0 53.850319
14.036637 -3.8829906 5.1772442 80 0 0 0 53.850319
24.017366 -3.5643463 5.0079722 24 0 0 0 51.893341
12.9393 -3.2397203 5.0733705 64 0 0 0 53.464138
18.150331 -3.1490271 5.1734242 30 0 0 0 52.290089
23.008369 -3.410542 5.3694963 23 0 0 0 51.893341
24.843895 -3.0646808 5.1618075 66 0 0 0 51.511581
18.61186 -2.2931509 5.2658215 21 0 0 0 51.511581
29.046957 -2.1407394 5.281486 54 0 0 0 50.720478
32.815788 -2.4185016 5.1456552 19 0 0 0 50.720478
13.36472 -1.9777416 5.1385632 46 0 0 0 51.893341
13.773762 -1.6927396 5.2771354 35 0 0 0 51.511581
18.819124 -1.3837278 5.2988601 19 0 0 0 50.720478
17.926075 -0.87543994 5.0422525 19 0 0 0 50.330368
18.525309 -0.44830075 5.204813 16 0 0 0 49.946033
18.740656 0.46883127 5.265276 8 0 0 0 49.158928
23.4231 0.0088434229 5.4078674 18 0 0 0 49.551781
13.169442 0.66007513 5.0182562 61 0 0 0 48.774406
19.46361 1.4470979 5.4802461 48 0 0 0 48.38596
23.014708 1.1416781 5.3212075 22 0 0 0 48.774406
15.725162 1.9524031 5.2423182 18 0 0 0 47.600128
21.109741 2.0921607 5.4244866 53 0 0 0 47.997009
31.936005 2.3645992 5.009933 22 0 0 0 48.38596
19.736092 2.9428089 5.1057053 17 0 0 0 47.209167
40.118427 2.9688766 5.2858672 33 0 0 0 48.38596
14.805047 3.342721 5.0240631 45 0 0 0 46.039021
32.054707 3.1672354 5.0391922 25 0 0 0 47.997009
19.672577 4.4371138 5.160151 25 0 0 0 46.039021
20.156292 4.0275011 5.2583246 82 0 0 0 46.43671
29.949654 4.4552498 5.4905906 35 0 0 0 47.209167
12.379351 5.1618562 5.1059833 54 0 0 0 43.313911
11.870773 5.6523514 5.0064268 27 0 0 0 42.534248
