# .PCD v0.7 - Point Cloud Data file format
VERSION 0.7
FIELDS x y z intensity normal_x normal_y normal_z curvature
SIZE 4 4 4 4 4 4 4 4
TYPE F F F F F F F F
COUNT 1 1 1 1 1 1 1 1
WIDTH 897
HEIGHT 1
VIEWPOINT 0 0 0 1 0 0 0
POINTS 897
DATA ascii
-6.1896019 -10.927558 -0.79776901 247 0 0 0 82.819038
-5.769001 -10.793768 -0.77631694 258 0 0 0 82.421524
-5.2615914 -10.78023 -0.76000154 199 0 0 0 81.83168
-4.796495 -10.818719 -0.74902779 320 0 0 0 81.250145
-4.2853565 -10.708776 -0.72900832 343.5 0 0 0 80.653778
-3.6547089 -10.616966 -0.70853782 226.5 0 0 0 79.879974
-3.2567019 -10.725951 -0.70715529 356 0 0 0 79.288872
-2.7946639 -10.585147 -0.68980467 366 0 0 0 78.705956
-1.5640587 -10.506258 -0.66820973 196 0 0 0 76.947685
2.3825135 -10.667047 -0.69109356 372 0 0 0 71.072868
-4.835999 -10.224264 -0.99402535 293 0 0 0 81.636147
-4.3225036 -10.077818 -0.96250057 291 0 0 0 81.049385
-3.8012321 -10.219236 -0.95663792 233 0 0 0 80.268013
-3.1960721 -10.077298 -0.92631125 318.5 0 0 0 79.485855
-2.1742079 -10.245646 -0.78564334 328.75 0 0 0 77.925751
-1.7937925 -10.308486 -0.6576277 335 0 0 0 77.336411
-1.1646471 -10.439201 -0.660519 347.5 0 0 0 76.355522
-0.6395095 -10.285429 -0.64749849 363.5 0 0 0 75.576752
-0.13300131 -10.144073 -0.63707483 408 0 0 0 74.792389
0.23776507 -10.038912 -0.63037008 349 0 0 0 74.202629
0.85931605 -10.086794 -0.63625634 301.5 0 0 0 73.223213
1.2293102 -10.052871 -0.63678241 529 0 0 0 72.641319
3.9211385 -10.206352 -0.69316107 46 0 0 0 68.729263
4.1848397 -10.142739 -0.69607222 573 0 0 0 68.341438
-2.7588131 -9.9573107 -0.90435129 309 0 0 0 78.901955
-2.4835689 -9.9002657 -0.89290702 192 0 0 0 78.509956
-1.7354528 -9.9726114 -0.88525248 330 0 0 0 77.336411
-1.3457136 -9.8610287 -0.86989141 367.5 0 0 0 76.748756
-0.84407806 -9.7205849 -0.85223192 340.5 0 0 0 75.969307
-0.24833278 -9.807003 -0.85743779 281 0 0 0 74.986961
0.39223406 -9.7877626 -0.77390605 379.33334 0 0 0 73.944374
0.81295967 -9.5573854 -0.83808738 461.5 0 0 0 73.223213
1.4703552 -9.9869232 -0.63478261 581 0 0 0 72.245453
4.2414436 -9.9332676 -0.95209563 289.5 0 0 0 68.142807
4.95364 -9.877265 -0.83854383 506.5 0 0 0 67.168625
5.7841473 -9.6835651 -0.85841691 413.5 0 0 0 65.986549
6.204565 -9.5679598 -0.72793096 584 0 0 0 65.405319
1.2689276 -9.4237442 -0.83088207 475 0 0 0 72.44339
1.7521077 -9.2671623 -0.66673535 296.33334 0 0 0 71.600967
2.0750024 -9.2956743 -0.83302981 462 0 0 0 71.072868
5.9930983 -9.0006342 -0.9561497 245 0 0 0 65.213463
6.6333566 -9.449501 -0.73803365 659 0 0 0 64.811562
7.2144599 -9.2740211 -0.75265616 435 0 0 0 64.039795
7.8337622 -9.1099176 -0.77142745 576 0 0 0 63.251671
11.272111 -9.276824 -0.94920814 315 0 0 0 60.50388
1.5241332 -8.8397102 -0.89069599 313.5 0 0 0 71.864517
5.644701 -8.9459028 -0.93412614 261 0 0 0 65.597168
6.1813226 -8.8073244 -0.95169371 261 0 0 0 64.811562
8.4567137 -8.9097042 -0.79052091 418 0 0 0 62.4697
9.1427555 -8.7310143 -0.81564796 335 0 0 0 61.686447
9.6897449 -8.5918684 -0.51989239 317 0 0 0 61.097885
1.751507 -8.3105927 -0.94820994 444 0 0 0 71.271027
2.0280025 -8.1418123 -0.72868592 196 0 0 0 70.682602
4.6028433 -8.1573582 -0.59051663 247 0 0 0 66.38105
6.4012094 -8.2311583 -0.92200571 304 0 0 0 64.039795
6.933578 -8.0655613 -0.94210535 308 0 0 0 63.251671
2.2180228 -7.7647543 -0.73969376 258.79999 0 0 0 70.137405
2.9468479 -7.6739106 -0.81604737 141.5 0 0 0 68.729263
3.0965109 -7.5052848 -0.90664482 412 0 0 0 68.341438
-5.4930215 -7.0492754 -0.99923116 94 0 0 0 85.153397
2.3287709 -7.2774577 -0.84650654 308.33334 0 0 0 69.636894
2.5915132 -7.278223 -0.76490808 17.5 0 0 0 69.119728
3.3389394 -7.2036152 -0.73793304 395.75 0 0 0 67.651062
3.5339077 -7.0477853 -0.88025415 667 0 0 0 67.168625
4.1101685 -7.2870054 -0.73057091 241 0 0 0 66.38105
6.7401528 -7.1050978 -0.86548996 422 0 0 0 62.4697
7.0436282 -7.0688682 -0.88300884 392 0 0 0 62.08139
-5.6671934 -6.7464237 -0.9850052 159 0 0 0 85.74057
2.3756788 -6.9417682 -0.99713713 503.5 0 0 0 69.312187
2.635262 -6.8659277 -0.99989372 466 0 0 0 68.729263
3.6671028 -6.7518182 -0.79513758 644.66669 0 0 0 66.64637
4.2967401 -6.808146 -0.90114242 589 0 0 0 65.59906
4.8221807 -6.6109691 -0.76534629 548.25 0 0 0 64.519936
5.5320749 -6.7674165 -0.65950704 292.5 0 0 0 63.646019
7.2613668 -6.9381056 -0.88936007 436 0 0 0 61.686447
7.7684669 -6.7248659 -0.91162449 250 0 0 0 60.902599
-6.081996 -6.0928926 -0.96226668 109 0 0 0 87.115593
-5.9084721 -6.3714457 -0.97133946 143 0 0 0 86.530457
-3.7096214 -6.1971855 -0.97880393 160.33333 0 0 0 83.203743
-3.4551456 -6.4697347 -0.99411464 33 0 0 0 82.421524
-1.6021938 -6.06633 -0.99535024 71.5 0 0 0 78.705956
-1.3795017 -6.1244278 -0.99585652 35 0 0 0 78.121277
5.2424173 -6.2517986 -0.9159354 371 0 0 0 63.449715
5.7972665 -6.3189182 -0.74987656 447.66666 0 0 0 62.730808
6.3263636 -6.3505864 -0.56763709 387 0 0 0 62.08139
6.8608146 -6.2417269 -0.70607525 410.5 0 0 0 61.293167
7.148037 -6.1888509 -0.60191697 192 0 0 0 60.902599
7.8625631 -6.315516 -0.89487886 453.5 0 0 0 60.310478
8.1592875 -6.073215 -0.77697027 368 0 0 0 59.734489
10.725614 -6.4496346 -0.81161976 260 0 0 0 58.162441
11.808525 -6.3320827 -0.8723712 161 0 0 0 57.380688
-9.4126177 -5.6482377 -0.96982223 56 0 0 0 91.033989
-6.2166204 -5.7864876 -0.94922119 89 0 0 0 87.705055
-4.2084069 -5.683352 -0.95814782 105 0 0 0 84.761971
-3.9311225 -5.8906021 -0.95904714 90 0 0 0 83.975471
-2.2752819 -5.6876307 -0.97133642 89.25 0 0 0 80.658699
-1.9509128 -5.8981209 -0.98510826 89 0 0 0 79.682846
4.5483665 -5.5660319 -0.98061138 214 0 0 0 63.646019
5.9389129 -5.9589968 -0.94660902 557 0 0 0 62.08139
6.2921047 -5.8635783 -0.9692111 564.5 0 0 0 61.489807
6.6582899 -5.762269 -0.99369079 445 0 0 0 60.902599
7.4767675 -5.8567796 -0.60562927 298 0 0 0 60.117081
8.3109236 -5.7736688 -0.73264378 365 0 0 0 59.204895
8.8304892 -5.921442 -0.94676667 487 0 0 0 58.948112
9.186779 -5.7314277 -0.87679362 489 0 0 0 58.426041
9.8374996 -5.5925283 -0.86884916 397 0 0 0 57.776001
11.878854 -5.9989371 -0.86665118 137 0 0 0 56.987019
-9.3901281 -5.1761208 -0.94701076 87.5 0 0 0 91.611618
-4.5808334 -5.1893053 -0.93750662 99 0 0 0 86.138229
-4.4312377 -5.40769 -0.94694239 127 0 0 0 85.541664
-3.1131449 -5.0554342 -0.94052911 130 0 0 0 83.396103
-2.7782037 -5.3561153 -0.9564538 102.75 0 0 0 82.225975
-1.5240703 -5.0192509 -0.95752949 22 0 0 0 79.288872
-1.2288746 -5.1699514 -0.97090262 48.25 0 0 0 78.315849
-0.72896081 -5.3309822 -0.98366702 56.75 0 0 0 76.748787
-0.20655166 -5.4360647 -0.99522936 37.75 0 0 0 75.18457
0.32517073 -5.4249034 -0.99433708 43.5 0 0 0 73.617035
0.7161299 -5.3465395 -0.98741031 54 0 0 0 72.444725
1.2340008 -5.2460213 -0.98715568 74 0 0 0 70.879852
1.7324909 -5.073842 -0.98273671 88.25 0 0 0 69.313751
3.4492197 -5.1918321 -0.99441582 162 0 0 0 65.213463
3.5433462 -5.0600557 -0.98550695 168 0 0 0 64.811562
4.7953267 -5.3134198 -0.97719741 248.33333 0 0 0 62.860912
5.1212244 -5.1429272 -0.99196422 271 0 0 0 62.08139
11.562551 -5.1433225 -0.82329851 154 0 0 0 56.203979
-20.266487 -4.5549378 -0.85399795 16 0 0 0 96.101532
-9.3067417 -4.6908565 -0.91988361 106 0 0 0 92.186348
-4.7970943 -4.8068051 -0.91965288 155.33333 0 0 0 87.116631
-3.5492909 -4.552722 -0.91395879 139 0 0 0 85.153397
-3.3380871 -4.7430263 -0.91834307 106 0 0 0 84.369324
-2.134568 -4.6629977 -0.93558222 79.5 0 0 0 81.443146
-1.8130075 -4.8771505 -0.94994164 67 0 0 0 80.266876
-0.73861986 -4.5651388 -0.95296752 11.25 0 0 0 77.141045
-0.23323086 -4.6181827 -0.95335662 18 0 0 0 75.379898
0.27305406 -4.5932922 -0.94872183 9.75 0 0 0 73.616074
0.71930337 -4.5317817 -0.94652361 9.5 0 0 0 72.055115
2.252032 -4.7942371 -0.97177202 95.800003 0 0 0 67.557327
2.6317444 -4.5436726 -0.96343887 74 0 0 0 66.1838
3.7828445 -4.7552981 -0.97000062 187.5 0 0 0 63.840057
10.397234 -4.9354239 -0.74522072 146 0 0 0 56.59938
-9.2999649 -4.2662563 -0.90298927 110.5 0 0 0 92.773331
-6.7009344 -4.0263553 -0.87277782 155 0 0 0 91.033989
-4.9502811 -4.495398 -0.90518415 148 0 0 0 87.899727
-3.7591822 -4.2578807 -0.89938766 103 0 0 0 86.135506
-2.6975288 -4.1541171 -0.90312648 76.25 0 0 0 83.784752
-2.3636553 -4.4261804 -0.91488481 86.333336 0 0 0 82.422585
-1.5976944 -4.1413021 -0.91299504 22.666666 0 0 0 80.461555
-1.2128204 -4.3791404 -0.93584859 10.8 0 0 0 78.900986
-0.10482186 -4.0442538 -0.92800754 10 0 0 0 74.986961
0.28840727 -4.0102549 -0.92284089 11.2 0 0 0 73.421127
0.99533188 -4.4835262 -0.94747651 25 0 0 0 71.072868
1.2558928 -4.3758068 -0.93969703 22.25 0 0 0 70.09584
1.7375071 -4.230237 -0.94537336 23 0 0 0 68.337585
2.066144 -4.0130677 -0.93295282 20 0 0 0 66.973831
2.8811042 -4.3409076 -0.95651692 108.33334 0 0 0 65.207397
3.0856216 -4.0806313 -0.93921214 43 0 0 0 64.231262
4.1608772 -4.2899213 -0.95476997 201.25 0 0 0 62.274727
5.737823 -4.2753444 -0.97987443 180.66667 0 0 0 59.728287
-6.7567282 -3.7289004 -0.86157709 158 0 0 0 91.611618
-4.051682 -3.6800425 -0.86593741 82 0 0 0 87.896599
-3.8746037 -3.8804626 -0.86706996 27 0 0 0 87.115593
-3.0953679 -3.6883698 -0.8775478 38.5 0 0 0 85.742882
-2.9067535 -3.9256432 -0.89006793 35 0 0 0 84.761192
-2.2266543 -3.7197948 -0.89168584 17.799999 0 0 0 83.201645
-1.8728937 -3.9607084 -0.90080971 19.666666 0 0 0 81.637833
-1.147507 -3.7793519 -0.90469772 8 0 0 0 79.291222
-0.77716017 -3.8946147 -0.91027004 9.3999996 0 0 0 77.729111
-0.39572409 -3.969147 -0.91420561 9 0 0 0 76.162811
0.74753958 -3.9328995 -0.9194544 6.5 0 0 0 71.565445
1.2466549 -3.8122005 -0.92235464 14.75 0 0 0 69.511276
1.634235 -3.5997415 -0.90923971 17.25 0 0 0 67.7519
2.3479574 -3.8406804 -0.93144065 44.75 0 0 0 65.794556
2.573442 -3.587647 -0.91343415 61 0 0 0 64.617142
3.306324 -3.856411 -0.93321514 65 0 0 0 63.253021
3.5548296 -3.6659741 -0.9390046 139 0 0 0 62.275543
4.3996825 -3.9128242 -0.9408533 63.5 0 0 0 61.097885
4.5622301 -3.6729407 -0.93642414 195 0 0 0 60.310478
5.9228158 -3.7681682 -0.96166134 311.33334 0 0 0 58.556133
8.0082874 -3.5622962 -0.99348962 257 0 0 0 56.203979
-13.396488 -3.0123351 -0.88836741 41 0 0 0 96.101532
-6.864222 -3.2564008 -0.84838176 169 0 0 0 92.577667
-5.4018068 -3.1566801 -0.84640527 118 0 0 0 91.224426
-3.5248735 -3.0480535 -0.84876895 39 0 0 0 88.279694
-3.3815126 -3.3080378 -0.86209428 23.25 0 0 0 87.312401
-2.6829522 -3.277251 -0.87097275 30.4 0 0 0 85.546547
-2.4576693 -3.4945703 -0.87793082 12 0 0 0 84.371323
1.8400596 -3.4712772 -0.90363848 31 0 0 0 66.779037
2.0429983 -3.3425846 -0.90166885 36.5 0 0 0 65.791855
2.831368 -3.3084576 -0.90193748 82.800003 0 0 0 63.253712
3.0304534 -3.0528853 -0.89088523 98 0 0 0 62.08139
3.7359269 -3.2453709 -0.91051644 129 0 0 0 60.900635
4.7589321 -3.2861571 -0.92538667 222.5 0 0 0 59.143433
6.0709777 -3.2606862 -0.94439036 249 0 0 0 57.381237
7.9770637 -3.0883529 -0.96941626 544 0 0 0 55.430141
8.0222321 -3.3347876 -0.98477751 288 0 0 0 55.823158
-6.9376016 -2.8823881 -0.83884418 136 0 0 0 93.367767
-5.4570975 -2.7560985 -0.8268854 123.66666 0 0 0 92.189026
-4.541913 -2.5788033 -0.82618481 38 0 0 0 91.414864
-4.4258785 -2.8094842 -0.82913446 70 0 0 0 90.642586
-3.6904736 -2.7483969 -0.83925134 24.5 0 0 0 89.463425
-3.0873108 -2.6704395 -0.83878779 13.666667 0 0 0 88.285797
-2.9107234 -2.9174111 -0.8466773 25 0 0 0 87.116631
3.1698189 -2.7571335 -0.87072623 59 0 0 0 60.900635
3.9177887 -2.7078257 -0.87604791 115.25 0 0 0 59.143433
4.8586407 -2.7709796 -0.89476109 200.33333 0 0 0 57.773045
6.160522 -2.7458668 -0.92451239 261 0 0 0 56.208843
7.9280224 -2.7383091 -0.95042294 216 0 0 0 54.842293
38.497456 -2.8562412 -0.70378524 18 0 0 0 50.74786
-9.1010647 -2.0478044 -0.8225708 87 0 0 0 96.101532
-5.6004105 -2.3276489 -0.82070303 199 0 0 0 93.369476
-4.6830111 -2.2914147 -0.82549798 41.75 0 0 0 92.385345
-4.025526 -2.0329156 -0.82212883 19 0 0 0 92.186348
-3.8841949 -2.2716372 -0.82002759 23.75 0 0 0 91.225525
-3.3248544 -2.2284513 -0.82338685 19.5 0 0 0 90.248695
3.3803844 -2.2781062 -0.84524858 48.799999 0 0 0 58.947235
3.9742789 -2.3982911 -0.85338122 86 0 0 0 58.162441
4.0300999 -2.1697867 -0.84174085 94 0 0 0 57.381237
4.8685236 -2.2470489 -0.85750675 174 0 0 0 56.403385
6.0594163 -2.1810465 -0.88202971 201.33333 0 0 0 55.038242
7.7996354 -2.2717075 -0.92001379 200.5 0 0 0 54.064964
-9.0270653 -1.7993729 -0.81144142 170 0 0 0 96.484352
-7.0024419 -1.5791332 -0.80164808 189 0 0 0 96.101532
-4.7995768 -1.9241978 -0.81884074 48 0 0 0 93.567062
-4.0686827 -1.7508663 -0.80765152 30 0 0 0 93.170197
-3.5682602 -1.6941055 -0.81287652 15.2 0 0 0 92.581833
-3.4516895 -1.961558 -0.81608707 15 0 0 0 91.414864
3.4481361 -1.9693599 -0.82283062 48 0 0 0 57.776001
3.5393991 -1.7429922 -0.81832087 37 0 0 0 56.792767
4.1143231 -1.7782162 -0.82467043 77 0 0 0 56.014168
4.8705058 -1.7564551 -0.82758886 110.66666 0 0 0 55.038242
5.964005 -1.7398331 -0.85020983 190 0 0 0 54.064964
7.6312323 -1.8210045 -0.88785565 183.5 0 0 0 53.280235
-7.0016627 -1.3990493 -0.79742646 91 0 0 0 96.484352
-5.807312 -1.3095126 -0.80650085 117 0 0 0 96.099403
-5.1750865 -1.2325042 -0.84484363 81.5 0 0 0 95.906937
-4.1832967 -1.0523293 -0.78656107 18 0 0 0 95.712334
-3.6420584 -1.4100277 -0.80339569 21 0 0 0 93.76635
4.1163282 -1.2607845 -0.79203904 30.799999 0 0 0 54.257629
4.8158007 -1.2812515 -0.79624081 65 0 0 0 53.6726
5.829782 -1.2443166 -0.81535184 131 0 0 0 52.891289
7.3637757 -1.2860798 -0.84502935 165.33333 0 0 0 52.305309
10.094457 -1.0022806 -0.90824515 147 0 0 0 51.136391
10.682581 -1.3267039 -0.83179498 456 0 0 0 51.520527
-4.9007597 -0.91503155 -0.78979218 46 0 0 0 96.679794
-4.2139907 -0.84252435 -0.784015 22 0 0 0 96.487038
4.0707788 -0.71354377 -0.7600649 18.799999 0 0 0 52.304649
4.7100334 -0.76699376 -0.7618739 51 0 0 0 52.109112
5.6305752 -0.70125222 -0.77500695 123 0 0 0 51.522724
7.0955873 -0.70450091 -0.80507183 177 0 0 0 51.13493
9.9040899 -0.73778719 -0.8886981 150 0 0 0 50.74786
4.0969648 -0.20489331 -0.75497818 38.200001 0 0 0 50.352161
4.6844416 -0.23507276 -0.74913615 82.599998 0 0 0 50.352161
5.4667335 -0.40704769 -0.74779356 144 0 0 0 50.74786
5.5081058 -0.13756375 -0.75215727 167 0 0 0 49.958851
6.8511958 -0.17104115 -0.7728669 208 0 0 0 49.958851
9.340374 -0.12066794 -0.83419859 199 0 0 0 49.762695
9.6433105 -0.48007077 -0.86321652 177 0 0 0 50.351158
41.663296 -0.015345217 -0.76288652 27 0 0 0 49.567753
-5.8226428 0.35358715 -0.76375628 72 0 0 0 0.57783002
-4.9431348 0.36111903 -0.75901771 17.333334 0 0 0 0.77546334
-4.3155875 0.30862182 -0.74909806 17 0 0 0 0.77546334
4.0662136 0.24998042 -0.74969351 22.25 0 0 0 48.596542
4.6461501 0.28462416 -0.74329323 55.25 0 0 0 48.596542
5.4716773 0.26873237 -0.74773425 127.33334 0 0 0 48.790119
6.7301202 0.33144072 -0.75934887 204.66667 0 0 0 48.790119
9.102355 0.33168095 -0.81251061 197.5 0 0 0 48.985878
10.259751 0.2475528 -0.6650871 992 0 0 0 49.185768
-8.81036 0.86342329 -0.74948388 37 0 0 0 1.17073
-6.953876 0.67688107 -0.7529394 44 0 0 0 1.1661
-5.6950064 0.76273549 -0.75168848 51.25 0 0 0 1.752625
-4.7964301 0.76074338 -0.7428776 47 0 0 0 2.1438725
-4.1138749 0.75063139 -0.73631024 16.666666 0 0 0 2.5341983
3.945596 0.84076637 -0.74204332 22 0 0 0 46.25626
4.0274634 0.55009711 -0.74776018 28.5 0 0 0 47.425495
4.5634618 0.73700428 -0.73787433 53.25 0 0 0 47.035942
5.4010515 0.73647004 -0.74391347 112.5 0 0 0 47.427315
6.6336455 0.82173663 -0.75287628 170.66667 0 0 0 47.622265
8.8833275 0.76311362 -0.79451555 206.5 0 0 0 48.207199
37.230824 0.90115976 -0.67794096 36 0 0 0 49.185768
-12.496254 1.2283258 -0.77217054 36 0 0 0 1.17073
-8.6814337 1.278803 -0.74254686 146 0 0 0 1.9465899
-6.7496762 1.2409397 -0.73881972 133 0 0 0 2.53549
-5.5665755 1.2329192 -0.74548793 121.33334 0 0 0 3.1218064
-5.4674554 1.4924054 -0.74075937 139 0 0 0 3.8966501
-4.6183777 1.1978544 -0.72930056 53.25 0 0 0 3.7050653
-4.4483347 1.4462067 -0.71406925 61 0 0 0 4.67801
-3.8958035 1.2614031 -0.72045916 19 0 0 0 4.6777382
3.7734332 1.2566571 -0.73100239 35 0 0 0 44.495979
4.4299135 1.2335953 -0.73375851 75.599998 0 0 0 45.277393
5.2795577 1.2611449 -0.74037564 124.5 0 0 0 45.865032
6.4929171 1.4655237 -0.74905473 187 0 0 0 46.061859
6.5445032 1.2243986 -0.7494868 186.5 0 0 0 46.646385
8.6714621 1.286297 -0.78046387 231.66667 0 0 0 47.231152
-18.27033 1.7998922 -0.6997804 18 0 0 0 1.17073
-12.388142 1.6772726 -0.76840758 54 0 0 0 1.750805
-8.5432367 1.6872529 -0.73632586 147 0 0 0 2.7357199
-8.4492893 1.8832873 -0.73170191 128 0 0 0 3.12256
-6.5376997 1.7025203 -0.72646546 176.5 0 0 0 3.701895
-6.4228892 1.9249567 -0.72074479 194 0 0 0 4.29391
-5.2910829 1.7939264 -0.73015261 127 0 0 0 4.8730097
-4.289341 1.7465725 -0.70750606 44.200001 0 0 0 5.8455057
-3.6577606 1.6951351 -0.70955944 19.6 0 0 0 6.6254601
3.4263356 1.9626524 -0.72399837 48 0 0 0 41.369289
3.5679669 1.7053295 -0.72607362 46 0 0 0 42.54467
4.2008677 1.7535763 -0.72548181 112.4 0 0 0 43.326244
5.0900817 1.7622671 -0.7339946 178 0 0 0 44.300583
6.4098148 1.7832614 -0.74859196 222.66667 0 0 0 45.278545
8.4645386 1.795418 -0.76948059 230.5 0 0 0 46.256088
40.926952 1.9973096 -0.74897796 17 0 0 0 48.785992
-12.129892 2.2484994 -0.75754547 55.5 0 0 0 2.5369401
-8.2187538 2.2556484 -0.7199297 182.66667 0 0 0 3.8992336
-6.2981739 2.2258966 -0.7182281 193.33333 0 0 0 5.0660434
-5.0469728 2.1314702 -0.71534419 108.5 0 0 0 6.0423751
-4.8771772 2.3443999 -0.70639515 114 0 0 0 6.8173847
-4.082099 2.0811443 -0.69983089 48.5 0 0 0 7.2099447
-3.8607137 2.3345392 -0.68936771 57.75 0 0 0 8.3836823
3.28245 2.1610458 -0.72024584 28.75 0 0 0 40.39492
3.8833902 2.2838807 -0.71655244 96.5 0 0 0 41.175697
4.0692573 2.0657172 -0.7264393 134 0 0 0 42.152233
4.8716626 2.2477076 -0.7303046 217 0 0 0 42.739571
6.2085667 2.2342269 -0.7416501 228.66667 0 0 0 44.104885
8.3513794 2.2069335 -0.76775539 256.5 0 0 0 45.473972
-11.843991 2.7989755 -0.7466858 53 0 0 0 3.3148499
-8.0618811 2.6413913 -0.71639758 210 0 0 0 4.67801
-7.9801455 2.8314912 -0.71505851 197 0 0 0 5.0676198
-6.1017141 2.582855 -0.71231186 196 0 0 0 6.0423751
-5.9270597 2.8560767 -0.7073518 192 0 0 0 6.8173847
-4.6267085 2.6532116 -0.69648427 146.25 0 0 0 7.9938755
-4.3680162 2.9473381 -0.68815756 141 0 0 0 9.1621647
-3.6320438 2.6423407 -0.68700308 78.333336 0 0 0 9.7486162
-3.3233299 2.8777916 -0.67269766 76.25 0 0 0 11.11334
3.3513641 2.7830076 -0.69081807 58.599998 0 0 0 38.637779
3.6681304 2.5424328 -0.70872688 59.5 0 0 0 40.005619
4.310946 2.9063375 -0.70519215 138.33333 0 0 0 40.200909
4.5957742 2.6249132 -0.71913481 180.66667 0 0 0 41.370438
5.8781762 2.797631 -0.73044968 261 0 0 0 42.545238
6.0837598 2.5355926 -0.74024123 297 0 0 0 43.322552
8.1802416 2.710952 -0.76544142 237.66667 0 0 0 44.493595
-17.61549 3.4968157 -0.68288088 15 0 0 0 2.7357199
-11.580791 3.3411732 -0.7391113 62.5 0 0 0 4.0952802
-7.8518062 3.2249205 -0.71729761 217.66667 0 0 0 5.8457503
-5.6819792 3.268872 -0.70547414 220 0 0 0 7.9938755
-4.1302838 3.1678925 -0.68008608 144 0 0 0 10.13969
-3.8408899 3.4173534 -0.67207927 160.33333 0 0 0 11.307607
-3.0773807 3.0849009 -0.66717589 96.5 0 0 0 12.27616
-2.7452962 3.2645078 -0.65380132 73.800003 0 0 0 13.651495
-2.4400158 3.4611683 -0.64979106 69.5 0 0 0 15.022205
2.4375095 3.4350419 -0.66431189 72 0 0 0 34.533314
2.7552187 3.2434716 -0.67275506 85 0 0 0 35.9007
3.0794845 3.0454559 -0.68560219 78 0 0 0 37.26931
3.7461081 3.3488989 -0.6795969 146.25 0 0 0 38.051517
4.0755816 3.1324463 -0.69630748 137.5 0 0 0 39.222771
5.3049197 3.384326 -0.70368415 255 0 0 0 40.588367
5.5969296 3.1021662 -0.71675414 214 0 0 0 41.567181
8.1535482 3.2717776 -0.78024447 245 0 0 0 43.522049
-17.473251 3.9147646 -0.6806432 17 0 0 0 3.12256
-11.263539 3.8534307 -0.72959924 76.5 0 0 0 4.8728151
-7.6590271 3.7051458 -0.71937525 255.5 0 0 0 6.8173847
-7.4764562 3.9603889 -0.71536428 263 0 0 0 7.4077802
-5.3117795 3.7864273 -0.70288604 249.75 0 0 0 9.553215
-3.5692878 3.5873275 -0.66159105 191 0 0 0 12.27616
-3.2194512 3.8395736 -0.65625441 177.60001 0 0 0 13.651497
-2.1800926 3.6313722 -0.65135515 74.5 0 0 0 16.187792
-1.7608315 3.8306198 -0.65023601 53.400002 0 0 0 17.945562
-1.361761 3.9362133 -0.64340061 50.666668 0 0 0 19.50721
0.8876707 3.959199 -0.63405359 45.5 0 0 0 28.282913
1.2395723 3.9054935 -0.64218086 52 0 0 0 29.652887
1.7263138 3.7531738 -0.64925402 38.400002 0 0 0 31.605541
2.1596394 3.5797553 -0.65857702 53.75 0 0 0 33.3573
2.7923949 3.926748 -0.64836848 144.5 0 0 0 34.531567
3.2664802 3.6523566 -0.66113311 144.2 0 0 0 36.292034
4.7370014 3.8236856 -0.67890179 231.75 0 0 0 38.832878
5.056582 3.5909636 -0.69247586 248 0 0 0 39.814568
7.4232759 3.9853523 -0.74551934 248 0 0 0 41.765072
7.8036218 3.7036903 -0.7659604 247.33333 0 0 0 42.545238
-17.23 4.3049927 -0.67467642 22 0 0 0 3.5071399
-11.008399 4.2226691 -0.7223112 107 0 0 0 5.4524999
-10.84479 4.4663606 -0.71842676 108 0 0 0 5.8459001
-7.2271571 4.2914009 -0.71102411 206 0 0 0 8.1892405
-5.0126519 4.0553966 -0.6947403 221 0 0 0 10.53054
-4.7435222 4.2346339 -0.68531346 260.33334 0 0 0 11.307607
-4.4070525 4.4446602 -0.67464155 273.5 0 0 0 12.27616
-2.7456045 4.1175447 -0.649203 185.25 0 0 0 15.412872
-2.2569859 4.3540239 -0.64494765 211 0 0 0 17.160265
-1.9188067 4.4792361 -0.64144033 137 0 0 0 18.336281
-1.1194413 4.0196095 -0.64553297 48.5 0 0 0 20.487335
-0.76089489 4.0474157 -0.63833493 24.200001 0 0 0 21.844961
-0.25858051 4.0962644 -0.63795698 34.200001 0 0 0 23.797394
0.24625543 4.0845122 -0.6377672 21.799999 0 0 0 25.751026
0.6473586 4.0393128 -0.63876468 36.333332 0 0 0 27.312902
1.3054378 4.4759707 -0.62238437 94 0 0 0 29.261003
1.7520244 4.351491 -0.62788785 80.400002 0 0 0 30.825607
2.2424846 4.1622458 -0.63425475 79 0 0 0 32.579514
2.5345643 4.0784273 -0.64512533 101 0 0 0 33.551842
3.4621572 4.4968257 -0.62833506 220 0 0 0 35.119232
3.7912393 4.3378105 -0.63921517 237 0 0 0 36.096066
4.2632489 4.1006007 -0.65789229 232.66667 0 0 0 37.465336
6.7407351 4.4079294 -0.71007049 462 0 0 0 40.394081
7.161953 4.1929512 -0.73339689 227.5 0 0 0 41.173119
10.741592 4.4595733 -0.75480944 30 0 0 0 43.322552
-16.995476 4.6904879 -0.66946507 76 0 0 0 3.8966501
-10.601906 4.8270292 -0.71357656 96.5 0 0 0 6.4307551
-6.8512802 4.7777944 -0.70713645 233.66667 0 0 0 9.358737
-4.1233582 4.5846653 -0.66468179 289 0 0 0 13.06188
-3.7561333 4.7247977 -0.65075952 307.33334 0 0 0 14.044574
-3.2624292 4.9099159 -0.6360572 253.75 0 0 0 15.412872
-1.6867948 4.5375733 -0.63797808 112 0 0 0 19.120136
-1.2782174 4.6152844 -0.63224113 103 0 0 0 20.484838
-0.75768548 4.704433 -0.63069671 67.199997 0 0 0 22.233326
-0.23173046 4.70713 -0.62486649 93.25 0 0 0 23.993996
0.22609942 4.6035523 -0.61173153 44 0 0 0 25.555468
0.73938328 4.5735197 -0.61679977 57.200001 0 0 0 27.312332
1.0781957 4.5177555 -0.61907643 103 0 0 0 28.476139
2.370388 4.9607267 -0.60542351 148.5 0 0 0 31.803215
2.7478962 4.7984486 -0.61015844 165.25 0 0 0 32.9674
3.1969433 4.6066399 -0.62004042 199.66667 0 0 0 34.335678
5.8087921 4.9201422 -0.66814059 522.5 0 0 0 38.442986
6.26301 4.6705356 -0.68728298 431.66666 0 0 0 39.420036
-16.900612 5.1121502 -0.67049336 69 0 0 0 4.29391
-10.297776 5.3101106 -0.70989716 111 0 0 0 7.2099447
-6.5789266 5.0827689 -0.7041142 227 0 0 0 10.13665
-6.2768378 5.3573394 -0.6993764 246 0 0 0 10.917123
-2.7776101 5.0724678 -0.624515 218 0 0 0 16.770563
-2.2998829 5.2154331 -0.6165489 198.5 0 0 0 18.140053
-1.7616086 5.3613739 -0.6117447 175.25 0 0 0 19.704006
-1.2160437 5.4552746 -0.60698652 158 0 0 0 21.261677
-0.73694313 5.4872274 -0.6021176 107.5 0 0 0 22.624336
-0.26037854 5.4831867 -0.59797335 133.25 0 0 0 23.993996
0.27924082 5.4710655 -0.59809411 129.25 0 0 0 25.555468
0.75016075 5.4317241 -0.599792 109.33334 0 0 0 26.921509
1.2115712 5.3283014 -0.59890395 146.5 0 0 0 28.285915
1.7460382 5.2297859 -0.60593128 182.25 0 0 0 29.848509
2.1180081 5.0612183 -0.60349429 137 0 0 0 31.020235
4.4416709 5.4649572 -0.61369944 311 0 0 0 35.50555
4.7982488 5.3391309 -0.62687725 314.66666 0 0 0 36.292904
5.2473726 5.1592875 -0.64404511 269 0 0 0 37.26931
5.5192418 5.0386214 -0.65489882 263 0 0 0 37.857391
51.900368 5.0961661 -0.96136016 11 0 0 0 48.0158
-16.704176 5.501853 -0.66771144 21 0 0 0 4.67801
-16.492193 5.8826675 -0.66468251 29 0 0 0 5.0676198
-14.289007 5.8953986 -0.58263624 461 0 0 0 5.8459001
-10.042901 5.6535025 -0.70621425 101 0 0 0 7.8041801
-9.8005934 5.8363647 -0.6988371 111 0 0 0 8.18398
-5.8026471 5.7363458 -0.69202739 256 0 0 0 12.08477
-5.320775 5.9438314 -0.67649841 304 0 0 0 13.06188
-0.73870844 5.504703 -0.60395199 130 0 0 0 22.620701
2.949156 5.9537101 -0.57454658 219 0 0 0 32.00029
3.2864983 5.8827481 -0.58393461 384 0 0 0 32.772587
3.7487371 5.6770744 -0.59074169 432.66666 0 0 0 33.942383
4.1585054 5.5227699 -0.60148609 260 0 0 0 34.92548
5.6851611 5.7254982 -0.50906515 489.33334 0 0 0 37.074799
7.5944324 5.955215 -0.61684167 582 0 0 0 39.025879
8.0200672 5.974483 -0.64070588 248 0 0 0 39.419659
11.662219 5.8838024 -0.85049194 91 0 0 0 42.152233
12.456632 5.9033589 -0.89987391 258 0 0 0 42.546761
13.191146 5.8574057 -0.94428617 74 0 0 0 42.936729
-16.340553 6.2830763 -0.66464877 58 0 0 0 5.4524999
-9.5899096 6.0327082 -0.69412404 135 0 0 0 8.5795603
-9.3162746 6.3478165 -0.69099367 154 0 0 0 9.1621647
-5.0351458 6.0570345 -0.66795009 353 0 0 0 13.65125
-4.715435 6.1128016 -0.65454 316.5 0 0 0 14.241235
-4.2144399 6.2100778 -0.63628888 312 0 0 0 15.217274
-3.7276373 6.2872763 -0.61961985 313.5 0 0 0 16.18895
-3.2544575 6.3399901 -0.60430849 292.33334 0 0 0 17.161079
-2.7234361 6.4262295 -0.59237301 290 0 0 0 18.336809
-2.2821212 6.4575987 -0.58163416 251 0 0 0 19.313055
1.403657 6.4817429 -0.57015985 190 0 0 0 28.089689
1.7250767 6.4183846 -0.57227844 211 0 0 0 28.868731
2.1946218 6.2719073 -0.57316661 245.33333 0 0 0 30.044792
2.6504352 6.0888686 -0.57373148 216 0 0 0 31.215538
4.9274545 6.3689413 -0.50647867 1352 0 0 0 35.119232
5.2543583 6.139822 -0.50898015 1122 0 0 0 35.89724
5.5975904 6.2214594 -0.52859139 912 0 0 0 36.2957
6.9081101 6.296011 -0.59549803 1013 0 0 0 37.857391
7.2282219 6.1131182 -0.60405105 681 0 0 0 38.442986
9.2318497 6.3559709 -0.72262865 188 0 0 0 40.005619
9.7248306 6.1784906 -0.7443639 164 0 0 0 40.591488
10.204336 6.1347723 -0.77085507 229 0 0 0 40.976952
10.601423 6.0224872 -0.79068738 240 0 0 0 41.369289
11.199692 6.0014858 -0.82591301 86 0 0 0 41.765072
-9.0331993 6.652791 -0.68790096 139 0 0 0 9.7518797
-8.6664762 6.885777 -0.67878771 161 0 0 0 10.333595
-2.053848 6.574039 -0.58574963 226 0 0 0 19.895519
-1.7177314 6.6206017 -0.5822928 226 0 0 0 20.681276
-1.2112011 6.6456318 -0.5757075 207 0 0 0 21.84498
-0.71413273 6.6705709 -0.57258552 193.33333 0 0 0 23.013016
-0.219442 6.6604595 -0.56961995 238.66667 0 0 0 24.189545
0.27071527 6.6223941 -0.56741571 230.66667 0 0 0 25.360657
0.75884414 6.5845604 -0.56851107 214 0 0 0 26.532059
1.1621933 6.5231705 -0.56911939 245.5 0 0 0 27.507839
4.8104258 6.717145 -0.52011377 1144 0 0 0 34.533314
-16.043671 7.0878391 -0.66624337 74 0 0 0 6.2388501
-15.822006 7.4575214 -0.66450506 65 0 0 0 6.6226602
-8.3781967 7.3531075 -0.68453693 150.5 0 0 0 11.110415
4.6644449 7.2402267 -0.54297638 1112 0 0 0 33.746124
-15.697116 7.8737016 -0.66752762 60 0 0 0 7.0121098
-8.1470947 7.6973658 -0.68897051 194 0 0 0 11.70199
-7.9631271 7.9009595 -0.68996298 184 0 0 0 12.08341
2.7949669 7.9468994 -0.52714306 272.33334 0 0 0 30.044792
3.3318543 7.8834124 -0.53692532 220.5 0 0 0 31.020235
3.766119 7.8108196 -0.54517889 250 0 0 0 31.803215
4.2073836 7.7270184 -0.55437291 728.5 0 0 0 32.574883
4.5122795 7.6034007 -0.55774635 690 0 0 0 33.167992
10.782457 7.6162553 -0.53281593 546 0 0 0 39.814568
11.747664 7.8695965 -0.57350063 432 0 0 0 40.196671
-15.533927 8.2736292 -0.66934276 76 0 0 0 7.4077802
-7.7195091 8.2437925 -0.69556528 146 0 0 0 12.66776
-0.054165345 8.4886255 -0.52588201 250 0 0 0 24.581539
0.2565231 8.4222603 -0.52236962 254.5 0 0 0 25.163334
0.77180535 8.3701906 -0.52206081 376 0 0 0 26.142817
1.2856832 8.312088 -0.52331442 227.5 0 0 0 27.115635
1.7883769 8.1903114 -0.52252173 244.33333 0 0 0 28.091089
2.2944102 8.0834913 -0.52471852 246.5 0 0 0 29.065025
12.867254 8.1659355 -0.62140572 373 0 0 0 40.591488
14.152786 8.4984579 -0.67665094 278 0 0 0 40.976952
-15.314434 8.6441708 -0.66906601 43 0 0 0 7.8041801
-14.8959 8.8947859 -0.65991127 62 0 0 0 8.18398
-7.5182533 8.6444683 -0.70671487 194 0 0 0 13.25715
-7.3566055 8.8894434 -0.712511 175 0 0 0 13.65125
-4.8270025 8.9181204 -0.62533289 221 0 0 0 16.76586
-4.3186369 8.7216778 -0.59946227 217 0 0 0 17.35869
-3.7182651 8.5330544 -0.57271731 249 0 0 0 18.138065
-3.2301121 8.5294762 -0.56146646 266 0 0 0 18.927486
-2.7605598 8.5285568 -0.55224133 235.5 0 0 0 19.70048
-2.3160653 8.567791 -0.54728037 367.5 0 0 0 20.487335
-1.7627052 8.5711699 -0.54012281 292.33334 0 0 0 21.455475
-1.2211082 8.5774727 -0.53532821 213 0 0 0 22.429192
-0.7925061 8.5564556 -0.53143889 386.5 0 0 0 23.209171
-0.36943954 8.5512028 -0.52998734 268.5 0 0 0 23.993546
-14.647335 9.2398548 -0.65901065 72 0 0 0 8.5795603
-7.1659908 9.3395119 -0.72845149 150 0 0 0 14.241235
-6.0479336 9.4555044 -0.69449413 190 0 0 0 15.60741
-5.2482514 9.1581936 -0.65189952 175 0 0 0 16.378229
-14.297777 9.77141 -0.6596452 60 0 0 0 9.1621647
-6.8637304 9.6600399 -0.73424137 104 0 0 0 14.82879
-5.8505931 9.6610336 -0.69959927 196 0 0 0 15.99967
-13.928235 10.28826 -0.66018063 63 0 0 0 9.7518797
-9.6275997 10.049884 -0.52616996 203 0 0 0 12.46891
-6.825305 10.125156 -0.75825751 47 0 0 0 15.21562
-13.645889 10.605557 -0.65931475 59 0 0 0 10.13665
-13.387176 10.940562 -0.66003597 41 0 0 0 10.53054
18.742413 10.628895 -0.89439046 32 0 0 0 41.369289
-13.071933 11.227394 -0.65815395 43 0 0 0 10.91854
-12.781741 11.53359 -0.65798551 42 0 0 0 11.30229
-12.456856 11.806129 -0.65630805 68 0 0 0 11.70199
-12.137589 12.081028 -0.65529543 36 0 0 0 12.08341
34.286076 12.268229 -0.65278518 55 0 0 0 44.10363
33.55162 12.944095 -0.64313459 77 0 0 0 43.72155
-11.042009 13.386217 -0.66674805 36 0 0 0 13.65125
-9.7318592 13.045276 -0.62429988 257 0 0 0 14.43707
-9.3371363 13.177112 -0.61982828 320 0 0 0 14.82879
-8.9345999 13.28671 -0.61483777 303 0 0 0 15.21562
32.835384 13.604034 -0.63407421 40 0 0 0 43.322552
32.454636 14.39058 -0.63212925 49 0 0 0 42.936729
31.161976 14.744603 -0.6116237 42 0 0 0 42.546761
45.241619 14.941132 -0.86611694 9 0 0 0 44.489471
30.570562 15.395435 -0.60576564 32 0 0 0 42.152233
29.970549 16.028561 -0.59997648 37 0 0 0 41.765072
-21.928713 -13.153612 -0.42423764 107 0 0 0 91.033989
-22.066998 -12.510774 -0.42129877 52 0 0 0 91.414864
-7.509397 -12.534695 -0.21973838 148 0 0 0 83.204781
-19.664639 -12.462314 -0.3822242 16 0 0 0 90.644875
-8.3050165 -12.436192 -0.22620898 118 0 0 0 83.975471
-7.8078785 -12.336449 -0.21973877 170 0 0 0 83.587433
-7.0319195 -12.418605 -0.21356109 214 0 0 0 82.819038
-6.5577064 -12.273563 -0.20714253 207 0 0 0 82.421524
-6.1178718 -12.158445 -0.20164292 229 0 0 0 82.027206
-5.6907077 -12.035605 -0.19628938 229 0 0 0 81.636147
-5.2123137 -12.15938 -0.19466457 178 0 0 0 81.049385
-4.6383352 -12.025236 -0.18854704 253 0 0 0 80.458923
-4.2725391 -11.940573 -0.18486218 268 0 0 0 80.077103
-3.7373569 -11.790606 -0.17933238 286.5 0 0 0 79.485855
-3.2255075 -11.65011 -0.17437789 306 0 0 0 78.901955
-2.7974987 -11.769678 -0.17454618 234 0 0 0 78.315613
-2.1760602 -11.665477 -0.17055835 319 0 0 0 77.533325
-1.7139057 -11.52893 -0.16692743 313 0 0 0 76.947685
-5.2199707 -11.394573 -0.48878938 208 0 0 0 81.443146
-4.7510362 -11.466358 -0.48347956 318 0 0 0 80.848625
-4.2103519 -11.317509 -0.46928984 271.5 0 0 0 80.268013
-3.6899836 -11.16157 -0.45576239 295 0 0 0 79.682846
-3.2429261 -11.174032 -0.45069069 232 0 0 0 79.095413
-2.6575437 -11.169086 -0.44420785 354.5 0 0 0 78.315613
-2.2030241 -11.051065 -0.43529406 372 0 0 0 77.730232
-1.2704043 -11.409745 -0.1639846 307.5 0 0 0 76.355522
-0.69677758 -11.247618 -0.16048151 298.5 0 0 0 75.576752
-0.14533959 -11.339529 -0.16196422 331.5 0 0 0 74.792389
0.26979744 -11.272892 -0.16103733 356 0 0 0 74.202629
0.67670953 -11.145525 -0.15937051 424 0 0 0 73.617035
1.0790448 -11.040004 -0.1583401 455 0 0 0 73.027596
-1.763376 -10.920931 -0.42674917 340 0 0 0 77.142044
-1.1997306 -10.756363 -0.41684335 304.5 0 0 0 76.355522
-0.67352331 -10.848505 -0.41896397 259.5 0 0 0 75.576752
-0.14075574 -10.768862 -0.41502124 389 0 0 0 74.792389
0.25239599 -10.639503 -0.40985757 434 0 0 0 74.202629
0.63773727 -10.539247 -0.40660721 401.5 0 0 0 73.617035
1.3432088 -10.96141 -0.15767284 455 0 0 0 72.641319
1.6057738 -10.887388 -0.15721162 504 0 0 0 72.245453
1.1427174 -10.401628 -0.40300876 454.5 0 0 0 72.834457
1.5132281 -10.275888 -0.40002206 576 0 0 0 72.245453
2.0539238 -10.376378 -0.15014136 287 0 0 0 71.469193
4.3193707 -10.113968 -0.42872864 477 0 0 0 68.142807
1.9506841 -9.866478 -0.38661864 205 0 0 0 71.469193
4.9716167 -9.9124002 -0.43346053 641 0 0 0 67.168625
5.7970219 -9.7023821 -0.30552435 329 0 0 0 65.986549
6.0620904 -9.605011 -0.44643033 581 0 0 0 65.597168
1.6140857 -9.3615465 -0.24749771 901.5 0 0 0 71.864517
2.0336711 -9.1021824 -0.12833439 397 0 0 0 71.072868
6.6374493 -9.4530277 -0.31422547 546 0 0 0 64.811562
7.6814451 -9.1561022 -0.47416282 316 0 0 0 63.448845
2.0053513 -8.9838238 -0.35098046 340 0 0 0 71.072868
8.4696302 -8.9229641 -0.49032146 514 0 0 0 62.4697
2.0473995 -8.2191734 -0.21689008 65 0 0 0 70.682602
3.2422867 -8.1348763 -0.11984578 209 0 0 0 68.535355
2.3072305 -7.7688193 -0.27144966 69 0 0 0 69.966377
2.462538 -7.4925652 -0.2964102 59.5 0 0 0 69.504646
2.6630244 -7.3397722 -0.29361689 59 0 0 0 69.02211
3.2736971 -7.1815648 -0.24945006 361 0 0 0 67.748764
3.7644248 -7.0687199 -0.20651123 340 0 0 0 66.774841
4.6973982 -7.0573549 -0.22161151 570 0 0 0 65.213463
5.1846275 -7.0153198 -0.12237412 449 0 0 0 64.422729
5.6154823 -7.2227187 -0.3540411 264 0 0 0 64.039795
6.4522305 -7.1418295 -0.14017645 279 0 0 0 62.861366
9.8453407 -7.3247833 -0.49240354 93 0 0 0 59.734489
3.662035 -6.7770619 -0.2398735 633 0 0 0 66.679543
4.2697525 -6.7688146 -0.10843951 292 0 0 0 65.597168
4.862421 -6.5832558 -0.31263152 309 0 0 0 64.422729
5.5242481 -6.7548475 -0.12309399 222 0 0 0 63.646019
8.688323 -6.8004599 -0.16895841 276 0 0 0 60.117081
5.0516481 -6.4969301 -0.1137537 393 0 0 0 64.039795
5.7037926 -6.4729118 -0.22830522 286 0 0 0 63.056519
6.218544 -6.1805453 -0.21195431 406.60001 0 0 0 62.001076
6.7312536 -6.1214852 -0.13203847 283 0 0 0 61.293167
7.2190819 -6.0939217 -0.13904528 357 0 0 0 60.703239
7.5596905 -6.2264738 -0.3851535 237 0 0 0 60.50388
8.061306 -6.1543694 -0.27694291 208.5 0 0 0 59.925785
9.8433275 -6.2514005 -0.18220837 306 0 0 0 58.557838
8.3548918 -5.802525 -0.31962574 534.33331 0 0 0 59.204895
8.6978703 -5.6768131 -0.2860617 347.5 0 0 0 58.752975
9.3244362 -5.6073537 -0.29953685 318 0 0 0 58.162441
9.8877287 -5.6183119 -0.17763223 284 0 0 0 57.776001
9.7528133 -5.3324943 -0.35281825 225.66667 0 0 0 57.512463
10.133826 -5.1180086 -0.31635833 369.5 0 0 0 56.987019
10.641655 -5.051053 -0.47467744 189 0 0 0 56.59938
10.48168 -4.9729047 -0.18307374 254 0 0 0 56.59938
11.143805 -4.9560571 -0.34330058 349 0 0 0 56.203979
10.745432 -1.3345252 -0.43727496 56 0 0 0 51.520527
25.712633 -0.64137429 -0.45786873 61 0 0 0 49.957642
10.276779 0.24786355 -0.41388538 2081 0 0 0 49.185768
9.8338175 1.9580259 -0.40194818 5396 0 0 0 46.450314
-26.141415 3.8738875 -0.37893459 22 0 0 0 1.94552
9.3620939 3.6208596 -0.40067327 4681 0 0 0 43.72155
-25.474781 5.0597367 -0.37126639 18 0 0 0 2.7357199
-25.210794 5.6519556 -0.36894199 25 0 0 0 3.12256
-14.255347 5.8785882 -0.2061832 462 0 0 0 5.8459001
5.6845942 5.724443 -0.31077161 333 0 0 0 37.075912
-24.987432 6.2479272 -0.36754251 24 0 0 0 3.5071399
4.9848971 6.2847328 -0.3048802 1069.5 0 0 0 35.312393
5.1236424 6.2335401 -0.23090713 974.20001 0 0 0 35.584969
5.6735945 6.1520376 -0.32327622 633.5 0 0 0 36.490734
6.4009471 6.4419022 -0.13160278 1222 0 0 0 37.075912
7.2251191 6.2644968 -0.375539 353 0 0 0 38.250008
-24.717234 6.8272939 -0.3656618 24 0 0 0 3.8966501
4.8847427 6.8202105 -0.2204677 832.75 0 0 0 34.533314
6.2293067 6.7516756 -0.13311648 1129.5 0 0 0 36.490734
6.8465633 6.5559282 -0.25541565 1018 0 0 0 37.462711
7.2980599 6.6495371 -0.26685828 654.5 0 0 0 37.857391
7.8877726 6.8374696 -0.15732166 852 0 0 0 38.250008
-24.432703 7.3969126 -0.36381537 21 0 0 0 4.29391
4.7334685 7.2793994 -0.26393411 787.33331 0 0 0 33.810886
8.4953976 7.0021467 -0.30296236 603 0 0 0 38.63596
9.1572762 7.1743007 -0.32250297 610.5 0 0 0 39.025879
9.9288225 7.3893876 -0.34548119 640 0 0 0 39.419659
-24.233866 7.9893703 -0.36363992 27 0 0 0 4.67801
-1.6173112 7.8422246 -0.19680943 78.5 0 0 0 21.4529
4.4813528 7.9899673 -0.35404381 1119 0 0 0 32.768959
4.6683745 7.7200241 -0.20063059 753.66669 0 0 0 33.29594
10.794428 7.6269045 -0.20978481 463 0 0 0 39.814568
11.880146 7.9604101 -0.23017617 254 0 0 0 40.196671
-8.0424442 8.3803806 -0.15064943 564 0 0 0 12.46891
0.97865373 8.3560295 -0.31687775 96 0 0 0 26.533251
4.4392052 8.391118 -0.25020874 798 0 0 0 32.38081
4.5551443 8.1225548 -0.13250567 747 0 0 0 32.768959
13.035501 8.2749119 -0.25192198 269 0 0 0 40.591488
-24.030968 8.5802574 -0.36368492 21 0 0 0 5.0676198
-17.530622 8.7943373 -0.27223682 71 0 0 0 7.0121098
-16.853245 8.9762774 -0.26437813 6 0 0 0 7.4077802
-7.7096243 8.6485004 -0.29146278 485.25 0 0 0 13.06188
-4.1600528 8.9497566 -0.24795809 828.5 0 0 0 17.744816
-3.6454287 8.966486 -0.24343285 923.5 0 0 0 18.53529
1.0136718 8.6479664 -0.11643669 424 0 0 0 26.533251
4.2896304 8.7941008 -0.29931912 899 0 0 0 31.868906
14.464201 8.6876774 -0.27918777 265 0 0 0 40.976952
-23.769787 9.1490879 -0.36304352 25 0 0 0 5.4524999
-14.87496 9.3808517 -0.24163148 20 0 0 0 8.5795603
-7.160398 9.0962505 -0.29190028 268 0 0 0 14.0454
-6.0649548 9.4831276 -0.42204067 127 0 0 0 15.60741
-5.3390274 9.3179064 -0.27117285 632.5 0 0 0 16.378229
-4.7705822 9.0751505 -0.25802094 729.5 0 0 0 16.96673
-3.1788797 9.0695381 -0.24246584 829.75 0 0 0 19.313055
-2.722755 9.1892338 -0.24267069 782.75 0 0 0 20.094955
-2.2679367 9.3095064 -0.24326193 733.75 0 0 0 20.874722
-1.6941366 9.4390297 -0.24408522 486 0 0 0 21.84436
1.8971149 9.2081919 -0.35959589 1050.5 0 0 0 27.898563
2.2598407 9.224123 -0.24728569 900.5 0 0 0 28.47809
2.7098293 9.3736391 -0.21571851 724 0 0 0 29.129904
3.1337874 9.3731108 -0.3010951 1038.6666 0 0 0 29.783728
3.6091013 9.4789248 -0.39331666 1101 0 0 0 30.436159
4.1963887 9.2640667 -0.27107519 775 0 0 0 31.409931
-14.297372 9.5123205 -0.23548661 20 0 0 0 8.9670095
-13.889163 9.7387733 -0.23256925 156 0 0 0 9.3573198
-6.091301 9.5218267 -0.14877436 63 0 0 0 15.60741
-5.9110003 9.7611637 -0.28973809 469 0 0 0 15.99967
-1.2366409 9.580162 -0.24723209 765.83331 0 0 0 22.623123
-0.65246874 9.7343884 -0.25099865 775.5 0 0 0 23.60515
-0.17458871 9.8594627 -0.25477085 732.5 0 0 0 24.382839
0.19098249 9.9534874 -0.25817052 808.5 0 0 0 24.96773
0.90330809 9.7093945 -0.13415988 480 0 0 0 26.1399
1.6587063 9.8504629 -0.38357496 869 0 0 0 27.308239
3.3587048 9.5243034 -0.14409518 700 0 0 0 30.045259
3.7802005 9.5705643 -0.27442315 645.5 0 0 0 30.631454
4.1048756 9.6891432 -0.15251127 325.5 0 0 0 31.020235
-23.313242 10.310619 -0.36371839 24 0 0 0 6.2388501
-14.035665 10.364642 -0.24062397 46 0 0 0 9.7518797
0.43963808 10.027246 -0.26094246 757 0 0 0 25.35894
0.77728945 10.111084 -0.30607015 712.33331 0 0 0 25.883501
1.4728982 10.275814 -0.27267051 682 0 0 0 26.923031
1.6838593 10.002612 -0.14211279 454 0 0 0 27.308239
2.0190423 10.408002 -0.15050471 371 0 0 0 27.707439
-22.993965 10.850097 -0.36292166 28 0 0 0 6.6226602
-13.99565 10.875386 -0.24544258 23 0 0 0 10.13665
21.254843 12.05461 -0.42072612 63 0 0 0 41.369289
-9.7457771 13.060148 -0.22798342 286 0 0 0 14.43707
-9.3327808 13.166932 -0.2260403 345 0 0 0 14.82879
-8.9287558 13.273883 -0.22434688 378 0 0 0 15.21562
-13.241214 16.06451 -0.29946762 143 0 0 0 13.65125
-18.924402 17.966066 -0.38029492 16 0 0 0 11.70199
-29.586609 -42.032238 0.38757765 14 0 0 0 84.371323
-31.272823 -36.275726 0.35974631 17 0 0 0 85.939468
-23.019268 -34.470112 0.32035258 25 0 0 0 83.975471
-24.484884 -29.853916 0.29794627 23 0 0 0 85.541664
-15.251354 -26.937971 0.24991399 12 0 0 0 82.819038
-12.910962 -21.554672 0.20934345 98 0 0 0 83.204781
-13.2612 -20.955873 0.20672321 160 0 0 0 83.587433
-36.325165 -18.303833 0.29337046 77 0 0 0 92.186348
42.432381 -17.594793 0.29144493 17 0 0 0 55.823158
-28.207277 -15.093801 0.23961765 84 0 0 0 91.80838
46.292618 -15.310723 0.30328807 9 0 0 0 54.648041
-30.84816 -14.607203 0.25110444 63 0 0 0 92.57235
-1.0313768 -13.910988 0.4811691 10 0 0 0 75.777397
-0.690687 -13.942991 0.48139775 8 0 0 0 75.376099
-0.34165871 -13.714182 0.30268481 149 0 0 0 74.987984
49.106438 -13.606652 0.31292158 12 0 0 0 53.868839
-6.1911716 -13.099459 0.13682805 205 0 0 0 81.636147
-5.7206225 -13.202001 0.37692046 71.333336 0 0 0 81.116302
-1.8005722 -13.254032 0.29877967 8.5 0 0 0 76.748756
0.65454388 -13.453192 0.29693177 65 0 0 0 73.815247
1.9333239 -13.088838 0.29196441 9.5 0 0 0 72.245453
2.2538702 -13.04565 0.45665652 4 0 0 0 71.864517
-22.139439 -12.556622 0.19898728 104 0 0 0 91.414864
-6.9424233 -12.998604 0.13822468 195 0 0 0 82.421524
-6.4936934 -12.910513 0.13642146 163 0 0 0 82.027206
-5.3368292 -12.892284 0.13335139 199 0 0 0 80.848625
-4.6689773 -12.721333 0.24344568 150 0 0 0 80.204376
-4.1363864 -12.526414 0.12827112 296 0 0 0 79.682846
-3.8116915 -12.561868 0.45524588 5 0 0 0 79.288872
-3.4669755 -12.52252 0.45099264 5 0 0 0 78.901955
-2.5258253 -12.683739 0.44903108 6 0 0 0 77.730232
-2.2249804 -12.81012 0.28991851 200.5 0 0 0 77.336411
2.5574992 -12.897916 0.12557054 5 0 0 0 71.469193
32.564659 -12.577623 0.22895211 21 0 0 0 55.430141
-3.7692831 -12.429871 0.12689671 322 0 0 0 79.288872
-3.1990309 -12.339435 0.23175406 426.33334 0 0 0 78.640625
-2.7494085 -12.237953 0.2801761 756 0 0 0 78.121277
-2.4866574 -12.498097 0.12518953 698 0 0 0 77.730232
58.455372 -11.644659 0.35625187 33 0 0 0 52.696381
2.3901305 -10.681653 0.11027153 324 0 0 0 71.072868
4.4655638 -10.105963 0.38425702 693 0 0 0 67.944168
28.955055 -10.374988 0.20507392 19 0 0 0 55.036541
57.9832 -10.077496 0.35109222 32 0 0 0 52.3083
1.6481107 -9.542099 0.10208441 15 0 0 0 71.864517
5.8011498 -9.704668 0.24958855 441.5 0 0 0 65.986549
6.079896 -9.6266479 0.25071594 402 0 0 0 65.597168
2.074115 -9.2813244 0.33760223 267 0 0 0 71.072868
3.2863958 -8.5526953 0.32519108 476 0 0 0 68.729263
11.300019 -8.8366289 0.12030295 111 0 0 0 60.117081
57.719048 -8.5776043 0.34735683 41 0 0 0 51.911247
2.1362958 -8.1465321 0.19799599 43 0 0 0 70.488678
3.2108617 -8.0566473 0.093323529 424.5 0 0 0 68.535355
3.5227473 -8.2539454 0.20958492 431 0 0 0 68.142807
2.4126291 -7.6539216 0.28886095 72 0 0 0 69.703011
2.6291444 -7.3801956 0.28262845 12 0 0 0 69.119728
3.3900371 -7.1954927 0.18854386 522.5 0 0 0 67.55336
3.6930919 -7.1470623 0.18737978 529.5 0 0 0 66.973831
4.04316 -7.1616101 0.088912599 647 0 0 0 66.38105
4.7226815 -7.0931931 0.30255237 320 0 0 0 65.213463
3.4328713 -6.8481007 0.36976022 664 0 0 0 67.168625
3.7883823 -6.7905779 0.35369325 1046.2 0 0 0 66.461349
4.7801676 -6.73946 0.17083383 486.60001 0 0 0 64.736404
5.2749958 -6.6109562 0.19412424 481 0 0 0 63.842911
5.7619305 -6.5362043 0.30690062 633 0 0 0 63.056519
5.6494093 -6.4082122 0.088382527 619.5 0 0 0 63.056519
6.2517638 -6.2716541 0.19965951 447.66666 0 0 0 62.079178
6.7639484 -6.1497574 0.2070871 398 0 0 0 61.293167
7.2589445 -6.1241045 0.092107683 285.5 0 0 0 60.703239
8.0566578 -6.149312 0.34827647 350 0 0 0 59.925785
8.7891874 -6.2085066 0.36704507 456 0 0 0 59.333286
6.8861651 -5.9597731 0.31730479 661 0 0 0 60.902599
7.2608709 -5.9782219 0.32618597 692 0 0 0 60.50388
7.9593458 -5.9197364 0.093767352 601 0 0 0 59.734489
8.3069811 -5.8666959 0.094872862 576 0 0 0 59.333286
8.8176908 -5.8044152 0.27371073 544 0 0 0 58.818024
9.2108688 -5.6904912 0.23410055 325.5 0 0 0 58.360138
9.8649483 -5.6050534 0.38359585 328 0 0 0 57.776001
9.2744637 -5.4183931 0.096930198 410.5 0 0 0 57.969223
9.8347521 -5.2718024 0.23824298 333.5 0 0 0 57.380688
10.10319 -5.0990367 0.099313676 584 0 0 0 56.987019
10.788315 -5.2821169 0.25508428 359.5 0 0 0 56.793198
11.034334 -5.2342429 0.40908164 406 0 0 0 56.59938
11.535467 -5.1283369 0.42129818 369 0 0 0 56.203979
10.921748 -4.8538904 0.10217866 654 0 0 0 56.203979
59.411713 -2.9323936 0.34996694 18 0 0 0 50.351158
27.074833 -2.0046751 0.17910904 74 0 0 0 50.74786
25.786074 -0.63887608 0.17141823 57 0 0 0 49.957642
42.076344 -0.0084993476 0.25780159 17 0 0 0 49.567753
37.306946 0.90916228 0.23292434 26 0 0 0 49.185768
40.733784 1.9945767 0.25171289 21 0 0 0 48.785992
47.644875 4.6863561 0.29061374 6 0 0 0 48.0158
-42.860928 5.2819629 0.4111062 17 0 0 0 1.55609
-14.138369 5.8272557 0.16735379 621 0 0 0 5.8459001
4.8965859 5.8694649 0.46129113 911 0 0 0 35.701393
5.2611856 5.7916231 0.35531873 816.20001 0 0 0 36.372036
5.7972383 5.8373632 0.39244494 686.5 0 0 0 37.075912
6.9344325 6.3200464 0.32668218 696 0 0 0 37.857391
7.1158676 6.1710443 0.32756925 723 0 0 0 38.250008
7.5546293 6.2305388 0.33890355 606 0 0 0 38.63596
5.4779134 6.7277193 0.19771941 825.5 0 0 0 35.50555
6.7667265 6.6425486 0.09303084 647.5 0 0 0 37.26931
7.2457252 6.7650623 0.21693426 604.5 0 0 0 37.660049
7.9834557 6.9218497 0.098952703 588 0 0 0 38.250008
8.5355558 7.038003 0.10166572 545 0 0 0 38.63596
9.2998028 7.288518 0.10589793 437 0 0 0 39.025879
9.9871769 7.4358225 0.10939424 499 0 0 0 39.419659
10.676929 7.3468685 0.43601406 404.5 0 0 0 40.005619
12.296908 7.388412 0.4774417 407 0 0 0 40.976952
4.7720628 7.7473187 0.24552841 391 0 0 0 33.423893
5.1854415 7.8260975 0.32951215 491 0 0 0 33.940407
5.9125891 7.8295317 0.2195008 646.75 0 0 0 34.92548
6.7477431 7.87328 0.099540874 518 0 0 0 35.89724
10.27404 7.6451015 0.4317092 310 0 0 0 39.419659
10.843276 7.6635208 0.11400156 385 0 0 0 39.814568
11.910677 7.7714691 0.29623151 331 0 0 0 40.394081
4.5310678 8.0825214 0.094958983 643 0 0 0 32.768959
5.8035131 8.3032761 0.22609343 737.5 0 0 0 34.3349
7.2140579 8.0071859 0.10177664 437 0 0 0 36.2957
7.6708632 8.1017847 0.1038096 401 0 0 0 36.685768
10.625958 8.3194437 0.45339051 185 0 0 0 39.025879
-7.6280298 8.7671824 0.13102542 59 0 0 0 13.25715
-4.1560588 8.9386168 0.23474789 950.75 0 0 0 17.744816
-3.6398377 8.9498367 0.23001814 959.75 0 0 0 18.53529
4.4069653 8.8512688 0.09966854 647 0 0 0 32.00029
4.5232935 8.5522766 0.097942114 410 0 0 0 32.38081
5.710206 8.6149073 0.10092547 648 0 0 0 33.940407
-5.3471498 9.3300209 0.2544986 654 0 0 0 16.378229
-4.7720909 9.075758 0.24372926 742 0 0 0 16.96673
-3.1718576 9.0463104 0.22765306 944.75 0 0 0 19.313055
-2.7160535 9.1631088 0.22628643 936.25 0 0 0 20.094954
-2.2627587 9.283577 0.22562745 797.75 0 0 0 20.874722
-1.8048005 9.3878517 0.22533932 582.5 0 0 0 21.64863
-1.4648762 9.4997578 0.34551197 843 0 0 0 22.23768
2.1568222 9.300581 0.10055624 489 0 0 0 28.282913
2.6550798 9.3275185 0.1009002 465.5 0 0 0 29.065025
3.1993585 9.443572 0.10204827 548.5 0 0 0 29.84911
4.2082667 9.2988939 0.10229291 680.5 0 0 0 31.409931
5.5224342 9.2918673 0.10466255 446 0 0 0 33.167992
-5.9606271 9.8417282 0.27074882 421.5 0 0 0 15.99967
-1.1890888 9.5716925 0.20220211 832.20001 0 0 0 22.700212
-0.65181506 9.7113676 0.22719434 888.5 0 0 0 23.60515
-0.17518744 9.8417416 0.2286943 808.25 0 0 0 24.382839
0.27255413 9.9531307 0.27197829 896.33331 0 0 0 25.098131
0.88912129 9.5783644 0.10293075 109 0 0 0 26.1399
1.8719233 9.6760092 0.1032209 369 0 0 0 27.707439
2.2926607 9.8639736 0.35735896 478.5 0 0 0 28.282913
2.7034938 9.9469919 0.36259213 428 0 0 0 28.87039
3.8048544 9.6368217 0.10402209 391.5 0 0 0 30.631454
5.4486008 9.6966476 0.38496915 589 0 0 0 32.768959
-13.89959 10.260256 0.18242376 12 0 0 0 9.7518797
0.43688679 10.010695 0.1064916 815 0 0 0 25.35894
0.77499866 10.091022 0.27528232 659.33331 0 0 0 25.883501
1.3403864 10.250725 0.23649441 780.5 0 0 0 26.728142
1.744095 10.350151 0.23905723 716 0 0 0 27.308239
2.0227969 10.421726 0.37347701 748 0 0 0 27.707439
2.9988456 10.046603 0.3678692 524 0 0 0 29.259661
3.3355579 10.242958 0.37665775 562 0 0 0 29.65296
3.7761807 10.283504 0.38195676 404 0 0 0 30.240709
5.2825193 10.272671 0.39904377 520 0 0 0 32.190552
5.1125708 10.90589 0.41515246 456 0 0 0 31.60614
4.7327948 11.144983 0.41777176 452 0 0 0 31.020235
