# .PCD v0.7 - Point Cloud Data file format
VERSION 0.7
FIELDS x y z intensity normal_x normal_y normal_z curvature
SIZE 4 4 4 4 4 4 4 4
TYPE F F F F F F F F
COUNT 1 1 1 1 1 1 1 1
WIDTH 917
HEIGHT 1
VIEWPOINT 0 0 0 1 0 0 0
POINTS 917
DATA ascii
-13.590984 5.5946841 -0.55944455 65 0 0 0 5.8473401
-13.299334 5.858079 -0.55329531 87 0 0 0 6.23771
-6.5348434 5.5687342 -0.52362549 270 0 0 0 10.904
-6.1664786 5.7958145 -0.51645249 248 0 0 0 11.684189
-3.2251232 5.5627866 -0.54439008 286.33334 0 0 0 16.364433
-2.7773368 5.7185097 -0.53876472 284.33334 0 0 0 17.535212
-2.2534385 5.8701963 -0.53363961 272.75 0 0 0 18.901754
-1.7989016 5.9644661 -0.52905917 213 0 0 0 20.07093
1.9377877 5.5780025 -0.50352132 358 0 0 0 30.0047
2.281374 5.6445971 -0.59658742 188 0 0 0 30.793194
2.7983735 5.6724377 -0.69888848 144 0 0 0 31.962069
3.2890277 5.7332635 -0.64734542 695.5 0 0 0 32.938465
3.8257611 5.9614811 -0.61186099 488 0 0 0 33.717216
-12.822214 6.2162552 -0.54265881 82 0 0 0 6.8186951
-5.7487855 6.1047602 -0.51229763 243.5 0 0 0 12.653086
-5.2796474 6.339292 -0.50439757 312.33334 0 0 0 13.63054
-1.5803145 6.0350609 -0.53028166 241 0 0 0 20.657789
-1.2730213 6.0573196 -0.52640468 198.33333 0 0 0 21.439133
-0.74928987 6.1631308 -0.52899051 273.75 0 0 0 22.79945
-0.21807651 6.2477088 -0.5334968 218 0 0 0 24.161154
0.24966912 6.3463607 -0.54311901 497.33334 0 0 0 25.332062
0.79566991 6.3325491 -0.54655105 559.75 0 0 0 26.700897
1.3110861 6.1015296 -0.53391659 925.33331 0 0 0 28.064878
1.6525055 6.1857805 -0.54877728 881 0 0 0 28.83428
2.7625577 6.3610764 -0.59802735 743.5 0 0 0 31.180771
3.2022264 6.0947499 -0.59359908 869.33331 0 0 0 32.353073
4.7515407 6.4733195 -0.69846994 261.33334 0 0 0 34.692844
5.2988262 6.3571968 -0.72086942 257.5 0 0 0 35.666183
5.7800245 6.2745833 -0.74415135 296 0 0 0 36.454803
6.2020321 6.2509966 -0.76913273 694 0 0 0 37.044861
6.6529417 6.2232723 -0.79691672 277.5 0 0 0 37.632454
7.3011017 6.1808829 -0.83845353 261.5 0 0 0 38.410503
7.804266 6.1264725 -0.87074649 263 0 0 0 38.996471
8.204711 6.1187358 -0.89925927 365 0 0 0 39.388088
8.6419163 6.117877 -0.93139768 205 0 0 0 39.769279
-12.378202 6.7677269 -0.5380035 121 0 0 0 7.5987902
2.8304937 6.5129948 -0.6130355 665 0 0 0 31.18845
4.313364 6.8960938 -0.50596166 1070 0 0 0 33.520981
4.6053915 6.971806 -0.52072799 942 0 0 0 33.913448
52.736816 6.5100784 -0.87382329 15 0 0 0 47.569046
-12.072527 7.1872678 -0.53646249 96 0 0 0 8.1759501
-11.910603 7.491148 -0.53788507 101 0 0 0 8.5745897
4.9243774 7.0666156 -0.53787941 985 0 0 0 34.303139
5.2459726 7.1434522 -0.55449414 1022 0 0 0 34.687752
5.7777777 7.2804389 -0.58325255 1032.5 0 0 0 35.279915
6.3621035 7.4337797 -0.61578137 788 0 0 0 35.86018
-11.802464 7.8325038 -0.54233468 117 0 0 0 8.9589195
6.7890353 7.5454183 -0.64006603 618 0 0 0 36.259007
7.2492385 7.6657281 -0.6666652 720 0 0 0 36.6506
7.7489438 7.7974701 -0.69604123 517 0 0 0 37.044861
8.293293 7.9414682 -0.72852498 542 0 0 0 37.438232
-11.671573 8.1638508 -0.5461334 104 0 0 0 9.3460903
8.8661966 8.0786724 -0.76252329 464 0 0 0 37.826679
9.5065527 8.2405758 -0.80141723 493 0 0 0 38.216686
10.216475 8.4221087 -0.68281269 468.5 0 0 0 38.604321
-11.577171 8.5274143 -0.5522809 113 0 0 0 9.7382803
-11.43324 8.8611145 -0.55642062 106 0 0 0 10.13414
10.962728 8.5906754 -0.54885411 139 0 0 0 38.996471
11.01508 8.6314392 -0.89514297 146 0 0 0 38.996471
11.644045 8.6687136 -0.92974681 130 0 0 0 39.388088
12.194756 8.6192636 -0.95731139 105 0 0 0 39.769279
-11.346242 9.2473211 -0.56415468 72 0 0 0 10.52146
-11.149683 9.7919455 -0.57340705 81 0 0 0 11.097775
-10.055931 9.5004721 -0.53272098 241 0 0 0 11.68762
-9.6434145 9.5665083 -0.52291149 108 0 0 0 12.0734
17.215601 12.154237 -0.84824622 134 0 0 0 39.769279
29.97793 12.436065 -0.52622736 89 0 0 0 43.281834
16.892405 12.559963 -0.84744918 48 0 0 0 39.388088
29.285717 13.001743 -0.51967752 101 0 0 0 42.892342
28.658173 13.576117 -0.51452947 102 0 0 0 42.507889
28.393587 14.315541 -0.51663494 32 0 0 0 42.120041
27.252851 14.592016 -0.50184351 60 0 0 0 41.721672
40.5355 14.519982 -0.70828372 29 0 0 0 44.063751
26.780788 15.197927 -0.50031555 36 0 0 0 41.328079
-3.2305386 -14.37272 -0.22099119 121 0 0 0 78.022957
-4.1492529 -13.672404 -0.21312998 239 0 0 0 79.205673
-3.7718134 -13.621705 -0.21048655 544 0 0 0 78.809731
-3.3867524 -13.51035 -0.20692644 485 0 0 0 78.413605
-11.989878 -12.598626 -0.26497698 76 0 0 0 86.633446
-26.164843 -12.376723 -0.46003762 48 0 0 0 92.477341
-12.395434 -12.400737 -0.26724657 41 0 0 0 87.027351
-11.308817 -12.482629 -0.25564641 97 0 0 0 86.244835
-10.525299 -12.207018 -0.2432331 144 0 0 0 85.850006
-10.11132 -12.32583 -0.24034025 76 0 0 0 85.458557
-9.5551958 -12.24888 -0.23341314 134 0 0 0 85.063828
-8.9691858 -12.098427 -0.22530991 158 0 0 0 84.667763
-8.1011305 -12.128579 -0.21730156 130 0 0 0 83.880119
-7.6099253 -12.02148 -0.21119365 192 0 0 0 83.495399
-2.7884922 -12.394602 -0.49587911 36 0 0 0 78.022957
-8.4137611 -11.951314 -0.21771267 137 0 0 0 84.276268
-7.1490226 -11.93118 -0.20575254 170 0 0 0 83.114449
-6.6602912 -11.760399 -0.19899899 228 0 0 0 82.716248
-6.2239528 -11.647063 -0.1936945 194 0 0 0 82.330864
-5.7640133 -11.807909 -0.19268347 249.5 0 0 0 81.74408
-5.1622863 -11.646762 -0.18580088 248 0 0 0 81.158813
-4.7815762 -11.543682 -0.18159692 245 0 0 0 80.763214
-3.8642216 -11.693374 -0.17862512 97 0 0 0 79.587502
-6.237761 -11.010169 -0.49314737 231 0 0 0 82.716248
-5.6108341 -11.144334 -0.48587194 214 0 0 0 81.941483
-5.2249484 -11.043943 -0.47506845 255 0 0 0 81.546677
-4.2366066 -11.393523 -0.17577931 176.5 0 0 0 80.177742
20.882931 -11.174548 -0.36683014 78 0 0 0 57.31562
-5.8643126 -10.969728 -0.48419836 131 0 0 0 82.330864
-4.8563447 -10.951535 -0.46517622 242 0 0 0 81.158813
-4.3167048 -10.784927 -0.45007193 258 0 0 0 80.56675
-3.754395 -10.902308 -0.44655395 215.5 0 0 0 79.786346
-3.2932537 -10.844347 -0.43830299 63 0 0 0 79.205673
-2.8215938 -10.686199 -0.42660198 247.5 0 0 0 78.611664
-1.8520181 -10.652147 -0.15251158 155 0 0 0 77.246735
-0.0084175058 -10.22805 -0.39200279 415 0 0 0 74.513985
0.40712288 -10.152104 -0.30591032 239.66667 0 0 0 73.860352
1.2334548 -10.072149 -0.14063297 72 0 0 0 72.561104
24.848269 -10.302629 -0.42102382 46 0 0 0 55.754879
-1.6693493 -9.5898438 -0.37133509 435 0 0 0 77.246735
-1.4729834 -9.890729 -0.3824867 233 0 0 0 76.853889
1.9147916 -9.6814098 -0.25604516 537.5 0 0 0 71.393181
2.2255552 -9.595603 -0.29540685 502.66666 0 0 0 70.86834
2.7685273 -9.4463911 -0.29517159 636 0 0 0 69.95752
3.1956897 -9.3278179 -0.25552538 670.5 0 0 0 69.24202
4.0223532 -9.1058064 -0.13631815 560 0 0 0 67.865639
4.8206673 -8.8741293 -0.30302426 500.33334 0 0 0 66.564491
5.3195901 -8.7394905 -0.22363155 571 0 0 0 65.786316
-1.2244951 -8.2276964 -0.10891814 333 0 0 0 76.853889
-0.80272692 -8.1005745 -0.10579885 309 0 0 0 76.078156
-0.19032368 -7.5006213 -0.094621144 669 0 0 0 74.899872
0.7776835 -7.9811811 -0.10350232 239 0 0 0 72.944489
-1.4693965 -7.367054 -0.2782971 91.333336 0 0 0 77.640038
-0.79338747 -7.1064215 -0.26290762 296 0 0 0 76.274078
-0.24594046 -7.3504105 -0.39037856 371 0 0 0 75.030556
0.17630631 -7.4696369 -0.094031855 281 0 0 0 74.126175
0.69159502 -7.1194201 -0.26294902 450 0 0 0 72.944489
1.2770993 -7.4160438 -0.094754629 486 0 0 0 71.774673
2.3724582 -7.2227039 -0.46742505 286 0 0 0 69.437569
-0.60373431 -6.9375992 -0.17082274 424 0 0 0 75.883926
-0.23385698 -6.9626698 -0.14213482 427.66666 0 0 0 75.032616
0.16074286 -6.8818374 -0.42004833 290 0 0 0 74.126175
0.75004208 -6.7358642 -0.18075937 300.60001 0 0 0 72.71022
1.2979118 -6.5809135 -0.32637057 292 0 0 0 71.386856
1.7253027 -6.5873718 -0.082107112 421.5 0 0 0 70.412292
0.7916131 -6.4985085 -0.39757779 378 0 0 0 72.561104
2.230185 -6.1710486 -0.20519157 389.39999 0 0 0 68.966995
2.7592728 -6.1998062 -0.24831679 344.85715 0 0 0 67.813225
3.0094526 -6.0109615 -0.24421687 384 0 0 0 67.095314
3.9994447 -6.0111661 -0.088216878 406 0 0 0 65.138657
4.0940957 -6.156672 -0.21204007 442.66666 0 0 0 65.135155
2.9348526 -5.8602934 -0.077110924 529 0 0 0 67.095314
3.3801045 -5.9946585 -0.082634859 458 0 0 0 66.307312
3.9182863 -5.8917036 -0.43188319 367 0 0 0 65.138657
4.3116384 -5.8890252 -0.32725868 1094.3334 0 0 0 64.416924
4.7043605 -5.8055787 -0.27510259 540 0 0 0 63.635906
5.2260242 -5.7532129 -0.2648271 401 0 0 0 62.737431
5.7764058 -5.7019629 -0.16773884 498 0 0 0 61.871563
5.8138537 -5.289844 -0.19481722 511.25 0 0 0 61.220993
6.1782851 -5.1393862 -0.29799363 474.60001 0 0 0 60.517952
6.720479 -5.1289406 -0.10797772 417.5 0 0 0 59.859215
7.0352225 -5.2362638 -0.32789597 369 0 0 0 59.665752
7.5792503 -5.0818148 -0.34252194 307 0 0 0 58.879208
7.1513429 -4.964541 -0.18263336 714.66669 0 0 0 59.13847
7.2285147 -3.0068495 -0.38467789 38.5 0 0 0 55.754879
6.318747 0.15518992 -0.382177 5537 0 0 0 49.136288
5.8667593 1.8706142 -0.29700595 16 0 0 0 44.64402
5.3634253 3.6141787 -0.31556147 220 0 0 0 40.15786
-24.650486 4.2573757 -0.36261562 16 0 0 0 2.33868
-24.289055 4.8094687 -0.35937405 16 0 0 0 2.7240801
-23.801825 5.935997 -0.35740161 17 0 0 0 3.5064099
1.7783071 5.6352043 -0.38115823 516.66669 0 0 0 29.553658
0.94404805 6.2603064 -0.38518524 731 0 0 0 27.08732
1.238718 6.137536 -0.22704725 671.09998 0 0 0 27.869503
1.6603296 6.2139359 -0.31282175 611 0 0 0 28.83428
2.4014981 6.3757081 -0.25060788 1409.3334 0 0 0 30.39794
2.7144229 6.4638157 -0.2591686 1148.6666 0 0 0 30.990524
3.2423069 6.1692176 -0.4284462 508.33334 0 0 0 32.353073
-4.726337 6.6030335 -0.49696076 328 0 0 0 14.808353
-4.2701197 6.809495 -0.49233133 392 0 0 0 15.78178
-3.8952966 6.9442511 -0.48802739 315 0 0 0 16.556854
0.87666583 6.7125411 -0.25075096 683 0 0 0 26.764517
2.2583268 6.6511254 -0.14411895 754.66669 0 0 0 29.876694
3.1310253 6.5693665 -0.23418465 1169.8 0 0 0 31.728039
3.6352341 6.7032981 -0.19147147 1288.25 0 0 0 32.546265
4.142674 6.8467636 -0.26103526 1024.8 0 0 0 33.289379
4.6054173 6.9731932 -0.21332508 1083 0 0 0 33.913448
-23.337503 7.0491395 -0.35670468 19 0 0 0 4.2899699
-3.616735 7.0416107 -0.48544192 283 0 0 0 17.14782
-3.2390501 7.1444697 -0.48143002 307.33334 0 0 0 17.925085
-2.7699022 7.2629309 -0.47740021 299.5 0 0 0 18.902401
-2.3061538 7.3734436 -0.47501349 264.33334 0 0 0 19.875551
-1.847635 7.4923677 -0.47505268 290 0 0 0 20.854225
0.74402469 7.2813849 -0.27316496 722.25 0 0 0 26.314476
2.0749512 7.255445 -0.15761781 762 0 0 0 29.096495
4.9154563 7.0552969 -0.22060347 1098.5 0 0 0 34.303139
5.2393904 7.1359243 -0.22802626 980 0 0 0 34.687752
5.7739706 7.2764587 -0.24095586 951.25 0 0 0 35.279915
6.3588309 7.430028 -0.37533394 1004 0 0 0 35.86018
-1.5648404 7.5279078 -0.47347251 263 0 0 0 21.44088
-1.1902627 7.5756049 -0.47261986 419 0 0 0 22.214407
-0.72956562 7.7124877 -0.47822565 359 0 0 0 23.19022
-0.25628361 7.858849 -0.48642281 233 0 0 0 24.161154
0.23054032 7.9769287 -0.49451387 898 0 0 0 25.13578
0.57224232 7.7611213 -0.29300559 758 0 0 0 25.856714
1.9137818 7.8834176 -0.10687996 552 0 0 0 28.45266
6.4549069 7.5440731 -0.1383283 752 0 0 0 35.86018
6.8260832 7.5876894 -0.26727512 770.5 0 0 0 36.259007
7.2550015 7.6731939 -0.27840918 779 0 0 0 36.6506
7.7741117 7.8240757 -0.29243469 249.5 0 0 0 37.044861
8.3022995 7.951519 -0.30602145 658.5 0 0 0 37.438232
-22.669847 8.076993 -0.35340112 30 0 0 0 5.0690899
-12.059518 8.4343414 -0.20769955 9 0 0 0 9.3460903
-5.6018429 8.2701988 -0.13455173 100 0 0 0 15.20418
0.35117117 8.4294453 -0.31849211 1015 0 0 0 25.330151
0.53533769 8.1238117 -0.10730356 735 0 0 0 25.72463
8.871603 8.085083 -0.32130483 593.5 0 0 0 37.826679
9.5442429 8.2746401 -0.33950865 488.5 0 0 0 38.216686
-22.175129 8.5173855 -0.34923017 40 0 0 0 5.4603901
-21.492439 8.8638554 -0.34185544 17 0 0 0 5.8473401
-11.718322 8.6293249 -0.20553012 59 0 0 0 9.7382803
-8.1437101 8.8996153 -0.31300554 319 0 0 0 12.84552
-7.7099299 8.8485317 -0.30338395 417 0 0 0 13.23966
-7.1950984 8.6751766 -0.42906052 189 0 0 0 13.63313
-6.7372499 8.754631 -0.42045164 244 0 0 0 14.21574
-6.184166 8.9059715 -0.41279238 219.5 0 0 0 15.006205
-2.9266326 8.6470585 -0.23385949 2348 0 0 0 19.484791
0.37267351 8.8960285 -0.12070303 617 0 0 0 25.330151
10.510921 8.6668711 -0.20247416 333 0 0 0 38.604321
-8.6950531 9.0507927 -0.32781228 287 0 0 0 12.46065
-7.3174429 9.044486 -0.16141281 671 0 0 0 13.82598
-6.7165561 9.1852055 -0.15785292 512 0 0 0 14.61044
-6.0071483 9.3671541 -0.15446714 126 0 0 0 15.58397
-5.7204804 9.249073 -0.3252596 477.33334 0 0 0 15.847717
-5.2081604 9.3308544 -0.40782636 321.5 0 0 0 16.556854
-4.8226237 9.4384108 -0.4047181 341 0 0 0 17.14782
-2.9115481 9.3661947 -0.1348315 102 0 0 0 19.87137
-2.1948957 9.4739609 -0.37109685 527 0 0 0 21.050659
-1.756873 9.0730972 -0.23839357 1345 0 0 0 21.633369
-1.3153905 9.1945457 -0.24017736 1157.25 0 0 0 22.40868
-0.80351222 9.3800583 -0.26666862 899 0 0 0 23.305977
-0.29675913 9.4779224 -0.36219338 1087 0 0 0 24.156839
0.16120948 9.1442547 -0.34823641 819 0 0 0 24.94141
-21.590658 9.5296326 -0.34848049 12 0 0 0 6.23771
-18.299795 9.7341862 -0.30386361 20 0 0 0 7.4075599
-11.202731 9.5933075 -0.21051776 10 0 0 0 10.904
-10.063037 9.5042982 -0.19631791 585 0 0 0 11.68762
-9.64816 9.5682983 -0.19253942 145 0 0 0 12.0734
-5.3349037 9.55686 -0.15220042 807 0 0 0 16.556854
-4.7263827 9.6325312 -0.23479712 635 0 0 0 17.403978
-4.2366023 9.7156181 -0.27517328 585.25 0 0 0 18.121595
-3.7288935 9.8413286 -0.27359703 457.25 0 0 0 18.902401
-3.0575724 9.8532343 -0.39514777 229 0 0 0 19.87137
-2.6739984 9.8871136 -0.39249229 200 0 0 0 20.46414
-2.2299545 9.6229277 -0.13669729 610 0 0 0 21.050659
-0.53696734 9.585062 -0.13268949 618 0 0 0 23.768999
-0.064430028 9.6221581 -0.24963684 727.5 0 0 0 24.557619
-21.367897 10.063187 -0.34967181 28 0 0 0 6.6230402
-16.327328 10.284885 -0.28250301 188 0 0 0 8.5745897
-2.7608757 10.210497 -0.14866483 657.5 0 0 0 20.46414
-0.32245994 10.460341 -0.14801966 381 0 0 0 24.156839
0.18888146 10.334414 -0.14589718 283 0 0 0 24.94141
-21.153318 10.602354 -0.35126784 19 0 0 0 7.0143499
-18.841286 11.240895 -0.32547268 15 0 0 0 8.1759501
17.407419 12.293963 -0.33642417 150 0 0 0 39.769279
-19.167334 12.750045 -0.34509233 23 0 0 0 8.9589195
17.141764 12.749607 -0.33754411 41 0 0 0 39.388088
16.980087 13.29005 -0.34123263 49 0 0 0 38.996471
-18.049168 14.020738 -0.34490991 26 0 0 0 10.13414
-17.708429 14.465097 -0.34598172 19 0 0 0 10.52146
26.172867 15.716004 -0.4962815 55 0 0 0 40.938801
25.657188 16.277706 -0.49435899 50 0 0 0 40.556049
25.194628 16.866959 -0.49352938 61 0 0 0 40.15786
-28.402182 -29.843588 0.32922953 35 0 0 0 86.633446
38.142593 -18.042336 0.34985343 12 0 0 0 56.540489
-40.566269 -17.988995 0.36040112 30 0 0 0 92.866592
42.647007 -15.259239 0.37362507 15 0 0 0 54.985081
44.730652 -14.776055 0.38723582 7 0 0 0 54.59494
-34.953117 -14.484779 0.31304598 45 0 0 0 93.263824
-3.234818 -14.403418 0.13880567 14 0 0 0 78.022957
-5.3135982 -13.780589 0.13916983 7 0 0 0 80.370285
-4.9725356 -13.902159 0.13906716 575 0 0 0 79.985199
-4.1797128 -13.77273 0.49533379 7 0 0 0 79.205673
-3.3841202 -13.504732 0.30665383 468 0 0 0 78.413605
-10.858912 -13.241343 0.15732752 92 0 0 0 85.458557
-10.209376 -13.091721 0.15345986 120 0 0 0 85.063828
-8.2517366 -13.039884 0.14461994 40 0 0 0 83.495399
-6.1784492 -13.064602 0.49767017 9 0 0 0 81.546677
-9.5739288 -12.918418 0.14960736 287 0 0 0 84.667763
-8.9809608 -12.761284 0.14611021 346 0 0 0 84.276268
-8.4060917 -12.58969 0.14268227 253 0 0 0 83.880119
-6.7395701 -12.61159 0.49300247 11 0 0 0 82.330864
-6.4414978 -12.801926 0.31608397 9 0 0 0 81.941483
-26.273371 -12.433713 0.24809347 91 0 0 0 92.477341
-6.9068213 -12.19803 0.30931923 658.5 0 0 0 82.716248
29.263811 -12.125501 0.27207652 47 0 0 0 55.754879
54.499989 -12.233647 0.45254618 34 0 0 0 53.037273
20.820229 -11.13654 0.21159379 23 0 0 0 57.31562
24.797953 -10.997797 0.23813561 32 0 0 0 56.141918
54.067322 -10.749571 0.44706711 27 0 0 0 52.643318
-1.0056485 -10.15965 0.36161256 376 0 0 0 76.078156
0.32708088 -10.190988 0.27681473 285.33334 0 0 0 73.993263
0.98557127 -10.093032 0.35971004 55 0 0 0 72.944489
25.566107 -9.8665094 0.24042697 30 0 0 0 55.37608
-1.596222 -9.1780901 0.33308852 184 0 0 0 77.246735
4.152359 -9.094326 0.23157299 551 0 0 0 67.671967
53.713322 -9.3146477 0.44244927 19 0 0 0 52.254128
-43.270599 -8.6099939 0.36320305 27 0 0 0 96.381104
-1.396107 -8.6633167 0.20741759 360 0 0 0 77.050308
4.753921 -8.9186268 0.17124069 668.75 0 0 0 66.697197
5.2560906 -8.7963982 0.36510998 486 0 0 0 65.917389
5.6355791 -8.6875515 0.36885643 748.5 0 0 0 65.331406
-47.778912 -8.2927256 0.39618915 17 0 0 0 96.775444
-1.2100433 -8.1399384 0.093333773 527 0 0 0 76.853889
-0.8007555 -8.0947838 0.092680909 358 0 0 0 76.078156
-1.7642213 -7.8441882 0.39056712 8.5 0 0 0 78.022957
-0.95775491 -7.7326236 0.28329203 654 0 0 0 76.468872
1.1183449 -7.6026378 0.46914873 243 0 0 0 72.161949
-1.4276615 -7.4012384 0.32170165 562.75 0 0 0 77.54171
-0.52810061 -7.0953722 0.17517623 422 0 0 0 75.689697
-0.091879971 -7.040307 0.085137591 600 0 0 0 74.706924
0.34945348 -7.2410574 0.086652286 88 0 0 0 73.72744
0.53559834 -7.351778 0.087534726 63 0 0 0 73.333031
4.1290264 -7.1104021 0.19731729 632 0 0 0 66.11235
-0.59060585 -6.7945046 0.42004746 1452 0 0 0 75.883926
-0.2308913 -6.8771815 0.28104684 724.66669 0 0 0 75.031586
0.75920993 -6.7743731 0.15265131 354.20001 0 0 0 72.712334
1.2456361 -6.7466159 0.16922064 377.33334 0 0 0 71.582787
1.7131222 -6.64887 0.22735482 524.83331 0 0 0 70.477654
2.0972807 -6.6580801 0.08532469 386 0 0 0 69.632507
2.5826507 -6.7261782 0.087090798 430 0 0 0 68.652222
4.2305284 -6.7073903 0.48487276 308 0 0 0 65.524162
4.7543235 -6.7756534 0.30230379 337 0 0 0 64.742661
1.9124634 -6.3441243 0.24793766 382 0 0 0 69.827438
2.1878834 -6.1491985 0.2047409 412 0 0 0 69.045677
2.7157369 -6.160675 0.25136152 464.75 0 0 0 67.870758
3.1143887 -6.2172632 0.34586203 453.5 0 0 0 67.095314
3.7852077 -6.0016379 0.087073095 548 0 0 0 65.524162
4.2236838 -6.015873 0.089131601 575.66669 0 0 0 64.743973
4.7935858 -6.3257298 0.34014907 627 0 0 0 64.156219
5.2929955 -6.0064316 0.294265 732 0 0 0 62.985497
6.955739 -6.3235555 0.33998004 223 0 0 0 61.221409
2.6076722 -5.9135208 0.2408338 336.5 0 0 0 67.865639
4.6771126 -5.8638153 0.090502411 731.5 0 0 0 63.7658
5.2050548 -5.6909208 0.14173515 633.75 0 0 0 62.687996
5.7408423 -5.6681428 0.22908355 493.66666 0 0 0 61.871563
6.1518054 -5.5929413 0.097298548 409 0 0 0 61.221409
6.7173004 -5.5297689 0.20950215 705.5 0 0 0 60.441399
5.6371741 -5.3850327 0.093368903 430 0 0 0 61.614006
6.1532879 -5.3256621 0.2001055 935.5 0 0 0 60.827141
6.7808642 -5.2189631 0.24217904 628.33331 0 0 0 59.923702
7.1950431 -5.2133884 0.10198035 703.5 0 0 0 59.466927
7.5696197 -5.3475394 0.33636984 126 0 0 0 59.268101
55.006424 -2.6935179 0.44546443 18 0 0 0 50.302818
23.108475 -2.2747233 0.20934696 91 0 0 0 51.088127
23.072086 -1.6999162 0.20862311 93 0 0 0 50.687359
21.838274 -0.53264791 0.19848269 45 0 0 0 49.91412
54.718399 0.010488738 0.44121042 19 0 0 0 49.52034
54.133392 1.340214 0.43618023 26 0 0 0 49.136288
53.867008 2.658551 0.43371195 21 0 0 0 48.742352
-41.288811 4.0426927 0.38909268 7 0 0 0 1.17067
-40.148533 4.9263391 0.37898165 17 0 0 0 1.5577199
5.0328436 5.0849915 0.17552434 330 0 0 0 37.044861
0.95257753 5.8474355 0.36903882 428 0 0 0 27.2819
1.2223066 5.7140632 0.36473742 456.33334 0 0 0 28.064878
1.6634645 5.6771903 0.36914197 506.33334 0 0 0 29.227522
2.140326 5.9141779 0.39042428 664 0 0 0 30.201321
2.857954 6.1656685 0.41927448 621 0 0 0 31.574692
3.2961228 6.1514974 0.37111869 734.33331 0 0 0 32.481037
3.5991652 6.0977254 0.43556312 985 0 0 0 33.134979
1.4454232 6.7150884 0.082822718 517 0 0 0 28.06426
2.7541337 6.6724138 0.17637172 646.5 0 0 0 30.891861
3.1851463 6.643589 0.17879088 586.75 0 0 0 31.767815
3.6662045 6.7644749 0.088948071 684 0 0 0 32.546265
4.1811943 6.8762083 0.091447823 788.5 0 0 0 33.32798
0.80784023 7.0705714 0.084406681 823 0 0 0 26.50807
2.1672382 7.3488541 0.15196383 629.66669 0 0 0 29.227522
4.8154216 7.0986423 0.095176488 606.5 0 0 0 34.108292
5.293119 7.2123451 0.097781286 545 0 0 0 34.687752
5.8160973 7.3334861 0.10072219 751 0 0 0 35.279915
6.3819356 7.4621444 0.10397848 632 0 0 0 35.86018
7.0038295 7.4108224 0.36182231 407 0 0 0 36.6506
8.2403316 7.3298788 0.38874096 495 0 0 0 38.021683
0.68926716 7.6538992 0.37365884 701 0 0 0 26.118616
1.1022918 7.8524776 0.38485599 544 0 0 0 26.89274
1.9166844 7.8977571 0.192922 578 0 0 0 28.45266
2.2439544 7.5934482 0.22116064 603.66669 0 0 0 29.227518
2.8128948 7.8233752 0.23178947 640.33331 0 0 0 30.13578
3.2156811 7.9081683 0.094574742 401 0 0 0 30.792601
4.8055978 7.6762152 0.32483271 621 0 0 0 33.520981
6.80059 7.5635953 0.1064822 598 0 0 0 36.259007
7.2782726 7.7017355 0.10949705 423 0 0 0 36.6506
8.0721426 7.7339077 0.39334276 140 0 0 0 37.438232
9.1960001 7.5878234 0.41740057 481 0 0 0 38.604321
-11.991798 8.3838959 0.14922549 13 0 0 0 9.3460903
0.53501087 8.1379499 0.091459922 704 0 0 0 25.72463
1.1777297 8.3715963 0.093512207 357 0 0 0 26.89274
1.8139806 8.350934 0.3075316 667 0 0 0 28.06426
4.8030334 8.3343172 0.34266028 576.5 0 0 0 32.938465
6.6816602 8.2064381 0.3738209 666 0 0 0 35.472191
8.450552 8.0969706 0.1173266 293 0 0 0 37.438232
-21.62718 8.9156694 0.22509407 8 0 0 0 5.8473401
-11.789208 8.679081 0.14876513 32 0 0 0 9.7382803
-8.1950264 8.9538269 0.27657032 598.5 0 0 0 12.84552
-7.795413 8.9452162 0.27077866 646 0 0 0 13.23966
-7.4516454 8.9839611 0.26664779 710.5 0 0 0 13.63313
-5.7484741 8.9594336 0.37697816 415 0 0 0 15.58397
0.36630973 8.7963982 0.095878936 565 0 0 0 25.330151
1.6823657 8.7721386 0.20839691 580.5 0 0 0 27.67771
5.6503954 8.5386086 0.36253697 624 0 0 0 33.913448
6.223402 8.6819477 0.37679273 569 0 0 0 34.495445
6.8608713 8.8601379 0.39357817 478 0 0 0 35.087639
-18.793425 9.4111528 0.20352432 25 0 0 0 7.0143499
-11.220709 9.1385126 0.14639443 283 0 0 0 10.52146
-8.7129965 9.0672026 0.28584918 487 0 0 0 12.46065
-7.1497698 9.0613747 0.26374272 667 0 0 0 14.01883
-6.7074575 9.171504 0.2596482 580.75 0 0 0 14.61044
-6.1790104 9.2955093 0.20896208 426 0 0 0 15.330777
-5.7278461 9.4299507 0.25212261 825 0 0 0 15.97959
-5.4513917 9.4922943 0.38616326 919 0 0 0 16.36137
-3.2054667 9.4897175 0.35473937 61 0 0 0 19.484791
-1.7907546 9.2465992 0.21752995 637.5 0 0 0 21.633369
-1.3340027 9.3260498 0.21763808 601 0 0 0 22.40868
-0.76356488 9.433259 0.10057301 629.66669 0 0 0 23.383146
1.5488901 9.2895355 0.21775623 588.5 0 0 0 27.2819
7.7954159 9.0982866 0.41845998 403 0 0 0 35.86018
8.3080912 9.2243767 0.43236542 410 0 0 0 36.259007
9.9405832 9.0586853 0.12950505 486 0 0 0 37.826679
-9.657095 9.574276 0.13783017 128 0 0 0 12.0734
-5.2804265 9.5484648 0.20388152 888.33331 0 0 0 16.622017
-4.7954984 9.6727219 0.24652895 860.75 0 0 0 17.339939
-4.2748542 9.8012266 0.24401662 871 0 0 0 18.121595
-3.7657485 9.9361935 0.24226844 834.75 0 0 0 18.902399
-2.9526231 9.5025883 0.35249063 63 0 0 0 19.87137
-0.18505259 9.6309261 0.10159182 428.5 0 0 0 24.357229
0.16849039 9.5680647 0.10110813 435 0 0 0 24.94141
-16.168419 10.180779 0.18544093 318 0 0 0 8.5745897
-3.2611904 10.066021 0.10943823 538.5 0 0 0 19.678082
-2.7581525 10.197322 0.24030618 752.25 0 0 0 20.46414
-2.3813336 10.293776 0.24017668 649 0 0 0 21.050659
-1.0523887 10.007615 0.35540664 878 0 0 0 22.99317
-0.56329733 10.12479 0.35782975 739 0 0 0 23.768999
-0.19159658 10.283383 0.36244386 514 0 0 0 24.357229
0.18969312 10.360782 0.36488268 949 0 0 0 24.94141
-18.012058 10.740193 0.20086566 36 0 0 0 8.1759501
-0.85459691 10.686671 0.37630618 607 0 0 0 23.38727
1.2345464 10.520105 0.37229764 449 0 0 0 26.50807
0.47798568 11.037253 0.38666505 629 0 0 0 25.330151
0.75477016 11.097383 0.38908389 683 0 0 0 25.72463
1.0372797 11.175421 0.39230683 588 0 0 0 26.12088
17.578943 11.78267 0.18408738 58 0 0 0 40.15786
17.436886 12.3194 0.1851716 297 0 0 0 39.769279
29.961885 12.435735 0.2673448 84 0 0 0 43.281834
17.169861 13.443111 0.18791872 234 0 0 0 38.996471
29.296192 13.012695 0.26400951 65 0 0 0 42.892342
28.730743 13.616769 0.26155794 33 0 0 0 42.507889
37.087315 14.331303 0.32016027 29 0 0 0 43.67701
29.004597 14.629655 0.26583853 20 0 0 0 42.120041
40.71114 14.591087 0.34583369 11 0 0 0 44.063751
27.171213 15.425565 0.25590265 37 0 0 0 41.328079
28.158415 15.082586 0.26140705 27 0 0 0 41.721672
-18.4114 15.805894 0.2207503 119 0 0 0 10.904
-17.705536 15.968384 0.2166854 114 0 0 0 11.29155
26.297739 15.797282 0.25135684 52 0 0 0 40.938801
-17.065218 16.165226 0.21330056 73 0 0 0 11.68762
25.774124 16.35825 0.24970944 43 0 0 0 40.556049
24.447206 18.174734 0.24832228 35 0 0 0 39.388088
23.772306 19.557842 0.24996319 30 0 0 0 38.604321
23.471699 20.297932 0.25139853 43 0 0 0 38.216686
-17.315304 -21.102198 0.91069645 174 0 0 0 85.458557
-5.6291242 -13.589463 0.50571185 13 0 0 0 80.763214
-5.3364468 -13.832658 0.50937253 7 0 0 0 80.370285
-4.979125 -13.912916 0.68853176 614 0 0 0 79.985199
-4.1879745 -13.799923 0.8489334 67 0 0 0 79.205673
-9.8662605 -13.307907 0.97167861 7 0 0 0 84.667763
-5.8641825 -13.229946 0.67378759 39.5 0 0 0 81.158813
-3.3834057 -13.496784 0.82023335 267 0 0 0 78.413605
-6.9002037 -12.183926 0.82607818 458 0 0 0 82.716248
20.370554 -11.553051 0.79492319 56 0 0 0 57.708382
25.346516 -11.246268 0.93525034 27 0 0 0 56.141918
-1.5929575 -10.716894 0.7811619 488 0 0 0 76.853889
25.831387 -10.710081 0.9429841 15 0 0 0 55.754879
-0.0059196744 -10.281425 0.74320769 493.5 0 0 0 74.513985
0.36816147 -10.179216 0.73670477 563 0 0 0 73.926811
1.8021016 -9.7337914 0.59429371 538 0 0 0 71.583923
2.3145168 -9.6154261 0.67587775 817.66669 0 0 0 70.737617
2.6257377 -9.5239725 0.83917415 651 0 0 0 70.217682
19.681627 -9.9192171 0.75063092 8 0 0 0 56.925087
20.837538 -9.8671389 0.78368497 44 0 0 0 56.540489
0.66141301 -9.055397 0.77340478 61 0 0 0 73.333031
1.1041772 -9.0126209 0.77357864 153 0 0 0 72.561104
3.2045617 -9.3494778 0.71681315 568.75 0 0 0 69.24202
3.6860876 -9.2485142 0.72227967 692.25 0 0 0 68.457718
4.166472 -9.1236343 0.85241389 515.5 0 0 0 67.671967
4.5294871 -9.0247974 0.85811466 831 0 0 0 67.095314
0.65492278 -8.988307 0.54387993 92 0 0 0 73.333031
1.0604361 -8.6704607 0.52836722 83 0 0 0 72.561104
4.7644548 -8.9409409 0.73518169 577.5 0 0 0 66.693077
5.1362534 -8.8379345 0.74173355 529.25 0 0 0 66.11235
5.7712321 -8.6614742 0.75479847 401.5 0 0 0 65.138657
6.3150129 -8.7607899 0.91663337 119 0 0 0 64.546631
0.702604 -8.2477798 0.70585203 230 0 0 0 73.138763
1.0191203 -8.3242149 0.920573 198 0 0 0 72.561104
1.828725 -8.1852703 0.92100972 430 0 0 0 70.999046
2.5301051 -8.3778419 0.63928229 443 0 0 0 69.827438
6.154017 -8.3220797 0.62240309 128 0 0 0 64.350601
6.8717208 -8.393384 0.9210332 109 0 0 0 63.5672
-1.7925422 -7.9766946 0.69966173 7 0 0 0 78.022957
-0.96541381 -7.8017893 0.76939821 998 0 0 0 76.468872
-0.0054184045 -7.8524475 0.86388671 298 0 0 0 74.513985
0.77779448 -7.9699106 0.78344727 356 0 0 0 72.944489
1.2129186 -7.5896082 0.75349301 353 0 0 0 71.968307
1.5014869 -7.5934739 0.66486734 401 0 0 0 71.393181
6.8336048 -7.9417601 0.89103752 137 0 0 0 63.185009
7.1998 -7.8337588 0.72777826 299.66666 0 0 0 62.654156
-1.3857166 -7.4330282 0.74142325 1471.75 0 0 0 77.44339
1.0691005 -7.2621894 0.6321736 443 0 0 0 72.161949
1.6604897 -7.4364095 0.65511525 532 0 0 0 70.999046
5.200398 -7.4066772 0.99359822 719 0 0 0 64.742661
5.7272668 -7.2377982 0.63525748 345.33334 0 0 0 63.832001
6.0796995 -7.0704918 0.56488425 26 0 0 0 63.185009
7.4032059 -7.0660191 0.8721261 104 0 0 0 61.614006
-0.5916335 -6.8242359 0.75887376 1429.1666 0 0 0 75.883926
-0.25267488 -6.7292366 0.74657011 1436.5 0 0 0 75.095901
4.2052422 -6.844903 0.78585285 413.5 0 0 0 65.720779
4.5389295 -6.816577 0.90234321 401 0 0 0 65.138657
5.7197418 -6.8171844 0.97840273 343 0 0 0 63.376106
6.4930191 -6.8387728 0.80605292 91 0 0 0 62.390499
6.8487635 -6.8670654 0.82817972 247 0 0 0 62.00034
7.4269314 -6.7484708 0.85610634 122 0 0 0 61.221409
7.554738 -6.8665199 0.61605293 220 0 0 0 61.221409
3.9827564 -6.3139634 0.82552946 223 0 0 0 65.524162
4.6744189 -6.3251777 0.86838377 516 0 0 0 64.350601
6.2595291 -6.2791986 0.75344217 354 0 0 0 62.00034
6.5633821 -6.267889 0.77407104 276.5 0 0 0 61.614006
6.9902449 -5.7548876 0.55083191 538 0 0 0 60.441399
6.9950781 -5.4766297 0.54129767 26 0 0 0 60.052673
23.227774 -1.7154247 0.7918213 36 0 0 0 50.687359
21.999189 -0.54037189 0.74964309 40 0 0 0 49.91412
0.92170292 5.8912954 0.62963831 601.75 0 0 0 27.18461
1.2446215 5.8224487 0.73996305 673.08331 0 0 0 28.064875
1.6703254 5.8179169 0.69305241 631.88892 0 0 0 29.140141
2.1392536 5.9132514 0.54706264 749.5 0 0 0 30.201321
0.80090815 6.1954269 0.76937485 625.33331 0 0 0 26.765266
2.2597051 6.2332859 0.82091868 662 0 0 0 30.201321
2.7364695 6.2263832 0.7882396 650.20001 0 0 0 31.261475
3.2154596 6.1217594 0.76850682 795.16669 0 0 0 32.353069
3.8091271 6.331377 0.75647807 751.66669 0 0 0 33.263645
2.3440285 6.7236996 0.96283996 598 0 0 0 30.0047
3.7344282 6.6983666 0.84662658 530 0 0 0 32.742504
4.7166886 6.7781663 0.78850204 684.40002 0 0 0 34.301109
5.1955657 6.6137776 0.78858405 886.33331 0 0 0 35.215824
5.5805116 6.8671374 0.97187251 608 0 0 0 35.472191
3.5511618 7.1713471 0.8813653 628 0 0 0 31.96669
4.4549317 7.1252151 0.92419374 347 0 0 0 33.520981
6.3194427 7.3884807 0.70723921 612 0 0 0 35.86018
6.6675973 7.1754627 0.75182384 667.66669 0 0 0 36.520069
7.1521096 7.2048683 0.73691714 756 0 0 0 37.044861
8.5620861 7.4290566 0.67663097 709 0 0 0 38.216686
0.68633789 7.6239891 0.84221882 541 0 0 0 26.12088
2.9622135 7.8356214 0.92031103 678 0 0 0 30.39794
3.2751842 7.9114985 0.78317571 647.75 0 0 0 30.891563
4.821198 7.7008743 0.54852903 605 0 0 0 33.520981
6.1803794 7.5956221 0.58883148 417 0 0 0 35.472191
7.9665394 7.634778 0.79749715 520.5 0 0 0 37.438232
8.3041973 7.5737696 0.81143641 515.5 0 0 0 37.826679
0.53499073 8.1353664 0.69678891 644 0 0 0 25.72463
3.7374363 8.0273447 0.97114098 742 0 0 0 31.568939
10.212277 8.2109566 0.77658749 422.5 0 0 0 38.800396
-8.1868048 8.9468641 0.72228831 584 0 0 0 12.84552
-7.776825 8.9243927 0.85202205 630.5 0 0 0 13.23966
-7.4307027 8.9591722 0.83794183 669.5 0 0 0 13.63313
0.77252686 8.5011206 0.72800201 548 0 0 0 26.12088
5.6353798 8.516161 0.61204332 603 0 0 0 33.913448
6.2159758 8.6718788 0.63801706 582.5 0 0 0 34.495445
6.8356071 8.8278036 0.66603106 502 0 0 0 35.087639
-8.7162066 9.0727015 0.74845725 469 0 0 0 12.46065
-7.125947 9.0315876 0.82838124 627 0 0 0 14.01883
-6.6897678 9.1479053 0.81613231 694 0 0 0 14.61044
-6.2596092 9.2541294 0.80481666 716 0 0 0 15.20418
-5.8479748 9.3671169 0.79543769 794.25 0 0 0 15.78178
-5.4381084 9.4675236 0.78650415 893.5 0 0 0 16.36137
-0.0649793 9.322402 0.55967855 628 0 0 0 24.557619
0.16533764 9.3655138 0.56222326 489 0 0 0 24.94141
8.2890167 9.2033854 0.73516595 300 0 0 0 36.259007
-9.6567602 9.5780487 0.80692482 69 0 0 0 12.0734
-5.1766729 9.5457516 0.78217161 838 0 0 0 16.75234
-4.7827744 9.6475868 0.77577841 808 0 0 0 17.339939
-4.2636404 9.7759218 0.76838171 858.75 0 0 0 18.121595
-3.7557156 9.9100409 0.76345485 822.25 0 0 0 18.902401
-1.653761 9.8567924 0.59742486 360 0 0 0 22.021111
-1.1714827 9.9629707 0.59950536 586 0 0 0 22.797085
-16.078913 10.128472 0.65697813 356 0 0 0 8.5745897
-3.2521322 10.041393 0.76035631 687.5 0 0 0 19.678082
-2.7519548 10.175058 0.75911534 730.75 0 0 0 20.46414
-2.2498348 10.300263 0.75918758 701 0 0 0 21.24577
-1.7466307 10.424783 0.89241028 667.5 0 0 0 22.021111
-0.56354958 10.131876 0.6060251 857 0 0 0 23.768999
-0.31559241 10.191946 0.60882831 704 0 0 0 24.156839
-1.2384976 10.551583 0.89685571 654.5 0 0 0 22.797085
-0.76716042 10.683003 0.81526542 624 0 0 0 23.514513
-0.19956249 10.760629 0.9083271 525.5 0 0 0 24.357229
0.20224817 10.94293 0.92317808 310 0 0 0 24.94141
0.47603428 11.014593 0.79249769 578 0 0 0 25.330151
17.614771 11.802291 0.71437198 117 0 0 0 40.15786
17.463181 12.333486 0.71977085 211 0 0 0 39.769279
-13.325506 13.246339 0.64430571 113 0 0 0 12.0734
17.207928 13.468114 0.73440623 230 0 0 0 38.996471
-28.310017 -29.736538 1.3531342 47 0 0 0 86.633446
-30.131828 -24.730473 1.288801 11 0 0 0 88.583023
-7.7392874 -20.060572 1.2487068 6 0 0 0 80.370285
-8.2491035 -19.913446 1.2518076 8 0 0 0 80.763214
-40.453377 -17.930611 1.4642936 27 0 0 0 92.866592
-4.9835081 -13.932805 1.2383643 455 0 0 0 79.985199
-4.1813426 -13.78668 1.2064738 227 0 0 0 79.205673
-3.7887697 -13.692045 1.1901351 402 0 0 0 78.809731
-3.3869331 -13.52079 1.1682937 350 0 0 0 78.413605
-5.8220444 -13.141108 1.2041322 293 0 0 0 81.158813
43.174072 -13.104121 1.4994501 23 0 0 0 54.206886
-6.9064393 -12.199924 1.1757972 204 0 0 0 82.716248
16.666094 -12.376595 1.216133 4 0 0 0 59.665752
17.290003 -12.192652 1.2389821 15 0 0 0 59.268101
20.224691 -12.136182 1.377818 59 0 0 0 58.105991
17.875732 -11.959313 1.2591584 18 0 0 0 58.879208
19.848757 -11.257682 1.3344016 12 0 0 0 57.708382
29.185656 -11.267801 1.050753 32 0 0 0 55.37608
-1.5959685 -10.74978 1.3157318 620.5 0 0 0 76.853889
-1.316462 -10.666039 1.4333893 58 0 0 0 76.468872
21.582832 -10.876245 1.4115329 36 0 0 0 56.925087
0.37058532 -10.204619 1.2385999 597 0 0 0 73.926804
18.817144 -10.071024 1.2506498 19 0 0 0 57.31562
1.8156422 -9.7936096 1.2096276 474.25 0 0 0 71.583923
2.4042201 -9.6327991 1.2061188 602.5 0 0 0 70.606911
2.7148182 -9.537385 1.245522 461 0 0 0 70.087601
21.575617 -9.5750952 1.3798218 42 0 0 0 56.141918
2.8690462 -9.492238 1.0829535 587 0 0 0 69.827438
3.2253549 -9.4045057 1.2081716 570 0 0 0 69.24202
3.6945879 -9.2678452 1.0899774 336 0 0 0 68.457718
4.1731892 -9.1362534 1.220834 698.25 0 0 0 67.671967
4.5375752 -9.0391827 1.2293863 798.5 0 0 0 67.095314
-43.336876 -8.6153288 1.4670413 14 0 0 0 96.381104
-0.0038840917 -8.6005659 1.3665755 274 0 0 0 74.513985
4.775394 -8.9598074 1.1092838 496 0 0 0 66.693077
5.1167912 -8.8840141 1.2884289 351.66666 0 0 0 66.177338
5.5217814 -8.7401657 1.3836503 358 0 0 0 65.524162
-1.8046405 -8.0370436 1.1066259 11 0 0 0 78.022957
-0.39960045 -8.0701771 1.2858331 555 0 0 0 75.291924
0.39374825 -8.1161661 1.4939277 327 0 0 0 73.72744
0.71700627 -8.1616077 1.2223076 366 0 0 0 73.100937
1.2495387 -8.4677973 1.149138 425 0 0 0 72.161949
3.45544 -8.3678217 1.2147551 358 0 0 0 68.263214
-0.0041241511 -7.7130527 1.0385059 231 0 0 0 74.513985
0.9482637 -7.7403398 1.4353161 135 0 0 0 72.561104
1.1578245 -7.8511624 1.2640475 551 0 0 0 72.161949
1.7713257 -7.923625 1.0921012 342 0 0 0 70.999046
2.9580245 -7.695621 1.1092236 351 0 0 0 68.652222
7.3973269 -7.7883415 1.1740416 263 0 0 0 62.390499
20.522486 -7.9265809 1.2887987 46 0 0 0 55.37608
-1.38149 -7.4164095 1.0164251 1142.5 0 0 0 77.44339
0.80536401 -7.3191109 1.1752288 349.5 0 0 0 72.752792
1.6424127 -7.3506322 1.2017211 255 0 0 0 70.999046
3.0441287 -7.3759351 1.2721037 397 0 0 0 68.263214
5.2762909 -7.315341 1.4355135 234 0 0 0 64.546631
5.6018085 -7.1982784 1.1136198 272 0 0 0 63.964401
7.4360609 -7.0950937 1.3782899 187 0 0 0 61.614006
3.1703794 -6.7289696 1.3725138 344 0 0 0 67.478302
3.7093177 -6.6468019 1.253463 387.39999 0 0 0 66.383636
4.6223049 -6.5838742 1.0849459 290 0 0 0 64.742661
5.0992827 -6.5537386 1.3246781 332 0 0 0 63.964401
5.6545329 -6.7389874 1.2918562 283.25 0 0 0 63.376106
6.1973386 -6.7443485 1.2309366 320 0 0 0 62.654156
7.775166 -6.8339195 1.2187561 177.66667 0 0 0 60.958569
3.9775977 -6.3036489 1.1918697 373 0 0 0 65.524162
4.2551227 -6.3898497 1.2241447 198 0 0 0 65.138657
4.6289601 -6.2617536 1.051569 449 0 0 0 64.350601
5.7134709 -6.3216629 1.1482139 188 0 0 0 62.78598
6.3903852 -6.4069109 1.2176187 282 0 0 0 62.00034
7.1473846 -6.4932055 1.297423 264 0 0 0 61.221409
6.580554 -5.9799728 1.4177384 154 0 0 0 61.221409
34.310787 -4.2351532 1.1575181 18 0 0 0 51.470261
23.700182 -3.5198414 1.4007583 34 0 0 0 51.85722
34.918175 -3.4417379 1.1741512 8 0 0 0 51.088127
23.635555 -1.745473 1.3858141 42 0 0 0 50.687359
22.482275 -1.1056395 1.3178689 34 0 0 0 50.302818
33.273468 0.00074033946 1.1139779 37 0 0 0 49.52034
33.605694 0.82664704 1.1245568 30 0 0 0 49.136288
37.242668 2.7508514 1.2439716 15 0 0 0 48.35162
0.85458231 6.1962495 1.0032436 778 0 0 0 26.89274
1.4108987 6.2052879 1.1785052 802.5 0 0 0 28.258461
2.4398532 6.4839368 1.1095876 800 0 0 0 30.39794
2.7004728 6.2299342 1.088861 811 0 0 0 31.183329
3.1170998 6.1843543 1.1684995 875.66669 0 0 0 32.094654
3.5035746 6.2888856 1.1527082 689 0 0 0 32.741951
2.3939652 6.8633838 1.2532537 519.5 0 0 0 30.0047
3.792434 6.8012948 1.4371657 583 0 0 0 32.742504
4.7028975 6.7607307 1.3142034 656.33331 0 0 0 34.301445
5.2538085 6.6894917 1.213969 700.33331 0 0 0 35.215824
1.3251183 7.4636655 1.3964573 519 0 0 0 27.479805
2.2824764 7.0975304 1.3754547 498 0 0 0 29.62068
2.7108209 7.1871738 1.4165875 565 0 0 0 30.39794
3.3905611 7.2968216 1.4827522 554 0 0 0 31.568939
5.2656159 7.1780124 1.1966157 461 0 0 0 34.687752
6.3387375 7.4122109 1.0674376 734 0 0 0 35.86018
6.7780914 7.1776295 1.202394 613.5 0 0 0 36.6506
7.0622683 7.1188383 1.3440021 667 0 0 0 37.044861
0.49876764 7.6599655 1.0328517 926 0 0 0 25.72463
0.63388187 7.7737088 1.179787 765.33331 0 0 0 25.988798
1.0640599 7.611445 1.4148148 391 0 0 0 26.89274
2.3016019 7.6543527 1.3124074 774.40002 0 0 0 29.306168
5.4319916 7.7931228 1.0401207 495 0 0 0 34.303139
8.4636841 7.7197971 1.2478815 571 0 0 0 37.826679
8.9160261 7.7372417 1.2849426 558 0 0 0 38.216686
5.2493954 8.3836603 1.3248396 545 0 0 0 33.520981
5.6175122 8.4959145 1.3632053 557 0 0 0 33.913448
8.3749247 8.0251741 1.2628994 194 0 0 0 37.438232
9.8522587 8.1295338 1.3873247 484 0 0 0 38.604321
10.388633 8.1490917 1.4329177 470 0 0 0 38.996471
-8.1754017 8.9316921 1.1672721 549 0 0 0 12.84552
-7.7660432 8.9108582 1.2828029 566 0 0 0 13.23966
-7.4178019 8.9424019 1.2612127 663 0 0 0 13.63313
5.9742589 8.5666399 1.3970619 435 0 0 0 34.303139
8.4955873 8.5502529 1.3106688 282 0 0 0 37.044861
-8.6980896 9.0510588 1.209347 470 0 0 0 12.46065
-7.10883 9.0085812 1.2458655 621 0 0 0 14.01883
-6.6263309 9.1367044 1.3173405 681.66669 0 0 0 14.67637
-6.2502222 9.2373543 1.347577 718 0 0 0 15.20418
-5.8345437 9.3425007 1.3310636 732.25 0 0 0 15.78178
-5.4278526 9.4463778 1.3166422 833.5 0 0 0 16.36137
-0.067244701 9.44133 1.1456826 529 0 0 0 24.557619
0.28179592 9.4268398 1.0292453 539 0 0 0 25.13578
8.2484837 9.1619797 1.3393447 291 0 0 0 36.259007
-5.1633186 9.5175905 1.3086879 837.5 0 0 0 16.75234
-4.7721477 9.6224766 1.2983739 765.5 0 0 0 17.339939
-4.2545671 9.7509756 1.2862022 851.25 0 0 0 18.121595
-3.7488201 9.8873081 1.2785152 805.25 0 0 0 18.902399
-3.3716197 9.9856892 1.27426 701 0 0 0 19.484791
-0.3042303 9.6349058 1.1696055 558 0 0 0 24.156839
0.17483485 9.8831024 1.3197196 507 0 0 0 24.94141
-3.1224031 10.054687 1.2729359 757 0 0 0 19.87137
-2.7479348 10.153679 1.2719055 733.25 0 0 0 20.46414
-2.2470138 10.279428 1.2723718 746.5 0 0 0 21.24577
-1.7431937 10.398962 1.2750733 713.75 0 0 0 22.021111
-1.3642328 10.490284 1.4091277 700 0 0 0 22.601
-1.1946205 10.545355 1.2400733 716 0 0 0 22.862448
-0.72353357 10.666031 1.2927688 620.25 0 0 0 23.578135
0.4715476 10.977644 1.4633549 311 0 0 0 25.330151
18.130663 10.895868 1.2319076 78 0 0 0 40.938801
0.74751657 11.02213 1.1998316 298 0 0 0 25.72463
17.810976 11.309314 1.2283826 424 0 0 0 40.556049
17.627216 11.810732 1.2349168 250 0 0 0 40.15786
17.481796 12.346722 1.2450624 289 0 0 0 39.769279
31.341784 13.913573 1.1366932 28 0 0 0 42.892342
32.845093 13.62414 1.1779976 40 0 0 0 43.281834
29.664083 14.052284 1.0890377 41 0 0 0 42.507889
28.959881 14.600987 1.0758758 49 0 0 0 42.120041
27.481476 15.595255 1.0479558 29 0 0 0 41.328079
27.093452 16.268183 1.0475006 38 0 0 0 40.938801
30.254797 16.197069 1.1355928 14 0 0 0 41.721672
26.345308 16.713848 1.0340211 13 0 0 0 40.556049
24.65597 18.323126 1.0176871 16 0 0 0 39.388088
-31.054924 28.073465 1.3971934 16 0 0 0 11.29155
-51.850594 -21.473658 1.8482701 41 0 0 0 93.263824
-17.183775 -20.94206 1.5670239 45 0 0 0 85.458557
-8.2540684 -19.935276 1.7899764 4 0 0 0 80.763214
43.179718 -14.272598 1.5109656 25 0 0 0 54.59494
-4.9790339 -13.924117 1.778519 173.5 0 0 0 79.985199
-4.1904469 -13.820995 1.7373686 470.5 0 0 0 79.205673
-9.6454983 -13.355003 1.7764012 7.5 0 0 0 84.472015
-5.8184204 -13.136042 1.7287397 496.5 0 0 0 81.158813
-3.3805544 -13.495246 1.5037827 94 0 0 0 78.413605
17.303289 -12.844677 1.7978162 15 0 0 0 59.665752
-6.9119701 -12.209723 1.5172683 47 0 0 0 82.716248
54.523388 -12.24899 1.8484768 35 0 0 0 53.037273
47.07111 -11.796855 1.6100358 8 0 0 0 53.429913
16.887243 -11.294847 1.6975486 29 0 0 0 58.879208
-1.5979362 -10.769197 1.8555119 525.5 0 0 0 76.853889
-1.1830912 -10.650616 1.8269856 526.5 0 0 0 76.273514
-0.77920854 -10.537163 1.8016937 766 0 0 0 75.689697
19.638348 -10.505676 1.8583444 17 0 0 0 57.31562
54.113041 -10.768543 1.8254952 51 0 0 0 52.643318
-0.51670301 -10.467908 1.9169343 584 0 0 0 75.291924
-0.25793448 -10.388445 1.7725184 524.5 0 0 0 74.899872
0.33040172 -10.224229 1.7037615 558.66669 0 0 0 73.993263
16.838718 -10.103127 1.6424909 22 0 0 0 58.105991
1.8187275 -9.8054161 1.703285 482.25 0 0 0 71.583923
2.330899 -9.6717606 1.7406311 519.33331 0 0 0 70.737617
2.7597222 -9.5459576 1.6978316 539.5 0 0 0 70.02256
17.511267 -9.9297934 1.6830624 12 0 0 0 57.708382
3.2309434 -9.4186687 1.7016242 537.75 0 0 0 69.24202
3.6610596 -9.2898493 1.7479602 466.33334 0 0 0 68.522552
4.1409965 -9.1629219 1.6772138 652.66669 0 0 0 67.736526
4.5508265 -9.0639133 1.7335134 504.5 0 0 0 67.095314
53.78838 -9.337369 1.8065959 32 0 0 0 52.254128
0.8559916 -8.7490683 1.8296343 129 0 0 0 72.944489
1.3141633 -8.9031897 1.6513697 220 0 0 0 72.161949
4.7923961 -8.9884033 1.8671526 437 0 0 0 66.693077
5.2749147 -8.8217316 1.629902 243 0 0 0 65.917389
5.8026547 -8.7041798 1.65871 586 0 0 0 65.138657
-0.004002057 -8.3199797 1.5287158 252 0 0 0 74.513985
19.119884 -8.4827957 1.748114 16 0 0 0 56.141918
-0.9407534 -7.622642 1.789912 351 0 0 0 76.468872
0.18717532 -7.7617288 1.9996021 29 0 0 0 74.126175
0.76551241 -7.8424072 1.7715057 175.33333 0 0 0 72.946205
7.3953762 -7.7838893 1.7034312 194 0 0 0 62.390499
7.6501102 -7.6658521 1.7181894 113 0 0 0 62.00034
0.82189089 -7.4588099 1.7496434 160.5 0 0 0 72.752792
1.1051378 -7.4973111 1.5820624 168 0 0 0 72.161949
4.4224553 -7.0057697 1.5258203 360 0 0 0 65.524162
4.9793596 -7.0907574 1.5945988 254 0 0 0 64.742661
5.2892437 -7.1516676 1.6363511 363 0 0 0 64.350601
5.7556572 -7.1477714 1.7638928 188.33333 0 0 0 63.6996
7.811223 -7.2701435 1.8271376 46 0 0 0 61.417709
0.84905398 -6.9291248 1.8884034 247 0 0 0 72.561104
5.4431434 -6.9943175 1.8488472 211 0 0 0 63.964401
5.8399658 -6.6786246 1.7798586 193.33333 0 0 0 63.052002
6.2135658 -6.6510005 1.7506108 83 0 0 0 62.522327
6.6264367 -6.643054 1.7258188 296 0 0 0 62.00034
7.5743713 -6.5483389 1.5921155 22 0 0 0 60.827141
32.951122 -6.5597954 1.9491378 15 0 0 0 52.643318
3.7690344 -6.1400042 1.5086253 339 0 0 0 65.720779
4.3932033 -6.259779 1.72321 227.33333 0 0 0 64.743973
6.3029871 -6.0174332 1.7130301 57 0 0 0 61.614006
4.1854911 -5.8598042 1.6835599 158.33333 0 0 0 64.611977
23.203154 -4.6168747 1.9731662 18 0 0 0 52.643318
25.652218 -4.4559946 1.5189054 17 0 0 0 52.254128
22.175734 -3.8488767 1.8790497 33 0 0 0 52.254128
22.640636 -3.3586597 1.9102284 17 0 0 0 51.85722
55.41687 -2.7232194 1.8343974 38 0 0 0 50.302818
32.682781 0.80405885 1.8956618 38 0 0 0 49.136288
54.017467 2.6566734 1.7857577 9 0 0 0 48.742352
2.9823599 6.4357891 1.7474351 743 0 0 0 31.568939
3.2747214 6.4279199 1.7773128 688.5 0 0 0 32.158634
3.6036358 6.4683414 1.7322198 633 0 0 0 32.741951
2.4255016 6.951582 1.540338 992 0 0 0 30.0047
2.7996778 6.602118 1.7950196 538.33331 0 0 0 31.056498
3.4816163 6.6250749 1.5667121 482 0 0 0 32.350578
3.7563622 6.607697 1.7141436 604 0 0 0 32.872959
4.7110863 6.8443146 1.6957819 646.20001 0 0 0 34.224182
5.6551514 6.9607439 1.8716097 648 0 0 0 35.472191
0.85721421 7.4844007 1.7571386 641.5 0 0 0 26.50807
1.1844906 7.4145851 1.78912 543.20001 0 0 0 27.205399
1.6025836 7.4264011 1.9591933 579 0 0 0 28.06426
4.5136404 7.2222276 1.7775432 493.5 0 0 0 33.520981
5.4697809 7.453619 1.9277252 445 0 0 0 34.687752
5.5153193 7.1412134 1.8825574 330 0 0 0 35.087639
6.3848462 7.2863131 1.659322 554.25 0 0 0 36.059593
6.7209368 7.1188908 1.6782054 727 0 0 0 36.6506
7.0118885 7.0684676 1.5816815 739 0 0 0 37.044861
8.6368256 7.4990592 1.811751 606 0 0 0 38.216686
48.53199 7.2060394 1.6202427 11 0 0 0 47.186993
0.79308474 7.7356749 1.7184981 554 0 0 0 26.314476
1.2715881 7.7298183 1.7328496 537 0 0 0 27.285225
2.254961 7.6414185 1.7611328 699.5 0 0 0 29.227518
2.8527317 7.7446618 1.8569589 625 0 0 0 30.266861
3.2895145 7.8687272 1.7364414 523.79999 0 0 0 30.950939
3.7039187 7.9600234 1.8307722 675 0 0 0 31.568939
4.9980764 7.5681548 1.8914057 636 0 0 0 33.913448
5.3462315 7.6742568 1.9494838 325 0 0 0 34.303139
6.2375932 7.8011189 1.7494612 388.33334 0 0 0 35.344006
8.210988 7.7436733 1.6949219 466.33334 0 0 0 37.567715
9.3074055 7.6850495 1.909849 276 0 0 0 38.604321
0.85389483 8.2878332 1.5305705 540.5 0 0 0 26.314476
1.3426651 8.1193047 1.9165407 438 0 0 0 27.2819
1.8257178 8.1078157 1.8687023 419 0 0 0 28.194344
3.9791279 8.0255203 1.8674121 576 0 0 0 31.96669
4.8869705 8.2530785 1.5233663 259 0 0 0 33.134979
5.2474923 8.3806782 1.5694702 584 0 0 0 33.520981
10.239435 8.4504995 1.7675335 212 0 0 0 38.604321
-8.1678772 8.9209795 1.7569312 468.5 0 0 0 12.84552
-7.7543411 8.8946953 1.7145224 609 0 0 0 13.23966
-7.2525525 8.9593105 1.6753314 587.5 0 0 0 13.82598
1.8464597 8.5083933 1.8131759 470 0 0 0 28.06426
-8.7008686 9.0515385 1.822979 424.5 0 0 0 12.46065
-6.703464 9.0844622 1.6872896 673.33331 0 0 0 14.54451
-6.2359986 9.2149057 1.7546753 738 0 0 0 15.20418
-5.7730064 9.3269548 1.8200079 682.33331 0 0 0 15.847717
-5.326364 9.4450407 1.8885894 725 0 0 0 16.491693
-0.18365505 9.3492765 1.8268322 547 0 0 0 24.357229
0.27650857 9.3152189 1.8219199 457 0 0 0 25.13578
0.63087958 9.4572544 1.7359477 624 0 0 0 25.72463
7.7370577 9.0372 1.586756 438 0 0 0 35.86018
8.2092237 9.1218939 1.6357516 353 0 0 0 36.259007
10.809913 9.3750229 1.9017901 253 0 0 0 38.216686
-5.1546822 9.500061 1.7050928 806 0 0 0 16.75234
-4.7597952 9.5959187 1.8221377 728.25 0 0 0 17.339939
-4.2478304 9.7337809 1.8068339 732.25 0 0 0 18.121595
-3.7387042 9.858427 1.7941511 759.5 0 0 0 18.902401
-3.3621974 9.9552717 1.7880976 744 0 0 0 19.484791
10.717892 9.7672853 1.9265751 325 0 0 0 37.826679
-3.1129031 10.021291 1.7858 727.5 0 0 0 19.87137
-2.7398186 10.120481 1.784595 737.75 0 0 0 20.46414
-2.2408702 10.24729 1.7855977 735.5 0 0 0 21.24577
-1.7378895 10.362025 1.7887688 714.25 0 0 0 22.021111
-1.3605646 10.462039 1.7961621 730.5 0 0 0 22.601
-1.106916 10.529896 1.8026879 657.5 0 0 0 22.99317
-0.72214293 10.631886 1.8146293 502 0 0 0 23.578135
-0.20025419 10.743147 1.6970649 279 0 0 0 24.357229
0.33465061 10.91855 1.725122 548.5 0 0 0 25.13578
1.2532985 10.70029 1.702492 279 0 0 0 26.50807
-50.807499 12.69719 1.776782 12 0 0 0 3.5064099
17.20039 14.886419 1.887019 90 0 0 0 38.216686
-54.334236 15.004451 1.9080065 19 0 0 0 3.8924699
-49.880444 15.09793 1.7646797 15 0 0 0 4.2899699
29.789934 15.019027 1.9230506 8 0 0 0 42.120041
29.838091 15.97452 1.9497145 17 0 0 0 41.721672
-16.292038 16.208458 1.9120597 107 0 0 0 12.0734
25.079933 18.637756 1.8001264 36 0 0 0 39.388088
-38.283272 25.522774 1.5420408 32 0 0 0 8.9589195
-37.559868 26.393009 1.5369565 30 0 0 0 9.3460903
-37.052029 27.417603 1.5414617 31 0 0 0 9.7382803
-37.403591 29.125486 1.5827414 19 0 0 0 10.13414
-40.371655 33.064804 1.7370282 16 0 0 0 10.52146
-36.346947 34.528812 1.664863 27 0 0 0 11.68762
-41.086231 35.370918 1.8014307 16 0 0 0 10.904
-28.056221 -29.470175 2.3373106 22 0 0 0 86.633446
-30.119173 -24.720226 2.242094 18 0 0 0 88.583023
-7.7821755 -20.182215 2.3194313 12 0 0 0 80.370285
-4.9402862 -13.819533 2.3082328 6 0 0 0 79.985199
-4.1909261 -13.826861 2.2727406 78 0 0 0 79.205673
-3.4114332 -13.628526 2.2107852 35 0 0 0 78.413605
-5.813725 -13.128561 2.2592902 207 0 0 0 81.158813
-3.0130329 -13.425577 2.1658852 221 0 0 0 78.022957
-2.6536283 -13.347127 2.1424332 471 0 0 0 77.640038
