# .PCD v0.7 - Point Cloud Data file format
VERSION 0.7
FIELDS x y z intensity normal_x normal_y normal_z curvature
SIZE 4 4 4 4 4 4 4 4
TYPE F F F F F F F F
COUNT 1 1 1 1 1 1 1 1
WIDTH 918
HEIGHT 1
VIEWPOINT 0 0 0 1 0 0 0
POINTS 918
DATA ascii
-0.79880309 5.315073 -0.58754492 109.25 0 0 0 22.45735
-0.27500561 5.4471383 -0.59821093 152 0 0 0 24.017195
3.31178 5.4699163 -0.71502399 202 0 0 0 33.397202
3.7169139 5.3570762 -0.7302146 262.33334 0 0 0 34.373539
4.2359734 5.2259808 -0.75477093 303 0 0 0 35.546963
4.7366524 5.1546669 -0.78686124 513 0 0 0 36.526428
5.0068092 5.0585079 -0.80056453 853 0 0 0 37.117767
-15.766183 5.5858741 -0.66308779 34 0 0 0 5.0809698
-15.481005 5.9141026 -0.65679592 60 0 0 0 5.47402
-7.8238211 5.5755215 -0.59842575 209.5 0 0 0 9.5626497
-7.2488022 5.8604331 -0.57963926 222 0 0 0 10.54349
-3.7692299 5.6546936 -0.58062243 323.25 0 0 0 15.42415
-3.2352879 5.8895049 -0.57435989 262 0 0 0 16.788454
-2.9226708 5.9993958 -0.57048905 274 0 0 0 17.57408
0.26915267 5.5398846 -0.61041117 161.5 0 0 0 25.581902
0.75997025 5.5927639 -0.62293696 337.33334 0 0 0 26.952738
1.2204975 5.607636 -0.60642517 312.79999 0 0 0 28.197989
1.7194846 5.675684 -0.60008037 158.8 0 0 0 29.443584
2.3308923 5.778482 -0.69473535 296 0 0 0 30.853447
2.7961669 5.6746869 -0.66550004 413 0 0 0 32.029892
3.1766367 5.8225212 -0.63069302 363 0 0 0 32.680218
3.5021312 5.9372244 -0.6024909 266 0 0 0 33.198879
-15.213253 6.2416744 -0.65156919 53 0 0 0 5.86585
-6.7075181 6.1365776 -0.56457257 220 0 0 0 11.51106
-6.3460932 6.4014406 -0.55974495 232 0 0 0 12.295055
-2.6852856 6.0679445 -0.56743157 299 0 0 0 18.159176
-2.2783597 6.1376977 -0.56000835 293 0 0 0 19.138208
-1.8005282 6.2160773 -0.55385303 258 0 0 0 20.308823
-1.2523847 6.3140192 -0.55188447 320.5 0 0 0 21.678638
-0.70644075 6.4150486 -0.55450541 356 0 0 0 23.04171
-0.39106062 6.4672298 -0.55738676 233 0 0 0 23.827391
0.40449557 6.4318008 -0.55595034 588 0 0 0 25.774851
0.75955606 6.0816879 -0.52804083 912.25 0 0 0 26.756569
2.1522393 6.4365149 -0.59100056 982 0 0 0 29.87562
2.6449769 6.1033549 -0.57950652 942.33331 0 0 0 31.247843
5.3711357 6.4424944 -0.74118924 500 0 0 0 35.745327
5.7178802 6.3631067 -0.75664389 495 0 0 0 36.326302
6.1422462 6.3422461 -0.7820943 262.5 0 0 0 36.922165
6.7156215 6.2791824 -0.81582558 256.5 0 0 0 37.70945
7.1786346 6.2301159 -0.84448349 218 0 0 0 38.29343
7.6925178 6.1883659 -0.87843919 403.5 0 0 0 38.879135
8.2130671 6.120718 -0.9124586 125 0 0 0 39.46352
52.168846 6.4161234 -0.91313732 10 0 0 0 47.672001
-14.765577 6.697814 -0.64214975 56 0 0 0 6.4487801
-6.0486684 6.5659752 -0.55418408 253 0 0 0 12.87785
-5.7217197 6.6853814 -0.54597747 285 0 0 0 13.461784
-5.3327684 6.8850965 -0.5402863 295 0 0 0 14.248964
-0.15250607 6.5607405 -0.56560194 449.5 0 0 0 24.404099
0.17360596 6.6464038 -0.57420671 801 0 0 0 25.192345
2.4459751 6.5007277 -0.60605204 1199 0 0 0 30.46073
4.2325864 6.7731891 -0.63667709 555.33331 0 0 0 33.591736
4.687757 6.5589542 -0.71082342 261 0 0 0 34.569908
5.0218372 6.5016227 -0.7250725 297 0 0 0 35.15023
-14.382427 7.1725426 -0.63629198 55 0 0 0 7.02948
-5.0405574 7.0259876 -0.53640646 298 0 0 0 14.83446
-4.7340512 7.1360812 -0.53117335 303.5 0 0 0 15.428141
-4.2327213 7.3142858 -0.52420998 290.66666 0 0 0 16.397406
-3.7324255 7.4698653 -0.51795757 280.5 0 0 0 17.376541
4.4049754 7.043602 -0.52687454 1089 0 0 0 33.595528
4.6997237 7.1151681 -0.54181176 1081 0 0 0 33.980801
5.1857834 7.2452354 -0.5678457 1053 0 0 0 34.569908
5.7066512 7.3786383 -0.59615535 885 0 0 0 35.15023
6.0817389 7.4723601 -0.61693126 902 0 0 0 35.552753
-14.126919 7.7051277 -0.63727707 52.5 0 0 0 7.6200352
-3.2315142 7.5973744 -0.51224971 310.66666 0 0 0 18.355448
-2.7432852 7.7351675 -0.50944245 317 0 0 0 19.333315
-2.2485564 7.834023 -0.50625187 231.66667 0 0 0 20.308823
-1.7459807 7.8779125 -0.50147778 257.5 0 0 0 21.288544
-1.46216 7.9823956 -0.50500751 215 0 0 0 21.874729
6.4947505 7.58674 -0.64079303 584 0 0 0 35.937901
6.9350476 7.7051601 -0.6664651 697 0 0 0 36.326302
7.3925452 7.8143311 -0.69287115 648 0 0 0 36.726559
7.9074388 7.9534922 -0.72384328 586 0 0 0 37.117767
-13.763301 8.1746168 -0.63377392 63 0 0 0 8.1977797
-13.465792 8.4496794 -0.62914395 57 0 0 0 8.5840302
-1.1723986 8.0739822 -0.50845337 398 0 0 0 22.457815
-0.77955973 8.1917772 -0.51382554 231.5 0 0 0 23.236115
-0.27655151 8.2582169 -0.51704985 756.66669 0 0 0 24.211863
8.4457579 8.0835981 -0.75594848 478 0 0 0 37.51284
9.0335159 8.226716 -0.79154068 493 0 0 0 37.906059
9.7069635 8.4093504 -0.67613649 439.5 0 0 0 38.29343
11.368596 8.4587669 -0.92308462 113 0 0 0 39.46352
12.678359 8.4932394 -0.99639672 222 0 0 0 40.239647
-13.221229 8.7539415 -0.62742382 52 0 0 0 8.9868002
-12.287393 8.5714684 -0.59066892 66 0 0 0 9.3683996
10.379787 8.5514221 -0.70879698 308 0 0 0 38.686207
10.88538 8.5250072 -0.8999576 107 0 0 0 39.07206
-11.556651 9.3926992 -0.5867874 55 0 0 0 10.54731
-10.564823 9.4778509 -0.55766177 250 0 0 0 11.31631
-9.1962166 9.0927124 -0.50498879 329 0 0 0 12.10163
-12.797195 9.6484165 -0.63451266 68.5 0 0 0 9.9532499
-12.222737 10.447474 -0.63669723 84 0 0 0 10.93356
-11.103034 10.468952 -0.60255718 868 0 0 0 11.70581
15.428905 12.06763 -0.80798215 67 0 0 0 39.07206
16.597769 12.333323 -0.85471952 46 0 0 0 39.46352
18.418409 12.324642 -0.91807616 40 0 0 0 40.239647
29.625532 12.275762 -0.55271274 63 0 0 0 43.368008
20.00878 12.685045 -0.98352194 38 0 0 0 40.625568
28.877731 12.806818 -0.54476213 24 0 0 0 42.9832
28.264828 13.376198 -0.53968525 15 0 0 0 42.594841
35.173897 13.568796 -0.65487641 24 0 0 0 43.756752
28.082815 14.145228 -0.5436725 72 0 0 0 42.196289
40.17905 14.37359 -0.74469984 12 0 0 0 44.153328
26.43388 14.98807 -0.52575612 33 0 0 0 41.41082
27.123322 14.509244 -0.53186911 32 0 0 0 41.800911
25.838726 15.502549 -0.52179343 31 0 0 0 41.026848
25.305332 16.041933 -0.5192607 65 0 0 0 40.625568
24.859955 16.630833 -0.51861167 69 0 0 0 40.239647
-4.3093071 -14.199718 -0.22313941 109 0 0 0 79.319107
-12.614667 -12.618836 -0.27234948 13 0 0 0 87.14653
-4.2532892 -12.870672 -0.20048892 41 0 0 0 79.715187
-26.273247 -12.425179 -0.46725637 88 0 0 0 92.60173
-11.863722 -12.465165 -0.26142955 97 0 0 0 86.759514
-11.089924 -12.240268 -0.24953093 95 0 0 0 86.366035
-10.726508 -12.43938 -0.24803372 107 0 0 0 85.974167
-10.061244 -12.264053 -0.23838237 132 0 0 0 85.578323
-9.3989697 -12.048037 -0.2283874 142 0 0 0 85.182259
-8.5341597 -12.121633 -0.22070563 140 0 0 0 84.390045
-8.8411493 -11.925194 -0.22094272 141 0 0 0 84.789642
-8.001729 -11.979321 -0.21356025 190 0 0 0 84.004486
-7.5013647 -11.849611 -0.20705688 203 0 0 0 83.623184
-7.0262184 -11.725885 -0.2010307 205 0 0 0 83.224625
-6.5745807 -11.608747 -0.1954509 208 0 0 0 82.840897
-6.3220687 -11.830234 -0.19685011 166 0 0 0 82.451515
-5.8922281 -11.707789 -0.19166131 264 0 0 0 82.057442
-5.4863982 -11.60134 -0.18704377 268 0 0 0 81.670357
-3.5459011 -11.67621 -0.47507095 56 0 0 0 79.319107
-5.9147696 -11.063787 -0.48822719 235 0 0 0 82.451515
-5.0833511 -11.468437 -0.18216877 266 0 0 0 81.272568
-4.7116332 -11.374602 -0.17826654 237 0 0 0 80.880508
-4.218801 -11.348472 -0.17495134 182.5 0 0 0 80.295242
-6.5658031 -10.953615 -0.49740484 286 0 0 0 83.224625
-6.1707754 -10.8917 -0.48695937 143 0 0 0 82.840897
-5.530437 -10.984443 -0.47799963 257 0 0 0 82.057442
-5.1450787 -10.874944 -0.46693271 263 0 0 0 81.670357
-4.7770195 -10.772449 -0.45674825 312 0 0 0 81.272568
-4.4244184 -10.676085 -0.44735605 287 0 0 0 80.880508
-3.7145491 -10.785105 -0.44148463 273.5 0 0 0 79.905975
-1.5614176 -10.484982 -0.40881762 538 0 0 0 76.975822
-1.025942 -10.345996 -0.40058389 468 0 0 0 76.197166
-0.50842154 -10.208321 -0.26869422 331.5 0 0 0 75.408638
-0.2561124 -10.133176 -0.26620889 286.5 0 0 0 75.022072
-2.1890831 -9.7315722 -0.25764641 228 0 0 0 78.147102
0.4770582 -9.9059429 -0.38143596 369 0 0 0 73.840034
1.3055944 -9.6974659 -0.37647587 362.5 0 0 0 72.472717
1.7689128 -9.566227 -0.37442037 627.5 0 0 0 71.701294
2.5761385 -9.3586607 -0.3739253 660 0 0 0 70.33007
3.4891696 -9.0870981 -0.37464106 278 0 0 0 68.763489
-0.87795341 -8.8621569 -0.12046437 314 0 0 0 76.197166
4.3531241 -8.8615589 -0.21943271 583.66669 0 0 0 67.328583
4.7533603 -8.7543755 -0.30279535 595.33331 0 0 0 66.677513
5.1623244 -8.646966 -0.38830748 405 0 0 0 66.023476
-3.2382572 -8.3897839 -0.34005558 39 0 0 0 80.493721
0.19343711 -8.2408247 -0.3107169 504 0 0 0 74.235199
1.8481982 -8.2801733 -0.11490875 472 0 0 0 71.11055
7.7127934 -7.7402825 -0.4241946 167 0 0 0 62.11462
-2.0326312 -7.3346405 -0.2827433 125.66666 0 0 0 78.923035
-1.8510333 -7.376575 -0.28093529 147 0 0 0 78.531883
-1.3465996 -7.1117096 -0.26758599 274.60001 0 0 0 77.596939
-0.64919323 -7.1402431 -0.20782673 303.33334 0 0 0 76.061882
-0.0069635552 -7.0094538 -0.087574594 203 0 0 0 74.632881
0.34765071 -7.2377386 -0.092010468 123 0 0 0 73.840034
0.80704761 -7.3643503 -0.095213592 204.5 0 0 0 72.866577
3.3817291 -7.1873646 -0.39618361 581.5 0 0 0 67.595566
4.9507141 -7.0582037 -0.11644078 248 0 0 0 64.849609
-1.1169537 -6.9105935 -0.17249916 273 0 0 0 77.168106
-0.86019552 -6.9367361 -0.086623922 385 0 0 0 76.586868
-0.1764832 -6.887187 -0.33761793 248.5 0 0 0 75.02076
0.32462615 -6.7579536 -0.20526807 193.25 0 0 0 73.842499
0.80407476 -6.6210752 -0.32556668 356 0 0 0 72.673378
1.2148792 -6.5845962 -0.082928047 307.5 0 0 0 71.701294
2.3645792 -6.6509814 -0.26179495 259 0 0 0 69.154556
3.9647751 -6.6456122 -0.10097882 308 0 0 0 66.023476
5.120348 -6.7623768 -0.21547492 396.5 0 0 0 64.264778
6.6635909 -6.6882472 -0.13079363 216 0 0 0 62.11462
0.9398846 -6.4026165 -0.078761742 361 0 0 0 72.279518
1.3587943 -6.1063561 -0.22792225 328 0 0 0 71.11055
1.6941803 -6.1629109 -0.20394489 484.79999 0 0 0 70.332779
2.1459513 -6.2755041 -0.081911013 308.5 0 0 0 69.350967
2.6180773 -6.1456738 -0.16418472 357.5 0 0 0 68.172699
3.4092367 -6.0497069 -0.086988613 391 0 0 0 66.417755
3.8373392 -6.0922904 -0.44365156 745 0 0 0 65.637848
5.2480388 -6.4216356 -0.11058314 724 0 0 0 63.684834
1.7998425 -5.9709558 -0.15206388 417.5 0 0 0 69.938721
2.2952559 -5.987752 -0.077899314 351 0 0 0 68.763489
3.8635426 -5.8654385 -0.25957832 1050.8334 0 0 0 65.308578
4.3270102 -5.8057947 -0.30433103 385.79999 0 0 0 64.381752
4.7120271 -5.6267486 -0.36143592 470 0 0 0 63.486721
5.2991052 -5.6843529 -0.29437611 391.66666 0 0 0 62.62915
5.5594134 -5.8665042 -0.30449471 242 0 0 0 62.498913
4.8762646 -5.4946437 -0.21467309 443 0 0 0 63.022617
5.3330908 -5.3596396 -0.46788341 296 0 0 0 62.11462
5.683363 -5.2056432 -0.28919142 523.125 0 0 0 61.376453
6.2208228 -5.1289425 -0.30208528 484 0 0 0 60.549358
6.7987556 -5.3286896 -0.22503394 499 0 0 0 60.161678
7.1268287 -5.0412421 -0.22555488 445 0 0 0 59.374279
5.7120018 -4.9519148 -0.28266716 425 0 0 0 60.939381
6.641952 -4.948349 -0.21258268 463 0 0 0 59.765041
6.7549148 -3.0117483 -0.18542701 15 0 0 0 56.246281
6.6747432 -2.9770474 -0.45192561 23 0 0 0 56.246281
5.8103251 0.20971766 -0.35554874 2757 0 0 0 49.032261
5.3586254 1.878016 -0.39560521 47.666668 0 0 0 44.282398
4.925282 3.4987543 -0.37454838 5589 0 0 0 39.85672
-26.297066 5.1744404 -0.43085074 11 0 0 0 2.74089
1.2856553 5.6266508 -0.3813284 351 0 0 0 28.356995
1.510461 5.6911225 -0.36149323 45 0 0 0 28.898479
-25.689072 6.3743668 -0.42588994 22 0 0 0 3.52686
0.40428734 6.4284291 -0.3963052 790 0 0 0 25.774851
0.73208058 6.1158991 -0.25713554 701.40002 0 0 0 26.678629
1.1604266 6.1681066 -0.30989465 658 0 0 0 27.727539
1.8653971 6.3607926 -0.24900807 1385.6666 0 0 0 29.284098
2.1511497 6.4342523 -0.25618815 1252.5 0 0 0 29.87562
2.8449085 6.1412506 -0.42242599 441.33334 0 0 0 31.639505
-25.438442 6.9771962 -0.42468414 12 0 0 0 3.90973
0.36848187 6.721024 -0.25395846 749 0 0 0 25.644585
0.91596085 6.6397839 -0.08667358 330 0 0 0 26.95414
1.7340981 6.7225075 -0.14782636 838.66669 0 0 0 28.769724
2.4512739 6.51547 -0.26419434 1292.3334 0 0 0 30.46073
2.7394927 6.5755601 -0.23573227 1128.2 0 0 0 31.010128
3.2239041 6.7256422 -0.19443466 1197.75 0 0 0 31.835165
3.7165842 6.8554344 -0.30080232 1147 0 0 0 32.615868
4.1193724 6.9679308 -0.21441707 1125.5 0 0 0 33.198879
0.28320205 7.2264633 -0.09527979 385 0 0 0 25.38405
1.5658097 7.268487 -0.1915338 628 0 0 0 28.12417
4.4015913 7.0396867 -0.2207192 1140.5 0 0 0 33.595528
4.6950431 7.1095934 -0.22753203 1114 0 0 0 33.980801
5.1847811 7.2449484 -0.23959051 1012.5 0 0 0 34.569908
5.7343378 7.4155712 -0.2533446 827.5 0 0 0 35.15023
6.082355 7.473217 -0.38027436 1017 0 0 0 35.552753
-25.203356 7.5805707 -0.42398217 28 0 0 0 4.2965999
-6.1291909 7.7292562 -0.13716362 57 0 0 0 14.05479
0.16259298 7.6538143 -0.28800547 747 0 0 0 25.096493
1.4711447 7.736753 -0.10846443 597 0 0 0 27.727539
6.3415346 7.5963192 -0.27108568 827 0 0 0 35.745327
6.8027 7.684504 -0.24055319 393 0 0 0 36.196835
7.4001155 7.8238635 -0.29709643 760 0 0 0 36.726559
7.9110293 7.9572434 -0.44855452 721 0 0 0 37.117767
-12.620011 8.349803 -0.22909832 98 0 0 0 8.9868002
-3.5283852 8.3104982 -0.1235722 119 0 0 0 18.357599
-0.072078072 8.2208319 -0.31331527 930 0 0 0 24.59849
1.3436444 8.1386404 -0.11497899 608 0 0 0 27.3384
7.9508967 8.0000334 -0.17457789 633 0 0 0 37.117767
8.4697189 8.1080818 -0.32622755 597 0 0 0 37.51284
9.0434532 8.2359142 -0.49200934 709 0 0 0 37.906059
-24.723398 8.7768459 -0.42307648 22 0 0 0 5.0809698
-21.795948 8.9571571 -0.37668747 18 0 0 0 5.86585
-12.136452 8.6851845 -0.22536515 200 0 0 0 9.5626497
-8.6490688 8.9759579 -0.33421603 468.5 0 0 0 12.48848
-8.2303009 8.9685612 -0.32536292 571 0 0 0 12.87785
-3.4251795 8.6603374 -0.24171981 1550 0 0 0 18.747999
-0.073587112 8.7058077 -0.12124593 720 0 0 0 24.59849
9.9812613 8.6491346 -0.21022749 340 0 0 0 38.29343
-24.49704 9.377861 -0.42322379 18 0 0 0 5.47402
-11.647839 9.2313423 -0.22410238 47.5 0 0 0 10.348455
-10.562207 9.4721851 -0.21235014 267 0 0 0 11.31631
-9.185297 9.0786686 -0.19020896 383 0 0 0 12.10163
-7.7238355 9.0595636 -0.31761116 521.5 0 0 0 13.461784
-7.2177849 9.1253109 -0.45117229 99 0 0 0 14.05479
-6.8073587 9.2841749 -0.30632484 272.75 0 0 0 14.6388
-6.2404957 9.4475136 -0.30088905 672 0 0 0 15.428141
-3.4637063 9.443121 -0.14195885 139 0 0 0 19.13274
-2.2469826 9.1262808 -0.24504727 939 0 0 0 20.89752
-1.8451859 9.2753048 -0.28492013 892 0 0 0 21.614649
-1.2882557 9.3534412 -0.30549106 1122.75 0 0 0 22.554348
-0.77312636 9.4727821 -0.36669004 1137 0 0 0 23.433189
-0.29396251 9.0063629 -0.34648138 863 0 0 0 24.209709
10.218019 9.3030577 -0.22159804 154 0 0 0 37.906059
-19.055653 9.5158472 -0.33728454 54 0 0 0 7.02948
-10.183035 9.5908833 -0.20893614 35 0 0 0 11.70581
-5.6836553 9.5941744 -0.29609776 732.75 0 0 0 16.20307
-5.1411614 9.7357941 -0.29213935 772.25 0 0 0 16.98254
-4.7388067 9.8334332 -0.28958851 755.5 0 0 0 17.57408
-4.3893247 9.9252691 -0.33180323 730.66669 0 0 0 18.093035
-2.7808592 9.757452 -0.39124653 302 0 0 0 20.306379
-1.1345778 9.5375099 -0.13602722 547 0 0 0 22.84597
-0.6259954 9.6126919 -0.21488743 653 0 0 0 23.695992
-0.31482247 9.7855921 -0.14039449 249 0 0 0 24.209709
-18.37026 10.325641 -0.33336651 17 0 0 0 7.81738
-3.6971364 10.099947 -0.41635391 559 0 0 0 19.13274
-3.3117292 10.191702 -0.28436074 715.25 0 0 0 19.72571
-2.9062793 10.203474 -0.15208292 588 0 0 0 20.306379
-1.8834233 10.397252 -0.15237176 251 0 0 0 21.874729
-22.406725 10.52023 -0.3977789 23 0 0 0 6.6441202
-16.751415 10.522635 -0.31067264 280 0 0 0 8.5840302
-18.495043 11.001248 -0.34117854 12 0 0 0 8.1977797
16.904186 11.931221 -0.34833786 26 0 0 0 39.85672
16.795883 12.485059 -0.35289142 20 0 0 0 39.46352
16.555386 12.950941 -0.35472298 227 0 0 0 39.07206
16.432781 13.51969 -0.35966387 242 0 0 0 38.686207
-18.58865 15.925366 -0.39237732 61 0 0 0 10.93356
-36.023285 -36.032547 0.39904729 12 0 0 0 87.14653
43.162457 -28.854752 0.39113861 5 0 0 0 58.99036
-30.392052 -24.949772 0.31664714 38 0 0 0 88.694443
-40.924404 -18.143141 0.35398179 37 0 0 0 92.994751
41.581039 -16.055599 0.33962071 11 0 0 0 55.474258
-35.631672 -14.761645 0.30979645 44 0 0 0 93.383492
44.004509 -14.553185 0.35069907 14 0 0 0 54.699459
-5.743979 -13.873242 0.14111821 6 0 0 0 80.880508
-5.3428302 -13.856165 0.13977362 8 0 0 0 80.493721
-4.9079738 -13.721432 0.13763508 489 0 0 0 80.096771
-11.387998 -13.210576 0.16030264 79 0 0 0 85.974167
-10.742328 -13.098298 0.1566253 141 0 0 0 85.578323
27.558109 -13.049935 0.24419275 46 0 0 0 56.632221
-26.650557 -12.608887 0.24588996 24 0 0 0 92.60173
-10.066783 -12.908096 0.15245402 308 0 0 0 85.182259
-9.4358549 -12.731422 0.14862199 316 0 0 0 84.789642
-8.8331099 -12.55059 0.14494793 132 0 0 0 84.390045
-7.0903697 -12.52409 0.13762127 4 0 0 0 82.840897
46.427753 -12.86442 0.36177129 6 0 0 0 53.919792
-7.3366404 -12.246027 0.31502804 721 0 0 0 83.224625
54.000954 -12.143284 0.40847012 16 0 0 0 53.132622
20.568913 -11.0107 0.19532691 42 0 0 0 57.419701
24.346113 -10.807533 0.21763062 17 0 0 0 56.246281
53.511147 -10.660866 0.40210608 45 0 0 0 52.742031
-0.1311899 -10.188375 0.35896432 270.5 0 0 0 74.827477
24.571922 -10.193393 0.21718758 20 0 0 0 55.865032
-2.0977817 -9.3290224 0.34033409 217 0 0 0 78.147102
3.4993346 -9.1040115 0.10086617 649 0 0 0 68.763489
3.7366738 -9.0548105 0.22344442 331 0 0 0 68.366043
53.080101 -9.2269754 0.39636236 20 0 0 0 52.344673
-1.7188624 -8.6329613 0.24335279 452.33334 0 0 0 77.754036
1.9053894 -8.5348091 0.31179672 288 0 0 0 71.11055
3.9690707 -8.984705 0.10156167 506 0 0 0 67.979347
4.2876682 -8.9074669 0.18430857 733 0 0 0 67.462074
4.8468914 -8.7514791 0.26968223 596 0 0 0 66.54763
-48.197647 -8.3589897 0.37821707 30 0 0 0 96.897118
-2.5127192 -8.2808361 0.20421615 33.5 0 0 0 79.319107
-1.6152853 -8.1114254 0.092949234 227 0 0 0 77.754639
-0.40887418 -8.2006397 0.49694532 341 0 0 0 75.408638
0.19162838 -8.1077175 0.39146835 207 0 0 0 74.235199
-2.1021998 -7.5893693 0.47923049 15 0 0 0 78.923035
-2.0306005 -7.3331418 0.18361583 79.5 0 0 0 78.923035
-1.8670791 -7.4461379 0.27924204 196 0 0 0 78.531883
-1.1716868 -7.2574949 0.17735544 406 0 0 0 77.168106
-0.70501363 -7.1081815 0.12906529 454.5 0 0 0 76.195152
-0.22542572 -7.1779175 0.12910624 269.75 0 0 0 75.118057
0.70317483 -7.2164388 0.084457733 333 0 0 0 73.067238
3.4668145 -7.3639612 0.49235877 375 0 0 0 67.595566
3.6156855 -7.2162609 0.29127735 644 0 0 0 67.195091
-1.0770427 -6.8506908 0.30990845 992.33331 0 0 0 77.104012
-0.67916143 -6.8552055 0.35468769 687 0 0 0 76.193932
0.32640773 -6.7691069 0.12374955 346.75 0 0 0 73.841263
0.76971954 -6.7083673 0.22436532 376.71429 0 0 0 72.782158
1.2193348 -6.5993319 0.16412395 566 0 0 0 71.701294
1.6258959 -6.7709336 0.25367877 397.33334 0 0 0 70.853317
2.1699777 -6.6089478 0.25536126 435 0 0 0 69.547379
4.1792488 -6.6297569 0.28417838 497 0 0 0 65.637848
4.598762 -6.5583725 0.4857873 459 0 0 0 64.849609
6.0450826 -6.6953773 0.32219136 306 0 0 0 62.889622
1.7703686 -6.2355266 0.18786538 419 0 0 0 70.201912
2.1860015 -6.1437125 0.26373738 486 0 0 0 69.155052
2.7280939 -6.1896429 0.24966244 707 0 0 0 67.979347
3.3858204 -6.3640985 0.08423046 383 0 0 0 66.807388
3.6558902 -6.4850307 0.45363429 189 0 0 0 66.417755
4.2603383 -6.0747924 0.2711086 782.33331 0 0 0 64.851791
4.7958403 -6.4944224 0.4894214 819 0 0 0 64.463715
3.6956899 -5.9433942 0.12653011 595.75 0 0 0 65.731712
4.3003898 -5.8261909 0.084771909 718.33331 0 0 0 64.459724
4.7787189 -5.7055016 0.18024169 633.16669 0 0 0 63.483723
6.2367606 -5.5368252 0.30067277 723.5 0 0 0 61.132408
5.2367263 -5.3461938 0.21061598 688.33331 0 0 0 62.240803
5.7037439 -5.3180923 0.18372953 374.5 0 0 0 61.522141
6.1178961 -5.1704912 0.090116531 649 0 0 0 60.74437
6.7907729 -5.2648921 0.22238405 577 0 0 0 60.080559
7.216794 -5.1016579 0.095943443 43 0 0 0 59.374279
54.48336 -2.6928041 0.39409861 10 0 0 0 50.401321
22.59951 -2.235945 0.18585193 94 0 0 0 51.175911
22.554264 -1.6732203 0.18462437 94 0 0 0 50.78978
21.234419 -0.52890736 0.1744951 32 0 0 0 50.007992
37.581104 -0.010259941 0.28065723 37 0 0 0 49.621841
32.935944 0.80035168 0.24957821 30 0 0 0 49.22765
36.122913 1.7668029 0.26962698 16 0 0 0 48.836872
53.374996 3.9267857 0.38074163 8 0 0 0 48.451679
43.041428 4.2321553 0.31335729 19 0 0 0 48.0532
4.5518951 5.0806828 0.16023937 436 0 0 0 36.326302
0.45218512 5.8009057 0.40700659 518.33331 0 0 0 26.036997
0.7722221 5.6727786 0.42521441 549.83331 0 0 0 26.952734
1.2132273 5.6929245 0.35898688 403 0 0 0 28.121307
1.6471778 5.901783 0.37574905 595 0 0 0 29.09129
2.3264453 6.1977196 0.40279555 578.66669 0 0 0 30.461637
2.8088109 6.0636935 0.40617248 686.33331 0 0 0 31.639505
3.2166467 6.1290236 0.4193185 859 0 0 0 32.422821
1.0924789 6.6892953 0.24654302 282 0 0 0 27.3384
2.2603686 6.5982642 0.14679262 679.40002 0 0 0 29.992641
2.7903099 6.6538672 0.16771838 635.5 0 0 0 31.049805
3.260726 6.8044043 0.080105096 586.5 0 0 0 31.835163
3.7227898 6.871563 0.081562556 832 0 0 0 32.615868
0.29318172 7.4562664 0.082706369 636 0 0 0 25.38405
1.7815878 7.3827405 0.081797242 647 0 0 0 28.512211
2.678776 7.1074014 0.27062801 456 0 0 0 30.46073
4.3526621 7.1582351 0.084775604 574 0 0 0 33.397202
4.7600918 7.2110724 0.086243652 467 0 0 0 33.980801
5.2272015 7.308641 0.088219382 672.5 0 0 0 34.569908
5.7280021 7.4115806 0.090416543 685 0 0 0 35.15023
6.085197 7.4822044 0.092024833 775 0 0 0 35.552753
6.9279256 7.3298154 0.34703892 510 0 0 0 36.726559
7.8236256 7.3108463 0.36635107 617.5 0 0 0 37.70945
-0.07323841 7.9438062 0.47848922 320 0 0 0 24.59849
0.17799564 7.7014289 0.33493534 653.66669 0 0 0 25.128443
1.4719579 7.7440376 0.1825837 537.5 0 0 0 27.727539
1.7028354 7.59306 0.21235923 675 0 0 0 28.253517
2.1917 7.7833638 0.18550806 673.75 0 0 0 29.09129
2.5317473 7.8581896 0.49379602 767 0 0 0 29.67848
4.291194 7.6784697 0.30741328 643 0 0 0 32.80891
6.5328178 7.6365781 0.094401672 514 0 0 0 35.937901
7.4008703 7.8289757 0.098663881 506 0 0 0 36.726559
7.7320995 7.782959 0.23340841 487 0 0 0 37.117767
8.7190962 7.5613346 0.39213634 593 0 0 0 38.29343
-0.074947685 8.4670286 0.089651369 578 0 0 0 24.59849
0.75019777 8.3410568 0.19235079 493.5 0 0 0 26.16807
1.3470833 8.1666613 0.086748108 656 0 0 0 27.3384
3.8248808 8.2154846 0.31584233 391 0 0 0 31.643919
4.2466211 8.2971573 0.32375759 619 0 0 0 32.224617
8.809474 8.4360476 0.10710649 334 0 0 0 37.51284
-12.295053 8.5705881 0.13760185 6 0 0 0 9.3683996
-8.6324005 8.9554062 0.27443057 525.5 0 0 0 12.48848
-8.2150564 8.9486961 0.2688179 621.5 0 0 0 12.87785
-7.8618188 8.9947453 0.2650446 663 0 0 0 13.26433
1.2179737 8.6829529 0.19950706 613.5 0 0 0 26.95414
5.2112122 8.5476046 0.34491414 667 0 0 0 33.397202
5.7504487 8.6903267 0.35747799 594 0 0 0 33.980801
6.1399574 8.7967653 0.36692026 541 0 0 0 34.375401
6.5291467 8.8771496 0.37590754 571 0 0 0 34.76442
-11.818904 9.1287231 0.13750626 45 0 0 0 10.1496
-9.1733704 9.0652199 0.28330904 447.5 0 0 0 12.10163
-7.5547814 9.0818672 0.26240245 666.5 0 0 0 13.65924
-7.2442026 9.1543007 0.25968704 759 0 0 0 14.05479
-6.8014555 9.2728844 0.25629985 511.25 0 0 0 14.638801
-6.2311249 9.4295759 0.25237995 794.5 0 0 0 15.428141
-2.2779226 9.2444801 0.098795414 630.5 0 0 0 20.89752
-1.8108671 9.2954311 0.098013476 611 0 0 0 21.679668
-1.3595741 9.4248772 0.097898737 497 0 0 0 22.457815
-0.30750734 9.4270306 0.096174926 621 0 0 0 24.209709
1.07144 9.2615871 0.21048358 512 0 0 0 26.56567
6.9849524 9.019248 0.38786703 535 0 0 0 35.15023
7.4325643 9.1209774 0.39890364 495 0 0 0 35.552753
7.9219007 9.243865 0.41149819 447 0 0 0 35.937901
-19.241138 9.6049566 0.18223748 32 0 0 0 7.02948
-5.6731582 9.5725975 0.24892929 816 0 0 0 16.20307
-5.2643013 9.6767473 0.2466881 845.5 0 0 0 16.786079
-4.8629684 9.7776222 0.24480122 872.75 0 0 0 17.376541
-4.3397975 9.9169331 0.24286282 785.75 0 0 0 18.159176
-3.4840269 9.5000753 0.35498607 46 0 0 0 19.13274
-2.1730251 9.8820562 0.35455784 363 0 0 0 21.288544
-1.6808625 9.9590397 0.35358882 654 0 0 0 22.068729
-1.0189855 9.5501842 0.098072328 503 0 0 0 23.03904
-0.66958475 9.6392288 0.098073229 512 0 0 0 23.630291
-18.520649 10.406527 0.18046506 48 0 0 0 7.81738
-3.8585784 10.019545 0.19678511 559.33331 0 0 0 18.876245
-3.3085582 10.175663 0.24021503 847.25 0 0 0 19.72571
-2.8406632 10.292053 0.2839542 827.33331 0 0 0 20.43844
-1.0753864 10.138628 0.35606077 966 0 0 0 23.03904
-0.70460594 10.242284 0.35798031 469 0 0 0 23.630291
-0.3283549 10.335875 0.35995442 800 0 0 0 24.209709
-18.440075 10.964148 0.18196404 9 0 0 0 8.1977797
-16.733391 10.507276 0.17034958 137 0 0 0 8.5840302
-16.402344 10.867832 0.16989306 12 0 0 0 8.9868002
-1.3945506 10.676332 0.3743389 559 0 0 0 22.652901
0.71264869 10.646866 0.23629048 392.5 0 0 0 25.774851
-0.074056014 11.018762 0.38103807 423 0 0 0 24.59849
0.33678031 11.110476 0.38368487 631.5 0 0 0 25.192345
17.007534 12.008821 0.15872386 286 0 0 0 39.85672
29.64233 12.289499 0.23175077 60 0 0 0 43.368008
16.873213 12.547355 0.15978223 202 0 0 0 39.46352
28.945383 12.843534 0.22836342 101 0 0 0 42.9832
-14.512871 13.042148 0.16934381 52 0 0 0 11.31631
-13.955618 13.172088 0.16707715 138 0 0 0 11.70581
16.740761 13.100631 0.16099687 164 0 0 0 39.07206
28.287264 13.393542 0.22532207 108 0 0 0 42.594841
16.636086 13.691698 0.16257311 193 0 0 0 38.686207
28.576504 14.400476 0.22878082 65 0 0 0 42.196289
40.496662 14.496052 0.30086946 11 0 0 0 44.153328
27.649395 14.797096 0.2241233 26 0 0 0 41.800911
37.831879 14.601471 0.28463009 13 0 0 0 43.756752
26.598589 15.088106 0.21866515 53 0 0 0 41.41082
-19.239101 15.677145 0.2061996 107 0 0 0 10.54731
-18.532412 15.871369 0.20327158 89 0 0 0 10.93356
25.97864 15.59317 0.21623732 46 0 0 0 41.026848
25.465807 16.150358 0.21474931 46 0 0 0 40.625568
24.970345 16.711472 0.21378708 51 0 0 0 40.239647
23.113197 19.978628 0.21571323 40 0 0 0 38.29343
22.880335 20.781839 0.2177164 37 0 0 0 37.906059
-6.0525727 -13.65449 0.51330411 10 0 0 0 81.272568
-5.7466712 -13.87289 0.51567107 7 0 0 0 80.880508
-5.3850503 -13.958404 0.87963372 48 0 0 0 80.493721
-4.9100513 -13.719709 0.67900956 196.5 0 0 0 80.096771
-10.330704 -13.241421 0.78104687 5.5 0 0 0 85.182259
-6.5953312 -13.104261 0.50518948 8 0 0 0 82.057442
-6.3584971 -13.444809 0.51147568 10 0 0 0 81.670357
-9.6097708 -12.961144 0.55323732 6 0 0 0 84.789642
-7.1556344 -12.634142 0.50071716 7 0 0 0 82.840897
-6.870223 -12.855466 0.50235069 14 0 0 0 82.451515
-7.3349552 -12.24073 0.84193259 672 0 0 0 83.224625
16.587219 -11.104728 0.67073947 14 0 0 0 58.99036
18.613468 -11.177573 0.72657233 25 0 0 0 58.20314
24.040897 -11.391135 0.88207716 29 0 0 0 56.632221
-2.1364191 -10.728586 0.78746116 503 0 0 0 77.754639
19.016268 -10.793376 0.73149562 43 0 0 0 57.808819
20.532515 -10.995542 0.77684355 33 0 0 0 57.419701
-0.63875246 -10.325338 0.87435395 577.5 0 0 0 75.604019
-0.13086307 -10.181772 0.73423469 483.75 0 0 0 74.827477
24.804054 -10.294201 0.88977218 39 0 0 0 55.865032
-2.2075386 -9.8177567 0.6022656 193 0 0 0 78.147102
1.3554006 -9.7442293 0.75065231 537.66669 0 0 0 72.408318
1.7833947 -9.6308432 0.70659727 719.5 0 0 0 71.701294
2.1280627 -9.5261459 0.58254844 813 0 0 0 71.11055
2.6665647 -9.3761034 0.74352306 510 0 0 0 70.200783
3.1724994 -9.2554283 0.82751501 793 0 0 0 69.350967
3.8656592 -9.0507469 0.71030509 753.75 0 0 0 68.172699
21.123806 -9.3831644 0.77094269 39 0 0 0 56.246281
0.75234175 -8.8054695 0.75214314 371 0 0 0 73.258514
1.0808814 -8.8386793 0.53500271 359 0 0 0 72.665909
4.4468184 -8.8672829 0.59252542 862 0 0 0 67.195091
4.7068338 -8.8361311 0.72220957 461 0 0 0 66.807388
5.1767344 -8.667469 0.60278034 493 0 0 0 66.023476
5.7278438 -8.5982676 0.87337303 235 0 0 0 65.24205
6.623354 -8.9551859 0.93909371 291 0 0 0 64.463715
-2.4922962 -8.2109528 0.51916194 6 0 0 0 79.319107
-0.59529197 -8.0143013 0.88181973 308 0 0 0 75.799393
-0.0054954635 -8.1216269 0.89043236 235 0 0 0 74.632881
0.33617154 -8.3403912 0.64162368 229.66667 0 0 0 73.971748
0.60771471 -8.331707 0.91454291 238 0 0 0 73.449799
1.8464828 -8.265851 0.72066075 551 0 0 0 71.11055
6.6587796 -8.1404934 0.6270594 130 0 0 0 63.684834
7.0522709 -8.2017193 0.64400452 169 0 0 0 63.288609
21.654438 -8.3719158 0.77384782 17 0 0 0 55.474258
0.36251664 -7.5129004 0.82695264 217 0 0 0 73.840034
0.7339716 -7.5283213 0.6478132 349 0 0 0 73.067238
4.8657966 -7.7123985 0.65854955 103.5 0 0 0 65.637848
7.2041774 -7.589119 0.88482368 162 0 0 0 62.498913
-2.0518663 -7.4125571 0.65998811 106 0 0 0 78.923035
-1.8321489 -7.3103352 0.73875254 842.5 0 0 0 78.531883
0.5343197 -7.3309941 0.80690002 246 0 0 0 73.449799
1.2610263 -7.3191128 0.8164832 276 0 0 0 71.898041
3.3010323 -7.0103102 0.66312593 589 0 0 0 67.595566
3.9076779 -7.1299543 0.79374909 330.5 0 0 0 66.612572
4.687932 -7.4300709 0.9610973 260 0 0 0 65.637848
5.0775042 -7.2353835 0.85938299 352.5 0 0 0 64.849609
5.5510931 -7.1391339 0.65625048 85.5 0 0 0 64.065842
-1.0993623 -6.815485 0.76366335 1322.3334 0 0 0 77.168106
-0.74953669 -6.7265782 0.74916959 1431.5 0 0 0 76.392006
3.4553707 -6.8947802 0.6602931 260 0 0 0 67.195091
3.9699774 -6.6515698 0.66339839 430 0 0 0 66.023476
4.5823102 -6.8871961 0.50045216 250 0 0 0 65.24205
5.3071427 -6.8260722 0.87760693 355.66666 0 0 0 64.071465
5.9218297 -6.7221317 0.65127802 346.5 0 0 0 63.089115
6.8289328 -6.852159 0.70149291 217.5 0 0 0 62.11462
7.2035866 -6.8798318 0.84413093 316 0 0 0 61.718849
1.6034651 -6.4436984 0.57240927 266 0 0 0 70.724701
2.4829476 -6.4709001 0.59647721 391 0 0 0 68.763489
3.1913071 -6.3676662 0.96028018 286 0 0 0 67.195091
5.7696161 -6.3890705 0.83849776 489 0 0 0 62.889622
6.6781163 -6.3819981 0.55533379 37 0 0 0 61.718849
6.1722903 -5.617559 0.50520158 113 0 0 0 61.325432
6.6815586 -5.6434269 0.52778906 285.5 0 0 0 60.74437
22.615026 -1.6811519 0.75179118 52 0 0 0 50.78978
21.550982 -0.53999889 0.71540725 63 0 0 0 50.007992
0.3585462 5.8326068 0.50606233 689 0 0 0 25.774851
0.74552304 5.8643327 0.78807318 635.90912 0 0 0 26.810072
1.1816498 5.8130951 0.67719042 667.375 0 0 0 27.97436
1.6451488 5.8973217 0.52807367 672.5 0 0 0 29.09129
0.30477437 6.1623693 0.75731087 725.5 0 0 0 25.579451
0.52019989 6.0131111 0.96554422 929 0 0 0 26.16807
1.4564531 6.0826344 0.69080895 532 0 0 0 28.512211
1.6984012 6.0804458 0.69693696 588 0 0 0 29.09129
2.2701182 6.2253976 0.75086558 685.875 0 0 0 30.315132
2.7410963 6.1213622 0.74014235 771.25 0 0 0 31.446054
3.2006826 6.2853265 0.77640176 772.25 0 0 0 32.224617
3.5676959 6.404078 0.62491393 765 0 0 0 32.80891
1.9063604 6.5060024 0.91260809 593 0 0 0 29.2841
3.2207537 6.5207086 0.79727072 501 0 0 0 32.026409
4.2273622 6.769577 0.77429014 722 0 0 0 33.591736
4.7501302 6.6477947 0.79214633 794.75 0 0 0 34.569908
2.7940068 7.1450953 0.83903241 703 0 0 0 30.656075
3.0860879 7.1040072 0.84667867 628 0 0 0 31.24819
3.9546587 7.0874023 0.88554633 676 0 0 0 32.80891
5.8143473 7.331562 0.55419779 754.5 0 0 0 35.351494
6.2371874 7.2921801 0.68747056 539.5 0 0 0 35.938713
6.7010183 7.2679367 0.70547009 594 0 0 0 36.526428
7.7536969 7.4286771 0.63074452 726 0 0 0 37.51284
8.1163473 7.3996582 0.64437217 685 0 0 0 37.906059
0.11345821 7.623076 0.83497953 692 0 0 0 25.000641
2.5259917 7.8452005 0.79850429 791.5 0 0 0 29.67848
4.332377 7.7511845 0.5277974 324 0 0 0 32.80891
7.3714161 7.7984848 0.89807242 505 0 0 0 36.726559
7.6732593 7.5972266 0.81449509 447 0 0 0 37.249458
-0.074670911 8.1825514 0.69529903 714 0 0 0 24.59849
0.1268186 8.1782227 0.694893 687 0 0 0 25.000641
3.7851281 8.1350489 0.9751032 271 0 0 0 31.643919
5.0337744 8.4948349 0.58286464 656 0 0 0 33.198879
6.2644033 8.0992908 0.85847676 488 0 0 0 35.15023
9.7889566 8.2747154 0.74610341 359 0 0 0 38.489819
-8.6223984 8.9465303 0.73100758 535 0 0 0 12.48848
-8.2015238 8.9354105 0.71435952 600 0 0 0 12.87785
-7.8423162 8.9722519 0.8499189 630.5 0 0 0 13.26433
5.3696265 8.5696764 0.59605366 590 0 0 0 33.595528
5.726553 8.6546392 0.61068922 596 0 0 0 33.980801
6.1253486 8.7761087 0.62864572 501 0 0 0 34.375401
6.5168185 8.8606272 0.64506209 286 0 0 0 34.76442
-9.1651716 9.0586605 0.75694054 427 0 0 0 12.10163
-7.5299973 9.0518045 0.84021699 572 0 0 0 13.65924
-7.2295642 9.1356707 0.83170998 708.5 0 0 0 14.05479
-6.7845397 9.249567 0.8196165 599.25 0 0 0 14.6388
-6.2117405 9.4000015 0.80566877 757.5 0 0 0 15.428141
-0.5375725 9.3988533 0.67913187 541 0 0 0 23.827391
-0.30402493 9.3576632 0.55801803 426 0 0 0 24.209709
-5.65872 9.5480251 0.79424906 842.25 0 0 0 16.20307
-5.2518358 9.6536303 0.78678346 848 0 0 0 16.786079
-4.8510084 9.7533579 0.78026026 842.75 0 0 0 17.376541
-4.3291321 9.8922949 0.77386534 758 0 0 0 18.159176
-3.9418688 9.9934654 0.77004611 808.5 0 0 0 18.747999
-2.0356002 9.8327475 0.5971846 507 0 0 0 21.48461
-1.67744 9.938036 0.59909981 725.5 0 0 0 22.068729
-0.31610206 9.7782297 0.82483292 311 0 0 0 24.209709
-3.6817162 10.049196 0.7674284 456.5 0 0 0 19.13274
-3.301326 10.153217 0.76565576 818.25 0 0 0 19.72571
-2.7937331 10.284822 0.76442617 817 0 0 0 20.504471
-2.3173316 10.352975 0.80563253 672.33331 0 0 0 21.22319
-1.0752385 10.137734 0.60514945 875 0 0 0 23.03904
-0.82060587 10.094605 0.60122949 286 0 0 0 23.433189
-1.7761765 10.538304 0.89878869 711 0 0 0 22.068729
-1.3059089 10.669415 0.81449938 609.33331 0 0 0 22.781614
-0.87231064 10.768219 0.90766519 327 0 0 0 23.433189
17.026928 12.01845 0.67991561 198 0 0 0 39.85672
16.911594 12.571646 0.68688023 133 0 0 0 39.46352
16.797405 13.140505 0.69457477 276 0 0 0 39.07206
16.655352 13.703024 0.70188612 262 0 0 0 38.686207
26.489569 15.893697 0.99180537 18 0 0 0 41.026848
-30.386332 -24.935875 1.2978606 26 0 0 0 88.694443
36.928169 -23.408512 1.426971 10 0 0 0 58.602161
-8.3248949 -20.096016 1.2631584 6 0 0 0 80.880508
-40.841984 -18.097553 1.4687128 31 0 0 0 92.994751
20.414171 -14.399308 1.4421221 18 0 0 0 59.374279
42.844154 -14.177253 1.4695815 18 0 0 0 54.699459
-5.9853187 -13.509127 1.2371449 136 0 0 0 81.272568
-5.3648386 -13.913239 1.2477934 197 0 0 0 80.493721
-4.965466 -13.882194 1.233893 4 0 0 0 80.096771
-4.1426382 -13.659047 1.1952401 424 0 0 0 79.319107
-10.369961 -13.296362 1.408872 6 0 0 0 85.182259
16.715645 -13.067299 1.2298387 13 0 0 0 60.161678
-6.8564067 -12.834939 1.2194989 4 0 0 0 82.451515
17.470024 -12.978703 1.260785 15 0 0 0 59.765041
20.279057 -12.862957 1.3879162 19 0 0 0 58.602161
-7.3316002 -12.239926 1.1967615 661 0 0 0 83.224625
17.449373 -11.680687 1.2179766 15 0 0 0 58.99036
19.797522 -11.887175 1.3360578 16 0 0 0 58.20314
-2.1373868 -10.743343 1.3249683 585.5 0 0 0 77.754639
-0.59438616 -10.30968 1.2927519 554.66669 0 0 0 75.538887
-0.2554962 -10.218909 1.1120293 529 0 0 0 75.022072
20.737566 -10.458427 1.3435725 33 0 0 0 57.035019
1.3203216 -9.7742329 1.1943907 470.25 0 0 0 72.47271
1.8233958 -9.6159582 1.2253585 571 0 0 0 71.635712
2.2515464 -9.5165844 1.1843493 469 0 0 0 70.917625
2.3663549 -9.4862499 1.06364 478 0 0 0 70.724701
2.7154536 -9.3969479 1.1844963 501.5 0 0 0 70.136139
3.1767597 -9.2646637 1.186312 583 0 0 0 69.350967
3.7588398 -9.1028051 1.1933404 730.16669 0 0 0 68.369629
20.356434 -9.04251 1.2898655 20 0 0 0 56.246281
0.79514521 -8.8794041 1.3402028 181.33333 0 0 0 73.194756
4.3128095 -8.9563723 1.1636176 587.33331 0 0 0 67.462074
4.9536028 -8.770256 1.2205061 575 0 0 0 66.417755
5.1997676 -8.7023935 1.1035091 803 0 0 0 66.023476
5.6652441 -8.5045815 1.1123583 297 0 0 0 65.24205
6.9635973 -8.5072289 1.3297973 243 0 0 0 63.684834
-0.1070594 -8.2876558 1.1116223 339.5 0 0 0 74.827477
0.78790766 -8.0602093 1.4865656 184 0 0 0 73.067238
1.2455968 -8.4425383 1.3535793 304 0 0 0 72.279518
1.8325537 -8.1972523 1.3325405 497 0 0 0 71.11055
20.065214 -8.3298912 1.2588345 28 0 0 0 55.865032
-2.1426494 -7.7460608 1.080249 35 0 0 0 78.923035
-1.3616627 -7.8424554 1.4629445 9 0 0 0 77.36039
0.2364298 -7.8251667 1.1970208 219.25 0 0 0 74.136406
1.731607 -7.7485633 1.0652429 236 0 0 0 71.11055
5.8801937 -7.950552 1.3209457 102 0 0 0 64.463715
6.6304178 -7.7084332 1.2340608 225 0 0 0 63.288609
-1.8541775 -7.4038382 1.0274597 594 0 0 0 78.531883
-0.18758512 -7.4853497 1.1924256 439 0 0 0 75.022072
0.35113794 -7.2562675 1.2466555 297.5 0 0 0 73.840034
0.52358276 -7.1771879 1.3246951 310 0 0 0 73.449799
3.6507332 -7.2794986 1.294349 400 0 0 0 67.195091
4.0028963 -7.0916982 1.294645 329 0 0 0 66.417755
4.612699 -7.3084574 1.2645154 470.5 0 0 0 65.637848
5.0194306 -7.1502562 1.1709173 156 0 0 0 64.849609
6.6086454 -7.135993 1.18117 175 0 0 0 62.694267
-1.1875565 -6.8370266 1.1082338 11 0 0 0 77.36039
3.5222945 -6.6164298 1.1939983 363 0 0 0 66.807388
4.0110927 -6.7174358 1.0518686 457 0 0 0 66.023476
5.1058903 -6.6775737 1.2672943 314 0 0 0 64.198463
5.5530739 -6.7881742 1.3927345 199 0 0 0 63.684834
6.6702766 -6.6898804 1.2642231 516 0 0 0 62.11462
7.2467146 -6.7525644 1.2012856 119.75 0 0 0 61.522141
3.4805424 -6.1703968 1.4801003 300 0 0 0 66.417755
3.5163655 -6.2335949 1.318988 480 0 0 0 66.417755
4.2224717 -6.2311721 1.1382734 257 0 0 0 65.111237
5.861064 -6.4875264 1.3888026 87 0 0 0 62.889622
6.0460863 -6.2195282 1.2689335 197 0 0 0 62.306767
6.7775216 -6.4718556 1.4864343 164 0 0 0 61.718849
23.169119 -3.4511771 1.3511113 68 0 0 0 51.958679
34.243736 -3.3904319 1.1231673 21 0 0 0 51.175911
23.746855 -1.7645074 1.3711392 45 0 0 0 50.78978
22.156925 -1.1001427 1.2793539 52 0 0 0 50.401321
32.525764 -0.014039849 1.0603576 17 0 0 0 49.621841
33.035355 0.79778886 1.0759083 30 0 0 0 49.22765
0.84550834 6.1770997 1.1506642 861 0 0 0 26.95414
1.0083994 6.2159114 1.1619321 767 0 0 0 27.3384
2.2523916 6.2368045 1.1133078 796.5 0 0 0 30.266144
2.6776474 6.1845737 1.1589398 777.5 0 0 0 31.247931
3.1329827 6.3490186 1.1271479 868 0 0 0 32.026409
1.9245629 6.5659962 1.0902053 665 0 0 0 29.2841
2.0479164 6.9731293 1.3358215 557 0 0 0 29.2841
3.311703 6.9157171 1.4078684 541 0 0 0 31.835163
4.2152448 6.7531543 1.3621536 688.66669 0 0 0 33.591736
4.7789011 6.7261696 1.2644924 736.40002 0 0 0 34.531006
0.84682733 7.4501166 1.3768445 474 0 0 0 26.56567
1.7922533 7.0609226 1.3389648 602.5 0 0 0 28.705345
4.7345839 7.1758819 1.147839 396 0 0 0 33.980801
5.926302 7.2889891 1.0194297 808 0 0 0 35.552753
6.2352481 7.1127534 1.2585202 811.25 0 0 0 36.132103
6.505239 7.2398953 1.2949255 467 0 0 0 36.326302
-0.075789481 7.8237405 1.0482134 731 0 0 0 24.59849
0.25628895 7.7184596 1.2261039 668.75 0 0 0 25.290045
0.67097992 7.551589 1.3917081 409 0 0 0 26.16807
1.492379 7.8561115 1.4661988 572 0 0 0 27.727539
1.7436441 7.6309156 1.2414783 856.75 0 0 0 28.318192
2.0589919 7.6872454 1.1635568 600 0 0 0 28.898479
4.2935295 7.6889601 1.3931081 612 0 0 0 32.80891
7.8145542 7.868732 1.3314922 391 0 0 0 37.117767
8.2168961 7.6789045 1.2135103 630 0 0 0 37.70945
4.3686581 8.2893896 1.2476479 631.5 0 0 0 32.422821
4.6714959 8.3566275 1.2738764 650 0 0 0 32.80891
5.0093398 8.4608793 1.3073548 594 0 0 0 33.198879
6.2458591 8.0771284 1.2305434 343.5 0 0 0 35.15023
7.5670004 8.007019 1.460777 389 0 0 0 36.726559
9.3700275 8.1260748 1.334455 390 0 0 0 38.29343
9.7587061 8.049387 1.3604103 566 0 0 0 38.686207
-8.6290379 8.9504166 1.1893053 481 0 0 0 12.48848
-8.1928635 8.9227972 1.159551 576 0 0 0 12.87785
-7.8350043 8.9622669 1.2840561 590 0 0 0 13.26433
5.3402338 8.5300074 1.3372486 615 0 0 0 33.595528
8.0420113 8.5030212 1.261039 640 0 0 0 36.726559
-9.1742172 9.0645714 1.2325156 377 0 0 0 12.10163
-7.5171981 9.0346909 1.268257 587 0 0 0 13.65924
-7.2140431 9.1142445 1.254764 647 0 0 0 14.05479
-6.7734356 9.2327061 1.2368283 666.5 0 0 0 14.6388
-6.1995544 9.3779831 1.3525174 729.75 0 0 0 15.428141
-5.7803912 9.4817591 1.4725218 781 0 0 0 16.005859
-0.54066527 9.4145412 1.2566587 429 0 0 0 23.827391
-0.19059101 9.3944912 1.0215158 630.5 0 0 0 24.404099
10.269758 9.3541164 1.151888 143 0 0 0 37.906059
-5.6046233 9.5419569 1.2868081 768.33331 0 0 0 16.268806
-5.2448788 9.6367588 1.3211701 729 0 0 0 16.786079
-4.8413715 9.7294893 1.3092417 833.5 0 0 0 17.376541
-4.3226833 9.8727188 1.2989049 766 0 0 0 18.159176
-3.935586 9.9722719 1.2923926 735.5 0 0 0 18.747999
-0.79241109 9.6814785 1.1741946 500.5 0 0 0 23.433189
-0.31778556 9.7821445 1.3029779 359 0 0 0 24.209709
-3.6803696 10.04019 1.2892845 762.5 0 0 0 19.13274
-3.2979803 10.136682 1.2855749 783.75 0 0 0 19.72571
-2.790422 10.26535 1.2832565 809 0 0 0 20.504471
-2.2838635 10.395992 1.2839582 777 0 0 0 21.288544
-1.9020596 10.489977 1.2857925 747 0 0 0 21.874729
-1.6472023 10.557775 1.2886305 652 0 0 0 22.26273
-1.2613418 10.654739 1.2937305 654.25 0 0 0 22.84597
-0.60943228 10.834054 1.174608 697 0 0 0 23.827391
17.467318 11.08364 1.1827173 305 0 0 0 40.625568
17.071621 12.050328 1.193862 314 0 0 0 39.85672
16.906376 12.568186 1.2030922 27 0 0 0 39.46352
30.890574 13.699702 1.0857794 43 0 0 0 42.9832
28.476198 14.344492 1.024918 69 0 0 0 42.196289
29.61186 14.014178 1.0529042 49 0 0 0 42.594841
28.751532 15.380251 1.046488 16 0 0 0 41.800911
36.274509 15.028784 1.2567968 12 0 0 0 43.368008
28.732756 16.290762 1.0587753 66 0 0 0 41.41082
26.649185 16.893644 1.0115937 11 0 0 0 40.625568
27.500885 18.395586 1.0586654 17 0 0 0 40.239647
-31.38102 28.308901 1.3803927 21 0 0 0 11.31631
-35.92448 -35.920849 1.6662427 24 0 0 0 87.14653
-52.316727 -21.660082 1.8513896 16 0 0 0 93.383492
-3.970113 -14.347816 1.6061996 95 0 0 0 78.923035
0.33958143 -14.028626 1.5133961 31 0 0 0 74.235199
-5.3791146 -13.953884 1.7979884 382.5 0 0 0 80.493721
-4.1316004 -13.622668 1.5376319 101 0 0 0 79.319107
-10.382757 -13.312675 1.8204899 6 0 0 0 85.182259
17.135117 -13.389674 1.8012241 17 0 0 0 60.161678
17.255274 -12.814538 1.7808993 6 0 0 0 59.765041
-7.3355131 -12.248812 1.7195166 538.5 0 0 0 83.224625
19.533587 -12.385753 1.9142125 37 0 0 0 58.602161
53.977062 -12.146698 1.7902038 48 0 0 0 53.132622
16.329182 -11.51746 1.6583968 8 0 0 0 59.374279
16.670891 -11.156002 1.6647825 52 0 0 0 58.99036
-2.1411648 -10.767344 1.7339394 607 0 0 0 77.754639
-1.5739027 -10.607821 1.8267848 732 0 0 0 76.975822
-1.300303 -10.535545 1.8084512 457 0 0 0 76.586868
20.269291 -10.849635 1.9031028 41 0 0 0 57.419701
21.233034 -10.702931 1.9670466 11 0 0 0 57.035019
53.566193 -10.680411 1.7667614 46 0 0 0 52.742031
-1.031209 -10.456264 1.7901547 644.5 0 0 0 76.197166
-0.63785702 -10.338315 1.7651457 510.75 0 0 0 75.604012
-0.086806081 -10.190984 1.7790627 513.33331 0 0 0 74.762611
1.2851332 -9.8072557 1.7267218 513.66669 0 0 0 72.537109
1.7935172 -9.6708117 1.6765831 437.25 0 0 0 71.701294
2.1431892 -9.5779457 1.7940433 389 0 0 0 71.11055
16.403444 -9.8482361 1.5897382 15 0 0 0 58.20314
16.767017 -9.5144548 1.601629 14 0 0 0 57.808819
20.337097 -9.633604 1.8635015 17 0 0 0 56.632221
0.22475967 -9.3217278 1.936013 88 0 0 0 74.235199
0.67883766 -9.270874 1.9299047 112 0 0 0 73.449799
2.3696833 -9.4925652 1.6673908 556.5 0 0 0 70.724701
2.7189715 -9.4061785 1.6691022 660 0 0 0 70.136139
3.182132 -9.278079 1.6722982 484.5 0 0 0 69.350967
3.6509836 -9.1563263 1.6809148 709.25 0 0 0 68.564766
4.0840254 -9.0388794 1.6504232 440.66666 0 0 0 67.851418
21.823668 -9.0537949 1.9545385 19 0 0 0 55.865032
53.141895 -9.2461119 1.7440888 56 0 0 0 52.344673
0.87396783 -8.9304752 1.8639675 113 0 0 0 73.067238
4.35991 -8.9577332 1.8222456 508.5 0 0 0 67.395325
4.7195444 -8.8542614 1.5869756 382 0 0 0 66.807388
5.1985273 -8.6968288 1.6025956 233 0 0 0 66.023476
19.35939 -8.5959787 1.7561239 18 0 0 0 56.246281
5.8892493 -8.3842525 1.8742828 191 0 0 0 64.849609
21.413736 -8.2739601 1.8999441 17 0 0 0 55.474258
-1.5090084 -7.5908747 1.8026559 253 0 0 0 77.754639
-1.3529142 -7.7960243 1.7450639 319 0 0 0 77.36039
0.36632192 -7.5360961 1.7570106 200 0 0 0 73.840034
0.62795919 -7.7082829 1.8636154 120 0 0 0 73.322273
3.5759935 -7.5878749 1.7456748 420 0 0 0 67.595566
6.5452847 -7.6083822 1.5889021 123 0 0 0 63.288609
0.29156652 -7.2578816 1.7514292 173.33333 0 0 0 73.971748
4.3624196 -7.3030372 1.5614814 255 0 0 0 66.023476
4.7077565 -7.1943321 1.6482679 267.66666 0 0 0 65.373985
6.4055042 -7.0877323 1.7507558 165 0 0 0 62.889622
6.8093834 -7.1718974 1.5664511 365 0 0 0 62.498913
0.3350977 -6.9074192 1.9540365 171 0 0 0 73.840034
3.720341 -6.7771578 1.8933985 278 0 0 0 66.612572
4.1328907 -6.9203968 1.6795697 297 0 0 0 66.023476
5.2605457 -6.76301 1.7574395 154.125 0 0 0 64.072166
5.9662876 -6.6034288 1.8523265 54 0 0 0 62.889622
6.6186972 -6.9716301 1.9981891 139 0 0 0 62.498913
3.9090147 -6.3678985 1.651001 341 0 0 0 65.830658
5.4452591 -6.3328419 1.8425291 69.5 0 0 0 63.288609
5.6094913 -6.2124195 1.5387335 313.5 0 0 0 62.893761
6.7718935 -6.4663992 1.8322127 109 0 0 0 61.718849
34.231201 -4.2393913 1.9715788 7 0 0 0 51.575352
34.517124 -3.4166713 1.9815613 19 0 0 0 51.175911
54.887291 -2.721024 1.7694633 38 0 0 0 50.401321
23.104639 -2.2842021 1.9170337 11 0 0 0 51.175911
32.242455 0.7793746 1.8411365 32 0 0 0 49.22765
53.373009 2.6024597 1.7163805 9 0 0 0 48.836872
-47.692352 5.807991 1.5689505 16 0 0 0 1.57249
2.4167311 6.4375062 1.7729394 774 0 0 0 30.46073
2.7849283 6.4262505 1.736887 692 0 0 0 31.247776
3.1975052 6.480114 1.6842374 554 0 0 0 32.026409
1.8662212 6.9891996 1.5079085 891 0 0 0 28.898479
2.2468817 6.6796103 1.7462095 521 0 0 0 29.913767
2.856185 6.5911589 1.6741959 280 0 0 0 31.24819
3.1973906 6.6820602 1.5439917 637.5 0 0 0 31.835163
4.2954202 6.881824 1.886705 655 0 0 0 33.595528
4.8069701 6.912642 1.9569845 471 0 0 0 34.375401
5.0198936 6.8506961 1.9738147 731 0 0 0 34.76442
0.47336867 7.4198647 1.7301196 670 0 0 0 25.774851
0.74954337 7.4141865 1.7345088 629 0 0 0 26.366869
1.1273296 7.4522824 1.9389331 625 0 0 0 27.146271
2.4513276 7.0395517 1.7354664 352 0 0 0 30.07276
2.7310426 7.2499924 1.612497 681 0 0 0 30.46073
3.9127986 7.4376354 1.5395011 509 0 0 0 32.422821
4.1036897 7.217844 1.7924434 377 0 0 0 32.9389
4.7975702 7.2717381 1.9132998 413.5 0 0 0 33.980801
5.2056408 7.2843032 1.8590541 474 0 0 0 34.569908
5.7892623 7.3693199 1.7909406 611 0 0 0 35.284405
6.156147 7.2930994 1.7436453 579.25 0 0 0 35.842426
6.7613659 7.1606073 1.5542021 770 0 0 0 36.726559
0.25547573 7.698637 1.7441047 567 0 0 0 25.288197
0.60861409 7.9314141 1.8488586 377.5 0 0 0 25.97146
1.4968147 7.8782392 1.6675709 505 0 0 0 27.727539
1.6791334 7.6475034 1.7889382 736.16669 0 0 0 28.18741
2.1641545 7.6994214 1.8593774 703.5 0 0 0 29.09129
2.5666323 7.8098483 1.7084715 612.5 0 0 0 29.77705
3.2362521 7.9706402 1.7865596 683 0 0 0 30.851419
4.4747195 7.5684142 1.8258102 719 0 0 0 33.198879
5.6877728 7.7490969 1.7559544 413 0 0 0 34.76442
6.1024852 7.8949184 1.5739026 287 0 0 0 35.15023
7.4581962 7.8929896 1.9791707 579 0 0 0 36.726559
7.810245 7.6749749 1.8588154 460.5 0 0 0 37.315304
8.3823166 7.6467185 1.7849879 420 0 0 0 37.906059
0.33126312 8.2600079 1.514389 586 0 0 0 25.38405
0.92629719 8.1079283 1.8958775 342 0 0 0 26.56567
1.381387 8.3753757 1.8672589 520.5 0 0 0 27.3384
3.5061359 8.0557394 1.8239038 745 0 0 0 31.24819
4.3648267 8.2839947 1.9417341 518 0 0 0 32.422821
4.6601305 8.3366289 1.9798906 511 0 0 0 32.80891
9.6061745 8.3330364 1.8371555 382.5 0 0 0 38.29343
-8.6106777 8.928112 1.7921274 425.5 0 0 0 12.48848
-8.1915007 8.9182386 1.7507213 488.5 0 0 0 12.87785
-7.8244085 8.946909 1.7189624 528.5 0 0 0 13.26433
1.2372675 8.8264942 1.8494594 270 0 0 0 26.95414
9.2297306 8.6253519 1.6697758 370.5 0 0 0 37.70945
-9.1558256 9.0431032 1.7001328 386 0 0 0 12.10163
-7.505826 9.0177174 1.6973655 610.5 0 0 0 13.65924
-7.2022061 9.0959053 1.6790415 629.5 0 0 0 14.05479
-6.7636833 9.2160358 1.6551707 629.75 0 0 0 14.6388
-6.1897326 9.3611841 1.7640553 694.5 0 0 0 15.428141
-5.7744651 9.4719639 1.7442795 752 0 0 0 16.005859
-0.64784908 9.2569227 1.9238355 601 0 0 0 23.630291
-0.19028756 9.2841921 1.8112702 521.75 0 0 0 24.404099
0.15685742 9.4806156 1.7321327 326 0 0 0 25.000641
7.3761196 9.0591688 1.5465115 433 0 0 0 35.552753
7.8585 9.1774311 1.598227 381 0 0 0 35.937901
-49.388298 9.7407122 1.6402767 6 0 0 0 2.74089
-5.5038891 9.5462122 1.7330298 764 0 0 0 16.40028
-5.2264967 9.6005878 1.8541809 696.5 0 0 0 16.786079
-4.833406 9.711235 1.8407472 733.25 0 0 0 17.376541
-4.3120279 9.8458233 1.8247012 744.75 0 0 0 18.159176
-3.9241295 9.9402981 1.8145797 677.5 0 0 0 18.747999
-0.66614044 9.5772324 1.5161115 444 0 0 0 23.630291
-0.31094542 9.5123949 1.5031853 378 0 0 0 24.209709
-3.6704221 10.009963 1.8106389 651.5 0 0 0 19.13274
-3.2907629 10.111516 1.8063923 669.5 0 0 0 19.72571
-2.7854908 10.243294 1.8037827 696.75 0 0 0 20.504471
