# .PCD v0.7 - Point Cloud Data file format
VERSION 0.7
FIELDS x y z intensity normal_x normal_y normal_z curvature
SIZE 4 4 4 4 4 4 4 4
TYPE F F F F F F F F
COUNT 1 1 1 1 1 1 1 1
WIDTH 904
HEIGHT 1
VIEWPOINT 0 0 0 1 0 0 0
POINTS 904
DATA ascii
7.0864549 -4.2810626 -0.93950701 247 0 0 0 58.11964
9.3187943 -4.3064208 -0.92265773 165 0 0 0 56.363022
13.984464 -4.2842946 -0.97144592 76 0 0 0 54.2267
1.3753031 -3.6235077 -0.9846015 5 0 0 0 68.677681
1.8480384 -3.8381188 -0.98262608 26.75 0 0 0 67.317131
2.1408291 -3.617574 -0.97030979 43.666668 0 0 0 65.946831
2.8019581 -3.7251322 -0.96796578 76 0 0 0 64.18528
3.634613 -3.7631598 -0.96438545 140 0 0 0 62.223507
4.4796529 -3.9012024 -0.95159942 233 0 0 0 60.858009
4.6223464 -3.6434848 -0.94399482 236.66667 0 0 0 60.074978
5.6778145 -3.8271401 -0.94038039 237.66667 0 0 0 58.90752
7.1249638 -3.7274742 -0.91328025 222.5 0 0 0 57.143894
9.1291761 -3.6858606 -0.88517874 163.5 0 0 0 55.585228
13.794621 -3.8584101 -0.9517532 87 0 0 0 53.835979
21.507212 -3.78632 -0.93748462 35 0 0 0 52.265793
-3.5659094 -3.2332637 -0.99444729 110 0 0 0 87.839134
-3.0297544 -3.031527 -0.98590159 39 0 0 0 87.067726
-2.2502587 -3.1929111 -0.99068135 34.400002 0 0 0 84.314117
2.3973846 -3.3585052 -0.95342851 46.25 0 0 0 64.577408
2.6420939 -3.0989645 -0.94182587 58.666668 0 0 0 63.203419
3.1874681 -3.2258747 -0.94319236 119.2 0 0 0 62.028374
3.8664634 -3.2880797 -0.93688369 125.75 0 0 0 60.661892
4.7472806 -3.2057438 -0.91971129 233 0 0 0 58.90752
5.7888532 -3.3110065 -0.91701794 267.33334 0 0 0 57.730316
7.1605482 -3.3091753 -0.89672816 204.5 0 0 0 56.363022
9.1515865 -3.181993 -0.87217772 180 0 0 0 54.811584
13.375827 -3.3896971 -0.9166562 82 0 0 0 53.441761
-5.5733347 -2.8089621 -0.9934572 221 0 0 0 92.122017
-4.6185513 -2.7732937 -0.98752409 137.66667 0 0 0 90.973473
-3.808835 -2.7566094 -0.97159684 100.75 0 0 0 89.597885
-3.1800957 -2.7939007 -0.97454739 68.333336 0 0 0 88.098701
2.8087411 -2.7743707 -0.91391742 48.25 0 0 0 61.83342
3.3773272 -2.7367845 -0.90491754 64 0 0 0 60.270729
3.9881399 -2.9891913 -0.92048115 215 0 0 0 59.68322
4.0499859 -2.7367401 -0.90342361 120.66666 0 0 0 58.90752
4.8086963 -2.7557423 -0.8905856 216.33333 0 0 0 57.730316
5.7972226 -2.7711823 -0.88427448 249.33333 0 0 0 56.556213
7.1306381 -2.7788804 -0.87082869 226 0 0 0 55.392162
9.0505276 -2.6563506 -0.84970295 159 0 0 0 54.031342
12.869879 -2.7632668 -0.87441134 75.5 0 0 0 52.851673
19.717113 -2.9746692 -0.85457015 45 0 0 0 51.883121
-11.977544 -2.3900352 -0.78223884 31 0 0 0 96.415855
-8.6135445 -2.1667316 -0.9974404 211 0 0 0 95.643745
-4.664588 -2.4247847 -0.9630565 124 0 0 0 91.929901
-4.0392618 -2.0994058 -0.94018888 77.5 0 0 0 91.929901
-3.8313675 -2.2715464 -0.94368875 70.5 0 0 0 91.070259
-3.4054427 -2.2810462 -0.94301254 45.400002 0 0 0 90.189438
3.4827313 -2.4828889 -0.89085412 60 0 0 0 59.298191
3.5663633 -2.2270489 -0.87685877 65 0 0 0 58.317535
4.1116815 -2.2916527 -0.87089491 115.25 0 0 0 57.53339
4.8701429 -2.2597513 -0.86384892 165.75 0 0 0 56.362244
5.7713342 -2.2528398 -0.85325003 208.66667 0 0 0 55.392162
7.0605631 -2.2621474 -0.84413594 220 0 0 0 54.421928
8.9476738 -2.154985 -0.82971692 185 0 0 0 53.246399
12.485769 -2.2015574 -0.84231967 126 0 0 0 52.265793
19.031282 -2.3950961 -0.82208627 43 0 0 0 51.482166
-10.899612 -1.6236744 -0.97521478 141 0 0 0 97.202751
-8.5571098 -1.9305829 -0.98481035 201 0 0 0 96.034157
-8.4748755 -1.6946063 -0.96984816 229 0 0 0 96.415855
-6.7269764 -1.6924944 -0.94308573 168 0 0 0 95.643623
-5.5926609 -1.7002618 -0.9291622 14 0 0 0 94.871048
-4.6617537 -1.802855 -0.91436905 47 0 0 0 93.692245
-4.0652566 -1.5717462 -0.89915764 41 0 0 0 93.692245
-3.5466671 -1.844749 -0.91902721 30 0 0 0 91.929901
3.6515269 -1.7535086 -0.84608948 39 0 0 0 56.55883
4.1841993 -1.7588394 -0.84113961 66 0 0 0 55.780506
4.8465743 -1.7596101 -0.8300755 115.66666 0 0 0 55.004436
5.735846 -1.764443 -0.82715726 164.66667 0 0 0 54.226612
6.9383106 -1.6705854 -0.81312907 185 0 0 0 53.246399
7.0208168 -1.9665256 -0.83044809 191 0 0 0 53.835979
8.7886047 -1.6646965 -0.8068428 187.5 0 0 0 52.459053
12.221816 -1.8467339 -0.82125986 110 0 0 0 51.883121
18.113686 -1.8292539 -0.77977914 64 0 0 0 51.097153
-10.643243 -1.3193972 -0.94821316 143 0 0 0 97.593948
-8.3236685 -1.2451048 -0.9439075 210.66667 0 0 0 97.204079
-6.6015062 -1.2355014 -0.91210306 215.5 0 0 0 96.615692
-5.5146084 -1.2418329 -0.89766997 155 0 0 0 96.034157
-5.4598179 -1.0893772 -0.88367158 144 0 0 0 96.415855
-4.6914868 -1.1797758 -0.88462216 74.333336 0 0 0 95.643623
-4.0673995 -1.0752804 -0.86728084 33 0 0 0 95.448357
3.6810811 -1.3910067 -0.82229793 19 0 0 0 55.198082
4.1746974 -1.2330261 -0.80738777 40.25 0 0 0 54.030399
4.825088 -1.2951317 -0.80518544 77.75 0 0 0 53.638866
5.6359839 -1.2871009 -0.79723495 116.66666 0 0 0 53.04837
6.7932448 -1.2003193 -0.7864396 178 0 0 0 52.267075
8.6081886 -1.1956466 -0.78432602 189.5 0 0 0 51.682644
11.762188 -1.3379006 -0.78647435 115.5 0 0 0 51.289658
17.640598 -1.3448567 -0.75791258 62 0 0 0 50.707001
-6.5459933 -0.97677797 -0.89838791 179 0 0 0 97.202751
-6.4548564 -0.72168088 -0.8811487 191 0 0 0 97.791061
-5.3849669 -0.73641187 -0.86236441 130.5 0 0 0 97.400101
-4.6165023 -0.74798894 -0.85449725 57.75 0 0 0 97.007019
-4.0358372 -0.75515133 -0.84611076 26.5 0 0 0 96.617081
4.1353874 -0.73645788 -0.78018248 23.799999 0 0 0 52.266884
4.7352867 -0.78179312 -0.77413309 58.75 0 0 0 52.070847
5.4654098 -0.55516386 -0.75825047 140 0 0 0 51.097153
5.5360246 -0.84038115 -0.77267939 118.66666 0 0 0 51.877026
6.6383572 -0.67285269 -0.76121205 183.66667 0 0 0 51.09544
8.3926973 -0.74722648 -0.76064944 200 0 0 0 50.902077
11.310949 -0.72552478 -0.75309384 153 0 0 0 50.510582
17.018293 -0.87775338 -0.72984517 78 0 0 0 50.314167
-5.2933078 -0.39291364 -0.8411814 127 0 0 0 98.373474
-4.5676174 -0.3965745 -0.83698165 55 0 0 0 98.180817
-4.0117106 -0.39741728 -0.83027011 24 0 0 0 97.985199
4.0921006 -0.21512611 -0.76235485 40.200001 0 0 0 50.315987
4.6667647 -0.24529231 -0.75501209 100.6 0 0 0 50.315987
5.4519901 -0.21576914 -0.75422728 166.75 0 0 0 50.120693
6.5575538 -0.17699797 -0.74924117 227 0 0 0 49.925259
8.2131147 -0.22394873 -0.74235511 234.33333 0 0 0 49.925259
11.050176 -0.16369091 -0.73479402 163.5 0 0 0 49.730801
16.599556 -0.24467532 -0.7115736 46 0 0 0 49.730801
28.937971 -0.062158044 -0.5554775 19 0 0 0 49.532848
-4.6595726 0.47062665 -0.81901532 22 0 0 0 1.16269
-4.1975555 0.37765259 -0.81747442 20 0 0 0 0.97092503
3.991081 0.48449972 -0.74908286 17 0 0 0 47.584042
4.04175 0.23865528 -0.75418895 26.75 0 0 0 48.560032
4.6558886 0.27376631 -0.75480801 98 0 0 0 48.560032
5.4370103 0.25457057 -0.75345021 140.66667 0 0 0 48.753723
6.4777594 0.38465971 -0.74209291 235.5 0 0 0 48.559486
6.5169845 0.14567706 -0.74499083 214 0 0 0 49.1422
8.1513214 0.28019816 -0.73776221 237.5 0 0 0 48.95002
10.984484 0.24301828 -0.73115271 152 0 0 0 49.1422
16.434029 0.36454105 -0.7054227 30 0 0 0 49.1422
-6.3876553 0.88504791 -0.83228433 119 0 0 0 1.753845
-5.3977737 0.74675733 -0.82637811 78.75 0 0 0 1.75152
-4.6191273 0.74947906 -0.81955695 35.25 0 0 0 2.1431525
-4.070869 0.70868742 -0.81783867 20.200001 0 0 0 2.337976
-3.9424891 0.98418474 -0.8043189 16 0 0 0 3.5026
3.9291472 0.77576816 -0.74722683 25 0 0 0 46.407936
4.4950018 0.88677573 -0.74207658 65 0 0 0 46.411926
4.5486846 0.66551846 -0.74439687 86 0 0 0 47.189575
5.3025527 0.70982456 -0.74122179 108.5 0 0 0 47.386921
6.4201074 0.78031158 -0.74039173 208.66667 0 0 0 47.583481
8.0913191 0.77860409 -0.73625118 238 0 0 0 47.974712
10.899866 0.64375448 -0.72724354 165 0 0 0 48.559486
16.306913 0.76296735 -0.70106822 52 0 0 0 48.757839
28.372578 0.63571596 -0.54544449 17 0 0 0 49.1422
-9.6782303 1.3522383 -0.80270076 528 0 0 0 1.753845
-8.0044823 1.0139006 -0.8531161 207 0 0 0 1.55621
-7.8810902 1.2907292 -0.84483266 185 0 0 0 2.14359
-6.2626948 1.2575397 -0.82529587 162.66667 0 0 0 2.7273967
-5.1925898 1.2379522 -0.81047589 102.5 0 0 0 3.3127599
-4.5250654 1.0749211 -0.81537271 53.5 0 0 0 3.3099351
-4.4235168 1.3368154 -0.81124324 51.666668 0 0 0 4.2844667
-3.869664 1.2687604 -0.80821019 28.4 0 0 0 4.674098
3.7611911 1.2412522 -0.73938525 54.799999 0 0 0 44.459938
4.3919497 1.2102053 -0.73865765 144 0 0 0 45.239544
5.1870613 1.2254575 -0.73920566 134.25 0 0 0 45.82383
6.3120065 1.246676 -0.73718667 224 0 0 0 46.4091
7.9720283 1.3674352 -0.73327339 241 0 0 0 46.797249
8.0233269 1.1735138 -0.73489165 250 0 0 0 47.187439
10.806597 1.174072 -0.7247777 194 0 0 0 47.781502
16.218046 1.1588092 -0.69883245 79 0 0 0 48.36113
27.712826 1.3021978 -0.53367829 18 0 0 0 48.757839
-9.4177637 1.7864726 -0.78787744 546 0 0 0 2.53246
-7.6830525 1.7419528 -0.83443165 202 0 0 0 3.1163633
-6.0751214 1.6871816 -0.81579465 193.33333 0 0 0 3.8963699
-5.9509087 1.9677132 -0.81179237 198 0 0 0 4.6668901
-5.0407252 1.6635936 -0.80746812 115.33334 0 0 0 4.671937
-4.9219022 1.892758 -0.80290735 96 0 0 0 5.4527302
-4.2228251 1.7350204 -0.80351126 48.799999 0 0 0 5.844234
-3.637809 1.7004845 -0.79913938 26.799999 0 0 0 6.6231737
-3.4889829 1.9508452 -0.79664636 29 0 0 0 7.79252
3.4141436 1.8880923 -0.72751701 40 0 0 0 41.533066
3.6013038 1.601059 -0.73553026 65 0 0 0 42.902611
4.1900945 1.7359381 -0.73564929 117.6 0 0 0 43.291603
4.9674721 1.8453157 -0.73513973 228.5 0 0 0 43.87252
5.0528889 1.5975606 -0.73501492 181.5 0 0 0 44.657173
6.1892433 1.706875 -0.73610705 229.33333 0 0 0 45.238831
7.8788924 1.7549944 -0.73235416 234.66667 0 0 0 46.018337
10.681802 1.6960526 -0.72177064 187 0 0 0 46.992344
15.978104 1.9345726 -0.69264489 63 0 0 0 47.584042
16.17235 1.5558579 -0.69889265 71 0 0 0 47.978958
27.54344 1.9729476 -0.53215754 16 0 0 0 48.36113
-9.2625694 2.2286327 -0.78422254 423 0 0 0 3.3099351
-7.3960452 2.2537484 -0.82026464 227.66667 0 0 0 4.2844667
-5.8034573 2.2359841 -0.80666327 176.33333 0 0 0 5.4539895
-4.7274766 2.2228639 -0.79738885 118.2 0 0 0 6.6231742
-4.0401835 2.0760994 -0.80095041 58 0 0 0 7.2058949
-3.8290043 2.3321836 -0.79217881 62.75 0 0 0 8.3737373
-3.4303992 2.0283222 -0.79472882 39 0 0 0 8.18437
3.8768857 2.2887099 -0.7296043 56.666668 0 0 0 41.072205
4.0184889 2.1546025 -0.73929757 118 0 0 0 41.728432
4.7625489 2.2539279 -0.73114383 242.8 0 0 0 42.510674
5.961904 2.3824203 -0.73639524 315.5 0 0 0 43.486607
6.0710502 2.0847461 -0.73614085 274 0 0 0 44.265068
7.6684108 2.3140137 -0.72700834 299.66666 0 0 0 44.851551
10.459996 2.3280406 -0.71554279 180 0 0 0 46.018127
10.567261 2.0803189 -0.71902913 189 0 0 0 46.411926
15.816637 2.3107867 -0.6882267 76 0 0 0 47.187439
-9.0877151 2.6601205 -0.78080666 726 0 0 0 4.093255
-8.9851131 2.9901614 -0.78201759 587 0 0 0 4.6668901
-7.1529827 2.6637025 -0.81097806 235 0 0 0 5.2585449
-6.9646168 2.8867369 -0.80162895 249 0 0 0 5.8448801
-5.6019459 2.5580139 -0.79994917 214 0 0 0 6.4295998
-5.3614097 2.8522472 -0.7901687 226.66667 0 0 0 7.4014373
-4.3461885 2.7292991 -0.78599089 142.2 0 0 0 8.5695753
-3.5945168 2.631654 -0.78912812 76.333336 0 0 0 9.7368994
-3.3893344 2.8824871 -0.79021806 80.333336 0 0 0 10.90839
3.3483818 2.8361549 -0.70929515 72.5 0 0 0 38.41507
3.6683075 2.5937881 -0.72739768 37.333332 0 0 0 39.77869
4.394218 2.791477 -0.72126293 178.33333 0 0 0 40.554729
4.5587835 2.5890102 -0.72664517 203 0 0 0 41.341301
5.7993417 2.743675 -0.73580641 297.33334 0 0 0 42.511116
7.4719777 2.7682207 -0.72320503 303.5 0 0 0 43.87252
10.237049 2.6782465 -0.70658886 245.5 0 0 0 45.432632
15.577496 2.6684875 -0.68059546 55 0 0 0 46.797249
27.403717 2.6406326 -0.53143966 19 0 0 0 47.978958
-8.7514429 3.2297947 -0.62027907 343.33334 0 0 0 5.1938167
-8.4687243 3.2826953 -0.75029868 95 0 0 0 5.4527302
-6.7401261 3.1847541 -0.79393142 243 0 0 0 6.6240163
-6.4719439 3.4524417 -0.78203863 265 0 0 0 7.3989401
-5.1150723 3.1333771 -0.78173673 227 0 0 0 8.37432
-4.8620448 3.3996456 -0.77472258 262.33334 0 0 0 9.3471937
-4.0631976 3.0612812 -0.78085291 170 0 0 0 9.9288845
-3.8220365 3.3433251 -0.78181875 177.75 0 0 0 11.101353
-3.1762989 3.1275699 -0.79398322 110 0 0 0 12.070622
-2.8744316 3.3585069 -0.78986907 92.25 0 0 0 13.434782
1.8207402 3.4745004 -0.72502071 24 0 0 0 32.347832
2.2345924 3.2205276 -0.72814322 40 0 0 0 34.300121
2.8720226 3.360841 -0.71279567 64.333336 0 0 0 35.865627
3.0923507 3.1173861 -0.70875508 92.666664 0 0 0 37.040802
3.9403784 3.4173689 -0.72130984 124 0 0 0 38.220402
4.1367435 3.162077 -0.72089589 135.5 0 0 0 39.193691
5.3382597 3.2953939 -0.71846628 238.25 0 0 0 40.751373
5.6135082 3.0038605 -0.72962451 268 0 0 0 41.724831
7.217999 3.1920025 -0.71608752 265.33334 0 0 0 42.904327
9.8690405 3.3773398 -0.69651335 102 0 0 0 44.265068
10.051757 3.0310016 -0.70102292 179 0 0 0 44.851231
15.244556 3.1938124 -0.67093599 60.5 0 0 0 46.215027
-8.652256 3.7233477 -0.78077435 241 0 0 0 6.0404549
-8.3888979 3.7327728 -0.64868373 201 0 0 0 6.234025
-6.2061491 3.6057415 -0.76571107 253.5 0 0 0 7.9884453
-5.8002033 3.857455 -0.74416238 282.66666 0 0 0 8.9569969
-4.5973096 3.5590672 -0.75983793 265 0 0 0 10.12291
-4.2693939 3.7379382 -0.74293077 231.75 0 0 0 11.101353
-3.7265847 3.7434208 -0.77245712 261.66666 0 0 0 12.199913
-3.2556489 3.8142767 -0.77623761 139 0 0 0 13.434782
-2.7066085 3.811259 -0.76004505 90.666664 0 0 0 14.870781
-2.2704775 3.7038252 -0.76102519 60.333332 0 0 0 15.976359
-1.7311357 3.7912087 -0.75088322 39.200001 0 0 0 17.924131
-1.233256 3.9018207 -0.74000776 38.799999 0 0 0 19.874681
-0.73449117 3.9577103 -0.73060286 20 0 0 0 21.824793
-0.24141355 3.9850216 -0.7275244 24.200001 0 0 0 23.771757
0.24941096 3.9788861 -0.72947246 22 0 0 0 25.720911
0.73017246 3.8839855 -0.72562104 25.200001 0 0 0 27.673407
1.200207 3.7535934 -0.72596669 31 0 0 0 29.617855
1.7491821 3.8182871 -0.7044279 48.666668 0 0 0 31.507614
2.2328572 3.7778904 -0.70477605 49.799999 0 0 0 33.131088
2.6159542 3.5661438 -0.71198529 55 0 0 0 34.692303
3.2498369 3.8931477 -0.69873929 147 0 0 0 35.669846
3.705251 3.6375751 -0.71749532 134.75 0 0 0 37.237797
4.3617249 3.9720995 -0.67196524 210 0 0 0 37.828781
4.7129049 3.7841477 -0.69012904 172 0 0 0 38.804264
5.0606937 3.5742848 -0.70846772 172 0 0 0 39.778111
6.3422627 3.907423 -0.67345345 266.5 0 0 0 40.745895
6.8010211 3.6301956 -0.69845313 191 0 0 0 41.72723
8.8834639 3.9255919 -0.64649177 201 0 0 0 42.907753
9.3490257 3.7232287 -0.67100042 141.5 0 0 0 43.486607
14.138002 3.8829288 -0.63044673 59 0 0 0 45.240311
14.823799 3.681525 -0.65780067 47 0 0 0 45.624958
26.091766 3.814817 -0.50944352 44 0 0 0 47.187439
-15.956113 4.0648694 -0.97599745 37 0 0 0 3.5026
-15.027048 4.2197914 -0.92470598 48 0 0 0 3.9019499
-14.252051 4.3787017 -0.88305825 48 0 0 0 4.2845602
-8.1022739 4.0868554 -0.75311273 235 0 0 0 7.0128498
-7.7246361 4.2548213 -0.73233587 484.5 0 0 0 7.5957298
-7.364677 4.4144411 -0.71342772 590 0 0 0 8.18437
-5.311348 4.1193061 -0.71925324 281.66666 0 0 0 10.124706
-4.7497187 4.375844 -0.69266939 484.25 0 0 0 11.489292
-3.746031 4.0854521 -0.72826856 291 0 0 0 12.851613
-3.2953076 4.2702942 -0.71057606 603.25 0 0 0 14.217347
-2.7633455 4.4086146 -0.68717939 323.5 0 0 0 15.780415
-2.2612503 4.2733016 -0.69354486 204.16667 0 0 0 16.946976
-1.7584893 4.1295786 -0.69985867 92.199997 0 0 0 18.315102
-1.2198688 4.2405195 -0.69076681 158 0 0 0 20.264881
-0.73373705 4.2788882 -0.68176377 84.5 0 0 0 22.019321
-0.20779228 4.1880679 -0.63209629 120.71429 0 0 0 23.938938
0.21221198 4.2733755 -0.69182789 76.571426 0 0 0 25.496777
0.78559703 4.1527052 -0.67144215 72.599998 0 0 0 27.673405
1.2919697 4.1965976 -0.66313988 84.166664 0 0 0 29.421061
1.7284203 4.3054585 -0.6490249 119.33334 0 0 0 30.72505
2.2865415 4.2132864 -0.6555059 245.75 0 0 0 32.547165
2.7514758 4.0525184 -0.67232245 146 0 0 0 34.10733
3.3716078 4.4675684 -0.63337314 365.5 0 0 0 34.888054
3.8033624 4.3287683 -0.65437984 348.5 0 0 0 36.060349
4.1795869 4.1000414 -0.66625273 250 0 0 0 37.238937
5.437891 4.3602934 -0.62710571 331.5 0 0 0 38.805546
5.7643528 4.1706467 -0.64128363 328 0 0 0 39.581841
6.0361419 4.0357003 -0.65534186 367 0 0 0 40.172394
7.4084597 4.4360638 -0.57074708 625 0 0 0 40.939926
7.8113289 4.2914557 -0.59035885 270.5 0 0 0 41.533066
8.2287426 4.1331272 -0.61112469 252 0 0 0 42.115566
8.5284948 4.0233269 -0.62665141 240 0 0 0 42.510033
11.719201 4.4988327 -0.53588736 315 0 0 0 43.67802
12.350817 4.3953242 -0.56093186 79 0 0 0 44.06702
12.912918 4.2401266 -0.5825448 183 0 0 0 44.463112
13.459271 4.055325 -0.60339719 97 0 0 0 44.851231
-13.662183 4.564043 -0.85323352 73 0 0 0 4.6668901
-7.1782556 4.5434275 -0.70641524 298 0 0 0 8.56427
-6.7447491 4.7404995 -0.68647534 401 0 0 0 9.3471937
-6.2138338 4.9582548 -0.66293943 282 0 0 0 10.31963
-4.1949797 4.5835133 -0.66786861 510.33334 0 0 0 12.851613
-3.7352171 4.7321463 -0.64940995 386.66666 0 0 0 14.02212
-3.2836826 4.8485155 -0.63214493 335.66666 0 0 0 15.194854
-2.850152 4.9528675 -0.61832863 388.66666 0 0 0 16.365107
-2.0444517 4.508245 -0.65573508 125 0 0 0 17.926479
-1.7472663 4.5753584 -0.65037799 130.75 0 0 0 18.899826
-1.2670697 4.6325827 -0.63975829 155 0 0 0 20.460781
-0.73583251 4.6542363 -0.63001555 59 0 0 0 22.214016
-0.33007488 4.6664762 -0.62709749 91 0 0 0 23.576096
0.29855448 4.6081738 -0.62195396 76.666664 0 0 0 25.722107
0.78517842 4.6336331 -0.61502475 79.5 0 0 0 27.347235
1.2272102 4.7999315 -0.58913088 129.66667 0 0 0 28.645403
1.7744853 4.8683023 -0.57909107 246.5 0 0 0 30.202415
2.2863901 4.75067 -0.59149539 130.75 0 0 0 31.766542
2.7362766 4.6167412 -0.60408807 162.66667 0 0 0 33.13097
3.0783105 4.5292225 -0.61819279 181.5 0 0 0 34.10775
4.2118855 4.9039173 -0.57694936 536.33331 0 0 0 35.865623
4.7382197 4.7521362 -0.60127527 513.33331 0 0 0 37.040802
5.131371 4.5481105 -0.61582172 742.5 0 0 0 38.02459
5.996335 4.9264116 -0.50842887 741 0 0 0 38.610218
6.3432803 4.8277092 -0.52356422 577.5 0 0 0 39.193222
6.8182936 4.6761341 -0.5446825 332.5 0 0 0 39.97525
7.1712089 4.5381966 -0.56020987 775 0 0 0 40.551861
11.200223 4.619369 -0.51614964 120 0 0 0 43.295193
-11.725138 5.2320142 -0.7615447 270 0 0 0 6.2360301
-11.300361 5.3756976 -0.74257416 117 0 0 0 6.6231699
-10.753007 5.4392529 -0.71502465 143 0 0 0 7.0128498
-5.7995539 5.1080904 -0.64537573 335 0 0 0 11.10441
-5.2944531 5.2658973 -0.62479019 323 0 0 0 12.070622
-4.7095542 5.4222693 -0.60235143 617 0 0 0 13.23915
-4.320056 5.4941893 -0.58691573 447 0 0 0 14.02168
-2.5663846 5.0114722 -0.61010087 249 0 0 0 17.140829
-2.2149308 5.061388 -0.60005653 237 0 0 0 18.119957
-1.7273628 5.0944047 -0.58568603 175 0 0 0 19.486059
-1.258487 5.1122494 -0.57493079 213.5 0 0 0 20.84903
-0.74044728 5.1327295 -0.56832099 102.25 0 0 0 22.408968
-0.35792756 5.1327152 -0.56533611 142 0 0 0 23.576096
0.33346558 5.0696011 -0.56121773 132 0 0 0 25.722107
0.70724553 5.0330796 -0.56312007 95 0 0 0 26.895739
1.840542 5.442584 -0.50243616 204.5 0 0 0 29.809826
2.197376 5.3778319 -0.50961465 231.33333 0 0 0 30.789284
2.7139165 5.2838569 -0.52339196 214.25 0 0 0 32.15826
3.2510395 5.172586 -0.5408482 388 0 0 0 33.520969
3.743737 5.076921 -0.56092089 398 0 0 0 34.692303
-10.220272 5.645287 -0.69354481 282.5 0 0 0 7.5957298
-9.5590878 5.74581 -0.66268045 182 0 0 0 8.18437
-9.1610508 5.8139977 -0.64492619 336 0 0 0 8.56427
-8.8068733 5.8941746 -0.63024366 209 0 0 0 8.9537897
-8.4559736 5.9617443 -0.61564755 211 0 0 0 9.3529301
-4.147037 5.5469575 -0.58214575 450 0 0 0 14.41855
-3.7834466 5.6082153 -0.56966037 388.33334 0 0 0 15.194854
-3.2548761 5.6790485 -0.55253249 583.33331 0 0 0 16.365107
-2.7413743 5.7139564 -0.53623879 339.33334 0 0 0 17.53277
-2.2478178 5.7245231 -0.52161974 296.66666 0 0 0 18.706011
-1.7704276 5.7058372 -0.50789118 391.66666 0 0 0 19.87602
-1.466531 5.6988573 -0.50104004 223 0 0 0 20.64966
-13.004811 6.1941795 -0.50875622 672 0 0 0 6.6231699
-8.0975571 6.0085974 -0.60026836 234 0 0 0 9.7348604
-7.6475744 6.1184411 -0.58376575 354.5 0 0 0 10.31963
-7.2437801 6.24296 -0.57078373 288 0 0 0 10.91185
-6.8109884 6.3153057 -0.55510378 295.5 0 0 0 11.488605
-6.2778864 6.4164386 -0.53749156 515.5 0 0 0 12.265815
-5.6996317 6.4212103 -0.51475537 962.5 0 0 0 13.04566
-13.061355 6.6176825 -0.51899093 369 0 0 0 7.0128498
-64.610283 8.3229923 -0.7531867 43 0 0 0 1.55621
2.0334947 -28.021341 -0.44141021 25 0 0 0 73.376999
4.6991129 -27.297413 -0.43667695 25 0 0 0 71.81501
1.2687886 -26.460115 -0.41416562 67 0 0 0 73.761154
-11.268761 -25.393606 -0.44199502 31 0 0 0 81.189789
-10.501112 -25.319532 -0.43506804 18 0 0 0 80.803986
3.6489778 -24.828936 -0.39173588 40 0 0 0 72.207909
2.3008292 -23.67584 -0.36840799 39 0 0 0 72.976578
2.8806937 -23.615091 -0.36899123 38 0 0 0 72.588081
-12.326238 -23.043951 -0.41533816 26 0 0 0 82.366814
-13.747207 -22.924023 -0.42688164 96 0 0 0 83.147469
-13.036978 -22.999292 -0.42119566 46 0 0 0 82.76033
-13.804451 -21.790361 -0.41128829 107 0 0 0 83.531136
-13.766305 -20.595825 -0.39417118 58 0 0 0 83.929291
-13.726056 -19.484581 -0.37842906 23 0 0 0 84.310913
4.7499471 -19.094034 -0.30184889 230 0 0 0 70.644928
6.7875323 -19.074518 -0.31446144 183 0 0 0 69.076561
-12.428286 -15.924032 -0.31621307 51 0 0 0 85.099854
4.2660704 -15.524623 -0.24123891 221 0 0 0 70.253448
-12.444757 -15.163934 -0.30653325 123 0 0 0 85.492203
0.35542002 -15.357249 -0.22539729 291 0 0 0 74.152069
-12.398993 -14.374999 -0.29595619 142 0 0 0 85.889229
21.020967 -11.296601 -0.4218486 34 0 0 0 57.345181
4.2387786 -10.672613 -0.30404449 50.25 0 0 0 68.484596
19.193371 -9.7167835 -0.37875515 92 0 0 0 56.942608
19.458538 -8.6794682 -0.37796593 107 0 0 0 56.17318
20.617638 -8.5955954 -0.39945266 33 0 0 0 55.780319
-10.544851 -7.8273444 -0.19646029 236 0 0 0 89.406761
-11.272868 -7.1464257 -0.20124261 170 0 0 0 90.581474
-10.63796 -7.307333 -0.19292141 155.5 0 0 0 89.990341
15.381355 -7.3214808 -0.29447824 182 0 0 0 56.55286
19.211876 -7.462543 -0.36756399 45 0 0 0 55.390141
-10.937558 -6.5638108 -0.1909968 121 0 0 0 90.978271
3.8752165 -6.5173678 -0.47015664 637 0 0 0 65.949829
4.3219543 -6.5180163 -0.48695791 443 0 0 0 65.161949
5.1175575 -6.9475293 -0.224526 369 0 0 0 64.37738
5.8876796 -6.540988 -0.34001803 27 0 0 0 62.808193
-10.758923 -6.2198448 -0.38901195 247.66667 0 0 0 91.233192
4.0771008 -6.4891572 -0.47602281 533 0 0 0 65.554298
5.2684674 -6.4654894 -0.31939301 233 0 0 0 63.599392
-10.930706 -5.8498101 -0.33725351 253.5 0 0 0 91.737793
3.9779119 -5.6932297 -0.25905618 728.66669 0 0 0 64.775291
-10.348482 -2.0653515 -0.41223654 5390 0 0 0 96.415855
-10.281605 1.3123208 -0.34742594 5328 0 0 0 1.55621
-10.271474 3.1485009 -0.36622369 121 0 0 0 4.2845602
22.541845 3.8637881 -0.43841511 69 0 0 0 46.797249
-0.13554388 4.1051822 -0.21952356 86.583336 0 0 0 24.194899
0.10225368 4.3849044 -0.40720573 91.333336 0 0 0 25.069931
16.278637 4.4723697 -0.31696579 171 0 0 0 45.240311
16.825371 4.1804996 -0.32607666 195 0 0 0 45.624958
18.640018 4.1472874 -0.36189011 159 0 0 0 46.018127
20.803539 4.0945077 -0.40472063 59 0 0 0 46.411926
5.7634802 4.978837 -0.49809644 291 0 0 0 38.220402
9.8978653 4.9674873 -0.46881396 198 0 0 0 42.115566
10.206099 4.8111281 -0.47837716 176 0 0 0 42.510033
10.668015 4.7108321 -0.49566028 302 0 0 0 42.907753
15.740439 4.743773 -0.30806318 227 0 0 0 44.851231
1.4828979 5.4787569 -0.49473408 597 0 0 0 28.83894
1.6314998 5.4860969 -0.4996382 182 0 0 0 29.22753
4.8045282 5.4507618 -0.47169 427 0 0 0 36.063553
5.2287469 5.2398734 -0.48226783 744.66669 0 0 0 37.040802
5.5999212 5.0843349 -0.49409941 309 0 0 0 37.828781
7.3958707 5.4824839 -0.3830471 652 0 0 0 39.385567
7.8396702 5.3717384 -0.39687946 260 0 0 0 39.97525
8.3101377 5.2546663 -0.41203997 532 0 0 0 40.551861
8.6325903 5.1649051 -0.42252991 279 0 0 0 40.939926
9.2314186 5.0663652 -0.44406402 264 0 0 0 41.533066
15.133084 5.1763048 -0.2990863 233 0 0 0 44.265068
-1.1746522 5.7074628 -0.49724233 185.33333 0 0 0 21.435163
-0.74037194 5.6918693 -0.49122748 155 0 0 0 22.603758
-0.38743466 5.6856327 -0.48906046 149.5 0 0 0 23.576096
0.37853694 5.6264224 -0.48696274 187 0 0 0 25.720631
0.72402543 5.5904913 -0.48841104 157.5 0 0 0 26.698999
1.2075691 5.5295238 -0.49231878 165.66667 0 0 0 28.060532
2.9901297 5.9908147 -0.42700106 237 0 0 0 31.96814
3.2403173 5.9306307 -0.43198702 281 0 0 0 32.546272
3.6940727 5.865912 -0.44540095 940.33331 0 0 0 33.520969
4.1881976 5.6720085 -0.4552016 847.33331 0 0 0 34.692303
4.5393014 5.5521646 -0.46444106 277 0 0 0 35.469761
5.8955727 5.9036355 -0.34209427 284 0 0 0 37.043327
6.2242098 5.786314 -0.34969434 697.5 0 0 0 37.631668
6.7075348 5.6442685 -0.3624745 295.5 0 0 0 38.41531
7.1419516 5.5725689 -0.37608457 702 0 0 0 39.000874
12.604207 5.9399481 -0.25631896 112 0 0 0 42.510033
13.383377 5.9084535 -0.27090555 94 0 0 0 42.907753
14.470528 5.9667306 -0.29204467 103 0 0 0 43.295193
14.825798 5.6907001 -0.29678702 172 0 0 0 43.67802
-11.402985 6.3087635 -0.46047315 254 0 0 0 7.5957298
-8.7498512 6.4983692 -0.25367215 887.5 0 0 0 9.7348604
-8.3044834 6.4860058 -0.24544063 950.5 0 0 0 10.12291
-7.7584662 6.4723001 -0.27569011 986.33331 0 0 0 10.648183
-7.2550626 6.4614882 -0.18678094 962.33331 0 0 0 11.168597
-6.7798376 6.4454269 -0.2185369 1077.5 0 0 0 11.68024
-6.2849035 6.4243288 -0.21040724 1168 0 0 0 12.265815
-5.6934152 6.4153805 -0.20133604 1290.5 0 0 0 13.04566
-5.1422405 6.3942618 -0.2928277 1514 0 0 0 13.823905
-4.6328506 6.3714204 -0.28175667 1487.5 0 0 0 14.610789
-4.1722779 6.3675637 -0.2728925 1549.1666 0 0 0 15.390765
-3.7395399 6.362463 -0.26537994 1675 0 0 0 16.170065
-1.6575482 6.4773164 -0.40856975 227 0 0 0 20.64966
-1.3164204 6.4369245 -0.40239823 219.33333 0 0 0 21.435163
-0.74460042 6.3886795 -0.39567512 211 0 0 0 22.797729
-0.03429101 6.3406234 -0.39247766 84 0 0 0 24.547859
0.27597937 6.3050094 -0.39184904 269.33334 0 0 0 25.331327
0.73792416 6.2486482 -0.39240161 224.66667 0 0 0 26.503309
1.2026676 6.2067566 -0.39615586 196 0 0 0 27.671028
1.7524167 6.1433988 -0.40261176 249.5 0 0 0 29.033445
2.320339 6.0861993 -0.41280043 291.33334 0 0 0 30.398977
2.7335472 6.0250249 -0.42093146 226 0 0 0 31.375099
4.7255559 6.3915162 -0.32153952 199.33333 0 0 0 34.692303
5.2207489 6.2187767 -0.33045191 237.5 0 0 0 35.670593
5.6299257 6.0706844 -0.33856741 310 0 0 0 36.450108
9.2175541 6.4828596 -0.19964641 164 0 0 0 39.778111
9.5765228 6.3883634 -0.20496461 165 0 0 0 40.172394
10.269245 6.3120232 -0.21658325 152 0 0 0 40.745895
10.997909 6.2142525 -0.22885434 143 0 0 0 41.341301
11.51733 6.1383238 -0.23772524 116 0 0 0 41.724831
12.073421 6.0575666 -0.24735218 121 0 0 0 42.115566
-12.248051 6.5827451 -0.15454303 486 0 0 0 7.3989401
-11.543839 6.5703287 -0.14759235 531 0 0 0 7.79252
-10.88573 6.5510464 -0.29566646 568 0 0 0 8.18437
-10.288311 6.5367341 -0.28375036 677 0 0 0 8.56427
-9.7434921 6.5277514 -0.27303502 692 0 0 0 8.9537897
-9.2400894 6.5207977 -0.26333362 758.5 0 0 0 9.3529301
-3.6036994 6.6858997 -0.27497807 1132.6666 0 0 0 16.75519
-3.2468779 6.7955852 -0.45766732 465 0 0 0 17.53277
-2.7319448 6.7480755 -0.44332188 406.5 0 0 0 18.511173
-2.2559919 6.7235084 -0.43304071 395.33334 0 0 0 19.486059
-1.8719237 6.6403627 -0.4218286 204 0 0 0 20.26557
3.2817132 6.8764386 -0.25608951 688.75 0 0 0 31.671619
3.7653522 6.8768792 -0.31327075 289.5 0 0 0 32.546272
4.196559 6.6541543 -0.31609568 272.66666 0 0 0 33.520969
6.7473221 6.9187269 -0.1637336 253 0 0 0 36.843925
7.3071113 6.7875299 -0.17097133 229 0 0 0 37.631668
7.764719 6.6962729 -0.17732804 183 0 0 0 38.220402
8.292181 6.6302385 -0.18538025 193.5 0 0 0 38.805546
8.8485918 6.5553894 -0.19402799 178 0 0 0 39.385567
-13.817286 7.0018063 -0.17397013 138 0 0 0 7.0128498
-3.5860028 7.2956619 -0.19881277 1061.5 0 0 0 17.335915
-0.58206624 7.4857731 -0.28423232 332 0 0 0 23.37965
0.24044755 7.3291206 -0.28012663 410 0 0 0 25.136675
0.68881744 7.2864728 -0.28124937 367.33334 0 0 0 26.110397
1.2297237 7.2441163 -0.2844027 331 0 0 0 27.284872
1.7773165 7.1985803 -0.28911185 319.66666 0 0 0 28.450455
2.2322977 7.1258478 -0.29280165 398.5 0 0 0 29.42013
2.6952343 7.0470047 -0.2975888 389.33334 0 0 0 30.398977
4.834012 7.4525852 -0.14332356 237 0 0 0 33.717464
5.2763228 7.316576 -0.14737101 241.5 0 0 0 34.497196
5.7791691 7.2324581 -0.15332346 273.5 0 0 0 35.276138
6.2468596 7.0723314 -0.15806258 270 0 0 0 36.063553
-3.5609753 7.9764309 -0.11070222 772 0 0 0 17.926479
-3.2626073 7.8100533 -0.31340364 460.33334 0 0 0 18.316277
-2.7220905 7.831182 -0.30845928 577.5 0 0 0 19.288479
-2.297339 7.8233728 -0.30449772 426.5 0 0 0 20.073395
-1.7604507 7.70188 -0.29609463 368.66666 0 0 0 21.043516
-1.2552961 7.6165423 -0.29042953 302.5 0 0 0 22.020325
-0.86898977 7.564147 -0.28751016 303 0 0 0 22.797611
3.3095491 7.5137844 -0.12645669 143 0 0 0 31.177839
3.5361845 7.5194416 -0.12887716 1055 0 0 0 31.572359
4.2624254 7.7753019 -0.14089741 231.5 0 0 0 32.546272
4.5555468 7.6269112 -0.14225009 240 0 0 0 33.127979
-3.5438778 8.4992952 -0.11916618 694 0 0 0 18.314369
0.39199919 8.4995518 -0.12216338 386 0 0 0 25.33691
0.70297009 8.4562874 -0.12288247 386.5 0 0 0 25.914705
1.2231565 8.4101973 -0.12493289 385.33334 0 0 0 26.895739
1.7447701 8.3523979 -0.12727045 368 0 0 0 27.863506
2.2590027 8.2448664 -0.1292381 435.66666 0 0 0 28.840349
2.7636561 8.0953684 -0.13090622 348.5 0 0 0 29.809826
3.2025313 8.0585175 -0.13432091 362.5 0 0 0 30.595005
-3.3038797 8.8268242 -0.12403078 468.5 0 0 0 18.901834
-2.8366299 8.878067 -0.12412656 385 0 0 0 19.681244
-2.2445152 8.8592863 -0.12332187 367 0 0 0 20.653971
-1.6663111 8.8128586 -0.12252313 331 0 0 0 21.629406
-1.2190394 8.7848263 -0.12241203 338.5 0 0 0 22.409235
-0.77481407 8.6946831 -0.12166533 347.5 0 0 0 23.186226
0.18304417 8.5069771 -0.12141809 411 0 0 0 24.93644
7.7199554 -52.369843 0.42822659 18 0 0 0 72.207909
6.8404279 -39.658215 0.33284634 14 0 0 0 71.81501
13.102227 -39.815102 0.33764061 15 0 0 0 69.46566
16.197243 -39.23967 0.33671504 6 0 0 0 68.291512
-4.7943325 -38.674511 0.32467192 8 0 0 0 76.508141
8.5628719 -38.323177 0.32350612 19 0 0 0 71.035484
14.761576 -38.406532 0.32901868 18 0 0 0 68.677681
25.430962 -38.174881 0.34430447 14 0 0 0 65.161949
9.4417496 -37.869518 0.32059389 6 0 0 0 70.644928
-0.93725264 -37.020096 0.31128955 11 0 0 0 74.945038
-5.4870653 -36.840324 0.31149614 10 0 0 0 76.895477
4.5223546 -36.960888 0.31227916 28 0 0 0 72.588081
18.550081 -36.973228 0.3237226 24 0 0 0 67.121887
-3.566766 -35.967072 0.30399022 11 0 0 0 76.109566
-2.6745 -35.911892 0.30327618 10 0 0 0 75.719406
18.69976 -35.09864 0.31073317 17 0 0 0 66.730492
-8.7772465 -31.663086 0.27678466 21 0 0 0 78.841316
-9.2838116 -30.56012 0.26952294 18 0 0 0 79.232552
-7.7203884 -30.759041 0.26884669 8 0 0 0 78.456223
-11.384327 -29.486744 0.26539671 15 0 0 0 80.405563
-9.610508 -29.054998 0.25919867 17 0 0 0 79.628738
12.954851 -29.333639 0.26135457 47 0 0 0 67.908569
13.751335 -29.179537 0.26131755 12 0 0 0 67.507568
-10.287546 -28.721313 0.2579495 22 0 0 0 80.02462
31.157763 -28.332125 0.29227698 13 0 0 0 61.247849
15.09019 -26.730677 0.24610673 47 0 0 0 66.336349
1.9150664 -26.328773 0.23205346 49 0 0 0 73.376999
32.137852 -26.46454 0.28287977 50 0 0 0 60.469341
23.272356 -25.761349 0.25735867 35 0 0 0 62.808193
-11.186182 -25.219526 0.23506682 18 0 0 0 81.189789
-10.425148 -25.148947 0.2329682 37 0 0 0 80.803986
18.603523 -25.167875 0.2422989 40 0 0 0 64.37738
24.081928 -25.377548 0.25651395 14 0 0 0 62.423321
19.437088 -24.989307 0.24300231 30 0 0 0 63.995007
-11.415861 -24.124235 0.2279968 13 0 0 0 81.583954
-14.585031 -23.031509 0.22903416 5 0 0 0 83.531136
-13.75415 -22.944731 0.22604565 96 0 0 0 83.147469
27.797945 -21.772112 0.24216008 11 0 0 0 60.072361
32.103447 -20.409409 0.24663363 8 0 0 0 58.513153
27.933449 -19.748039 0.23036122 11 0 0 0 59.298191
6.8110223 -19.128227 0.18040733 196 0 0 0 69.076561
32.192749 -19.374371 0.24111781 32 0 0 0 58.117847
28.176281 -18.90074 0.22613621 17 0 0 0 58.911221
-13.668498 -16.660862 0.18589722 69 0 0 0 85.492203
29.38195 -16.716694 0.21765207 18 0 0 0 57.727921
4.2904072 -15.600823 0.15244663 183 0 0 0 70.253448
0.35920203 -15.393947 0.14985177 311 0 0 0 74.152069
35.637936 -12.827241 0.22086789 30 0 0 0 55.00602
35.65947 -11.855277 0.21685301 22 0 0 0 54.617153
19.689978 -10.577111 0.15328054 35 0 0 0 57.345181
35.667385 -10.893805 0.21298648 47 0 0 0 54.2267
19.154858 -9.6923866 0.14686406 81 0 0 0 56.942608
20.382708 -9.086071 0.14812227 47 0 0 0 56.17318
20.749441 -8.6455441 0.14733444 42 0 0 0 55.780319
53.932945 -8.1037445 0.27619731 6 0 0 0 51.883121
-10.79301 -7.6113005 0.12433619 134 0 0 0 89.795128
30.559149 -7.7185092 0.18092076 68 0 0 0 53.441761
-11.715655 -7.4270372 0.47417691 171 0 0 0 90.581474
-10.881242 -7.2808971 0.1232696 292 0 0 0 90.185555
15.422502 -7.3371711 0.12220557 197 0 0 0 56.55286
19.270823 -7.4809499 0.13661884 52 0 0 0 55.390141
26.818005 -7.4793944 0.16532914 80 0 0 0 53.835979
-10.862685 -6.8891993 0.12145046 298 0 0 0 90.581474
-10.820607 -6.2560177 0.22358005 276.66666 0 0 0 91.233192
-48.179352 -5.9873891 0.3406873 16 0 0 0 97.593948
-10.932066 -5.8542757 0.11759641 33 0 0 0 91.737793
3.9762509 -5.6875081 0.25220826 1006 0 0 0 64.775291
-0.074164219 3.9852746 0.28486893 159 0 0 0 24.420553
17.956951 3.9983823 0.10254494 288 0 0 0 46.018127
54.419193 3.9076259 0.2521942 20 0 0 0 48.36113
-0.21887718 4.0881143 0.24473403 170.625 0 0 0 23.869518
15.684384 4.3118606 0.093717568 374 0 0 0 45.240311
16.314766 4.0564256 0.096065357 246 0 0 0 45.624958
20.707048 4.0788894 0.11353084 132 0 0 0 46.411926
23.906937 4.1014805 0.12641619 77 0 0 0 46.797249
28.872852 4.2259417 0.14654911 56 0 0 0 47.187439
33.241852 4.0343924 0.16459364 36 0 0 0 47.584042
14.956861 4.9111214 0.48493898 264 0 0 0 44.463112
15.255212 4.7348714 0.22610074 300 0 0 0 44.721859
51.525524 4.9732265 0.2391015 23 0 0 0 47.978958
14.933832 5.3153353 0.28980899 227 0 0 0 44.06702
14.686645 5.7764144 0.22349207 192.66667 0 0 0 43.550411
-13.674129 6.1069355 0.19936852 123 0 0 0 6.2360301
-13.285424 6.3260889 0.19508235 233 0 0 0 6.6231699
-11.211157 6.2017622 0.48848757 433 0 0 0 7.5957298
-7.5019426 6.4677262 0.12976669 679 0 0 0 10.91185
-7.1617942 6.4861603 0.24617583 621 0 0 0 11.29697
-6.801641 6.465271 0.12245879 695 0 0 0 11.68024
-6.2601676 6.4517503 0.19053482 667.33331 0 0 0 12.331716
-5.7091422 6.4344077 0.21802212 843 0 0 0 13.04566
-5.2420497 6.4678936 0.24448271 723.66669 0 0 0 13.75798
-4.0947657 6.4199762 0.09674453 1135 0 0 0 15.58764
-3.8852108 6.4316812 0.095094666 1063 0 0 0 15.98131
14.409843 6.3609362 0.28782514 300.5 0 0 0 42.907753
14.581765 6.0111156 0.48575357 140 0 0 0 43.295193
-12.989613 6.5785341 0.19203709 155 0 0 0 7.0128498
-11.93935 6.7958775 0.1802109 168 0 0 0 7.79252
-11.045565 6.6504989 0.48966604 213 0 0 0 8.18437
-10.982895 6.608335 0.16873564 304 0 0 0 8.18437
-10.390202 6.6004376 0.16194749 457 0 0 0 8.56427
-9.820446 6.5782661 0.15545127 380 0 0 0 8.9537897
-9.283473 6.5502815 0.14937384 540 0 0 0 9.3529301
-8.7827692 6.5217042 0.14375402 581 0 0 0 9.7348604
-8.352026 6.5222068 0.13905603 629 0 0 0 10.12291
-7.9497495 6.5247974 0.13473235 653 0 0 0 10.51635
-6.7423415 6.5705037 0.35586089 539 0 0 0 11.874174
-5.0736675 6.6402617 0.21059376 591.5 0 0 0 14.220115
-3.7367563 6.739459 0.095689878 941.5 0 0 0 16.557005
3.3907654 6.7778974 0.25830519 1271.3334 0 0 0 31.96814
14.549878 6.8548179 0.29469332 213 0 0 0 42.510033
-13.252309 7.1248708 0.19621879 195 0 0 0 7.3989401
-11.043728 7.02317 0.49549225 262 0 0 0 8.56427
-9.7362165 7.2403579 0.45777735 308 0 0 0 9.7348604
-4.4765158 7.0333958 0.31032956 989 0 0 0 15.58764
-3.7043037 7.1621823 0.2307508 758.33331 0 0 0 17.012283
3.2935536 7.4765911 0.1762715 671.5 0 0 0 31.177839
3.5104616 7.4641666 0.17723405 259.5 0 0 0 31.572359
13.181808 7.4464593 0.090276867 341 0 0 0 41.341301
13.772522 7.3368855 0.28817368 199.5 0 0 0 41.724831
14.19816 7.1209102 0.29185486 209.5 0 0 0 42.115566
-9.9728346 7.8043656 0.4754805 452 0 0 0 10.12291
-9.4811573 7.7985358 0.46052492 398 0 0 0 10.51635
-8.991374 7.7695179 0.44542477 589 0 0 0 10.91185
-5.7067666 7.6714687 0.11734743 653 0 0 0 14.41855
-5.2813964 7.6700249 0.22916746 770.75 0 0 0 14.99846
-4.6000891 7.6414328 0.32931891 641 0 0 0 15.98131
-4.346982 7.6361103 0.32398683 906 0 0 0 16.35882
-3.5965459 7.8023825 0.20787174 850.75 0 0 0 17.728741
3.5681856 7.5805001 0.48952088 1142 0 0 0 31.572359
12.915788 7.72124 0.090277351 416 0 0 0 40.939926
13.218559 7.6772242 0.47324044 280.5 0 0 0 41.140614
3.3077779 8.0322418 0.18613496 553 0 0 0 30.78684
6.7453814 8.4342928 0.080602273 187.5 0 0 0 35.276138
7.1938119 8.3439016 0.080552489 209 0 0 0 35.871422
7.6875782 8.2755184 0.080807567 173 0 0 0 36.450108
8.2205868 8.2188625 0.081305347 193 0 0 0 37.043327
8.6444073 8.2262707 0.082036577 137 0 0 0 37.434551
9.2466488 8.1671429 0.082889676 217.5 0 0 0 38.02459
9.8999872 8.1151562 0.084000595 299 0 0 0 38.610218
10.43685 8.1332884 0.085259788 109 0 0 0 39.000874
10.931286 8.0936174 0.086262614 121 0 0 0 39.385567
11.489685 8.0763712 0.087579623 118 0 0 0 39.778111
12.186031 8.1244984 0.08954861 110 0 0 0 40.172394
12.860899 8.1239557 0.091357239 87 0 0 0 40.551861
13.151011 8.3024139 0.48153195 221 0 0 0 40.551861
-3.5458369 8.5065613 0.21973945 783 0 0 0 18.314369
3.3518019 8.7344246 0.19860661 461 0 0 0 30.40317
5.2554631 8.7881155 0.082158782 163 0 0 0 33.13097
5.7318206 8.5938034 0.080971904 189 0 0 0 33.9147
6.1708217 8.5479708 0.08085829 194.5 0 0 0 34.497196
12.857774 8.7967691 0.4830828 295 0 0 0 39.97525
-3.5358219 9.1144333 0.23054332 667.5 0 0 0 18.707979
4.8095026 9.0233221 0.083522722 178 0 0 0 32.347832
12.568197 9.2967415 0.48543933 196 0 0 0 39.385567
-3.5161295 9.7780094 0.2422484 587 0 0 0 19.09569
2.8692174 9.9520378 0.090109929 272.5 0 0 0 29.033234
3.3498447 9.6564598 0.17237657 296.33334 0 0 0 29.875525
12.430792 9.6765938 0.48955864 242 0 0 0 39.000874
-3.4692559 10.450785 0.11700603 310 0 0 0 19.48127
-2.0459533 10.184411 0.10730922 2525 0 0 0 21.43421
-1.7067349 10.486338 0.10774234 305.5 0 0 0 22.020325
-1.1772916 10.435214 0.10500393 232 0 0 0 22.797611
-0.78998524 10.441725 0.10332991 260 0 0 0 23.37965
0.4812682 10.204325 0.096972264 264 0 0 0 25.33691
0.85314238 10.137602 0.095398493 315.5 0 0 0 25.914705
1.3446717 10.0448 0.093479149 288.5 0 0 0 26.700575
1.8447745 10.008363 0.092125647 488 0 0 0 27.477619
2.3653612 10.034087 0.091358289 433.5 0 0 0 28.25621
5.6762915 10.319922 0.38574794 151.5 0 0 0 32.546272
6.3141479 10.248843 0.39179441 153.5 0 0 0 33.324104
6.8166847 10.201662 0.3973085 176 0 0 0 33.9147
7.1727128 10.182039 0.4019267 175 0 0 0 34.3008
7.7284718 10.149822 0.40962738 115.5 0 0 0 34.888054
8.3458147 10.160538 0.41991428 116 0 0 0 35.469761
8.7920151 10.181314 0.42805353 129 0 0 0 35.871422
9.2744551 10.219435 0.43750533 121 0 0 0 36.255688
9.7784529 10.255052 0.44757304 101 0 0 0 36.644527
10.308076 10.290292 0.45840803 95 0 0 0 37.043327
10.840802 10.301453 0.46905681 98 0 0 0 37.434551
11.58729 10.479248 0.48787287 90 0 0 0 37.828781
12.19712 10.23934 0.49563789 238 0 0 0 38.41531
-3.4996257 10.554796 0.39476481 481 0 0 0 19.48127
-2.771349 10.630508 0.2059641 225.66667 0 0 0 20.521629
-2.391449 10.568184 0.11167108 276 0 0 0 21.04668
3.35848 10.637552 0.37263176 433.5 0 0 0 29.42013
-3.3281369 11.442012 0.41954195 440 0 0 0 20.073395
-2.5820136 11.448879 0.41104612 553 0 0 0 21.04668
-2.2864654 11.43665 0.40765277 596 0 0 0 21.43421
-1.8495185 11.417105 0.40307313 600 0 0 0 22.020325
-1.4205421 11.415613 0.39960355 550 0 0 0 22.602421
3.0581112 11.086328 0.38445258 390 0 0 0 28.83894
-1.2370876 12.475554 0.4318755 226 0 0 0 22.9928
3.0803013 12.320662 0.42245069 165 0 0 0 28.45458
1.7170695 13.938663 0.46953025 44 0 0 0 26.50178
2.3141479 14.379848 0.48417693 79 0 0 0 27.09272
2.8572087 14.360697 0.484833 92 0 0 0 27.66917
3.1920698 14.212012 0.48134905 168 0 0 0 28.05784
69.226936 -59.889584 0.58946127 10 0 0 0 60.858009
1.9507662 -26.875191 0.90857816 18 0 0 0 73.376999
-10.382596 -25.034149 0.90835148 21 0 0 0 80.803986
-11.602969 -24.508829 0.90772414 7 0 0 0 81.583954
-12.285415 -24.386669 0.91323519 16 0 0 0 81.980782
-14.630049 -23.093727 0.91176128 5 0 0 0 83.531136
-10.214693 -23.018023 0.8460204 19 0 0 0 81.189789
-13.783788 -22.985138 0.89518309 68 0 0 0 83.147469
-15.799041 -22.427305 0.91349292 4 0 0 0 84.310913
6.8115754 -19.13867 0.68742454 171 0 0 0 69.076561
5.9323306 -18.060425 0.64613974 141 0 0 0 69.46566
-13.659074 -16.643448 0.72297442 56 0 0 0 85.492203
4.3027868 -15.654108 0.75638056 122.5 0 0 0 70.253448
-3.3914812 -15.041499 0.91068351 33 0 0 0 78.061966
-0.020173155 -15.376911 0.90931183 216 0 0 0 74.54612
0.35577887 -15.353374 0.53260887 231 0 0 0 74.152069
15.426209 -11.49522 0.62579989 42 0 0 0 59.68322
19.38991 -10.419724 0.70119005 97 0 0 0 57.345181
19.339424 -9.7891207 0.68932807 115 0 0 0 56.942608
-14.647703 -8.7891941 0.78480256 131.5 0 0 0 90.978271
-13.948197 -8.8416805 0.96165586 127 0 0 0 90.581474
-13.149408 -8.7945538 0.7312007 122 0 0 0 90.185555
-12.706234 -8.9566145 0.90806186 90 0 0 0 89.795128
19.83 -8.8435316 0.68729389 53 0 0 0 56.17318
20.944843 -8.7304449 0.71518254 35 0 0 0 55.780319
-11.991053 -8.4526644 0.50008649 133 0 0 0 89.795128
15.336969 -7.765739 0.97445333 77 0 0 0 56.942608
23.204763 -7.722549 0.76321846 38 0 0 0 54.617153
30.469233 -7.7008476 0.96543521 60 0 0 0 53.441761
-12.374246 -7.0189466 0.83279961 78 0 0 0 91.360649
4.8244762 -7.26474 0.73923999 418.33334 0 0 0 65.161949
15.53108 -7.3914785 0.55246848 99 0 0 0 56.55286
19.23612 -7.4707761 0.65188521 112 0 0 0 55.390141
26.756191 -7.4666018 0.85886037 34 0 0 0 53.835979
5.0948586 -6.9102778 0.93717599 113 0 0 0 64.37738
129.60428 -6.6097078 0.58473003 7 0 0 0 50.314167
3.9972956 -5.7140861 0.76846379 782 0 0 0 64.775291
4.0118108 -5.4447007 0.91145784 35 0 0 0 64.37738
-0.13793184 3.9678817 0.73931074 179 0 0 0 24.165939
0.056495056 3.9422281 0.63729006 132 0 0 0 24.93644
26.734283 3.9079437 0.8130309 55 0 0 0 47.187439
30.883076 3.7423804 0.9322775 32 0 0 0 47.584042
-0.16108547 4.0279689 0.78346455 191.11111 0 0 0 24.07469
15.75964 4.328866 0.70362687 322 0 0 0 45.240311
16.327435 4.0559092 0.72257471 277 0 0 0 45.624958
18.366077 4.085577 0.57441598 233 0 0 0 46.018127
21.309425 4.1931353 0.65864277 169 0 0 0 46.411926
23.670332 4.0562582 0.72553408 108 0 0 0 46.797249
15.58893 4.6966839 0.89960903 387 0 0 0 44.851231
15.220284 5.2041845 0.88908625 460.5 0 0 0 44.265068
-6.7964544 5.8580661 0.56065452 344 0 0 0 10.91185
-6.2676086 5.8400083 0.70388281 735.40002 0 0 0 11.526933
-5.739603 5.9119468 0.78379536 867 0 0 0 12.331716
-5.4188533 5.9580669 0.7010954 894 0 0 0 12.85093
14.864491 5.7035928 0.88022107 243 0 0 0 43.67802
-13.228072 6.3029685 0.5582937 308 0 0 0 6.6231699
-12.151857 6.1563606 0.68643403 219 0 0 0 7.0128498
-11.863153 6.3789673 0.84084499 196 0 0 0 7.3989401
-11.20149 6.3785348 0.80455607 347 0 0 0 7.79252
-9.7984648 6.113821 0.81501323 505.33334 0 0 0 8.4376364
-8.5341902 6.3406844 0.66290319 592 0 0 0 9.7348604
-7.7444286 6.0478625 0.73558748 739 0 0 0 10.12291
-7.4001803 6.1757836 0.76038808 638.33331 0 0 0 10.648183
-6.1836109 6.3265834 0.55025828 396 0 0 0 12.265815
-5.6620493 6.2297316 0.5235182 241 0 0 0 12.85093
-5.4116268 6.1515393 0.84354907 792 0 0 0 13.11057
14.608335 6.2328119 0.87832737 210.5 0 0 0 43.101471
-9.2519293 6.5323482 0.98609453 394 0 0 0 9.3529301
-6.0362039 6.9844656 0.5708648 876 0 0 0 13.24039
3.3882647 6.7706108 0.72564065 1123 0 0 0 31.96814
14.671182 6.9090466 0.8964383 132 0 0 0 42.510033
-4.4820151 7.0442672 0.71864861 1145 0 0 0 15.58764
13.971787 7.4398627 0.87634176 158 0 0 0 41.724831
14.288846 7.1634388 0.88429159 161 0 0 0 42.115566
-11.656361 7.8237658 0.69889617 279.5 0 0 0 8.9537897
-11.055893 7.8171749 0.6740362 395.5 0 0 0 9.3529301
-6.2067146 7.6777415 0.68961185 739.33331 0 0 0 13.75798
-5.7949214 7.6637444 0.75005454 778.66669 0 0 0 14.28626
-5.2652235 7.6502881 0.6852833 861.25 0 0 0 14.99846
-4.5887628 7.6246734 0.76394296 836 0 0 0 15.981311
-4.2113786 7.612721 0.74636179 874.66669 0 0 0 16.557005
-3.689395 7.6956677 0.70447147 948.125 0 0 0 17.483555
3.4984546 7.9293599 0.71916711 399.5 0 0 0 31.177839
3.5494812 7.7081294 0.77493685 871.33331 0 0 0 31.440851
13.481935 7.6105638 0.85814786 256 0 0 0 41.341301
-3.5670264 8.0001774 0.96266258 827 0 0 0 17.926479
13.308813 8.1738129 0.86610496 210.5 0 0 0 40.745895
-3.5559006 8.5373249 0.67555761 656 0 0 0 18.314369
3.6020951 8.7312145 0.66650295 34 0 0 0 30.78684
12.897738 8.8228035 0.86750853 230 0 0 0 39.97525
-3.5450935 9.1457367 0.714306 582.5 0 0 0 18.707979
3.5984588 9.361824 0.7067976 268.5 0 0 0 30.40317
12.615551 9.3304138 0.87171113 300 0 0 0 39.385567
-3.5253694 9.8120918 0.75673485 519.5 0 0 0 19.09569
12.466181 9.7027273 0.87801301 277 0 0 0 39.000874
12.243908 10.27731 0.88920343 231.5 0 0 0 38.41531
-60.530342 10.824332 0.78425992 6 0 0 0 2.3357
-3.5087562 10.586502 0.80688614 481.5 0 0 0 19.48127
3.8962643 10.909169 0.66833502 402 0 0 0 30.00692
12.01691 10.864847 0.90179819 214 0 0 0 37.828781
-3.3213015 11.423584 0.709517 408 0 0 0 20.073395
-2.7247503 11.430217 0.84509027 507.5 0 0 0 20.848171
-2.2801211 11.410131 0.83566511 546.5 0 0 0 21.43421
-1.8449984 11.395784 0.82799286 554 0 0 0 22.020325
-1.4163666 11.390104 0.821931 477.5 0 0 0 22.602421
3.4220192 11.304111 0.68242121 386 0 0 0 29.22753
3.6759644 11.149479 0.82567608 410.5 0 0 0 29.61273
11.873375 11.277285 0.91202939 213 0 0 0 37.434551
3.245717 11.750134 0.7042532 340 0 0 0 28.83894
11.752197 11.724364 0.92501974 152 0 0 0 37.043327
-60.630402 12.381456 0.78545916 26 0 0 0 2.7292199
-1.236253 12.483037 0.73882365 210 0 0 0 22.9928
3.0874813 12.343123 0.73469448 251 0 0 0 28.45458
11.620305 12.176526 0.93840039 171 0 0 0 36.644527
6.729425 12.578849 0.81082654 83 0 0 0 32.347832
7.1336427 12.57986 0.82071251 92 0 0 0 32.744709
7.5689025 12.612777 0.83309716 83 0 0 0 33.127979
8.0024681 12.620187 0.84468341 72 0 0 0 33.520229
8.514472 12.723186 0.86344546 76 0 0 0 33.9147
9.0760851 12.864708 0.88592863 70 0 0 0 34.3008
9.6143885 12.938945 0.90519428 57 0 0 0 34.693592
11.524369 12.685269 0.95596421 168 0 0 0 36.255688
10.224585 13.074462 0.92996466 63 0 0 0 35.08252
10.791101 13.119879 0.94995439 75 0 0 0 35.469761
11.407755 13.193498 0.97340441 67 0 0 0 35.871422
-60.613132 13.932244 0.78526026 18 0 0 0 3.11727
3.2020273 14.248221 0.84003258 134 0 0 0 28.05784
1.7960595 14.546618 0.84749621 139 0 0 0 26.50178
-60.564915 15.491736 0.78456903 15 0 0 0 3.5026
0.78714478 15.889296 0.92133492 31 0 0 0 25.33691
3.3401129 16.733784 0.97797155 77 0 0 0 27.66917
-60.494732 17.062302 0.78393143 24 0 0 0 3.9019499
0.84713691 17.058245 0.56911409 52 0 0 0 25.33691
1.279775 17.2164 0.57348311 56 0 0 0 25.720631
1.7340159 17.493763 0.58196974 43 0 0 0 26.10878
-60.146187 20.191353 0.78105056 11 0 0 0 4.6668901
5.8641982 -39.84288 1.3392286 12 0 0 0 72.207909
-0.99676025 -39.141724 1.3043804 6 0 0 0 74.945038
6.7795773 -39.34214 1.3269255 6 0 0 0 71.81501
14.807917 -38.543793 1.3607621 16 0 0 0 68.677681
8.5015535 -38.07629 1.2954385 14 0 0 0 71.035484
18.572987 -37.032055 1.3583622 18 0 0 0 67.121887
4.5188322 -36.979919 1.2422734 17 0 0 0 72.588081
-3.5387425 -35.624378 1.1948998 17 0 0 0 76.109566
12.233553 -29.658766 1.0635868 40 0 0 0 68.291512
13.910131 -29.527084 1.0787436 10 0 0 0 67.507568
-10.313648 -28.778791 1.0213027 14 0 0 0 80.02462
-9.5218554 -28.770487 1.0132757 21 0 0 0 79.628738
31.163784 -28.345421 1.3441734 19 0 0 0 61.247849
15.035337 -26.642435 1.0090351 57 0 0 0 66.336349
32.093906 -26.435812 1.3207532 58 0 0 0 60.469341
18.751036 -25.374588 1.0316464 32 0 0 0 64.37738
32.081196 -25.130972 1.2919627 57 0 0 0 60.072361
19.380774 -24.924095 1.0306352 32 0 0 0 63.995007
32.09029 -22.690714 1.2411306 39 0 0 0 59.298191
7.3628225 -19.183388 1.1969424 76 0 0 0 68.677681
6.4356995 -18.083347 1.121043 131 0 0 0 69.076561
-2.5367832 -17.009254 1.4401649 47 0 0 0 76.895477
-2.1614478 -17.406425 1.4683506 17 0 0 0 76.508141
-13.669058 -16.655609 1.2506298 47 0 0 0 85.492203
-2.9410901 -16.875347 1.4344593 29 0 0 0 77.283409
5.0091791 -16.603228 1.4489145 47 0 0 0 69.861458
4.4375405 -16.129519 1.3993765 58 0 0 0 70.253448
5.3941855 -16.413588 1.4429978 15 0 0 0 69.46566
-1.2906098 -14.812071 1.2500731 78 0 0 0 75.91449
