# .PCD v0.7 - Point Cloud Data file format
VERSION 0.7
FIELDS x y z intensity normal_x normal_y normal_z curvature
SIZE 4 4 4 4 4 4 4 4
TYPE F F F F F F F F
COUNT 1 1 1 1 1 1 1 1
WIDTH 890
HEIGHT 1
VIEWPOINT 0 0 0 1 0 0 0
POINTS 890
DATA ascii
10.268674 -5.3416243 -1.0459347 157.5 0 0 0 57.230675
14.282859 -5.1167517 -1.0069917 57 0 0 0 55.085281
-8.6891527 -4.7881203 -1.113838 40 0 0 0 91.658058
-6.6660376 -4.8215542 -1.1203723 138.5 0 0 0 89.713646
-5.2598529 -4.5359044 -1.1065642 294 0 0 0 88.336891
-4.9417243 -4.7048965 -1.0864164 348.33334 0 0 0 87.56205
-3.7592444 -4.6930075 -1.1038845 267 0 0 0 85.400482
-3.3790603 -4.9191098 -1.0949281 365.5 0 0 0 84.223389
-2.5647993 -4.5167155 -1.0748121 148 0 0 0 82.859184
-2.2495821 -4.7415595 -1.0872767 184.8 0 0 0 81.686691
-1.8430872 -4.9333897 -1.090956 176 0 0 0 80.314423
-1.084065 -4.5217457 -1.0731286 38 0 0 0 78.361557
-0.7407704 -4.5348392 -1.0608501 49.75 0 0 0 77.189781
-0.2399753 -4.5867033 -1.0616188 38.200001 0 0 0 75.426796
0.26594576 -4.583313 -1.0620911 49.25 0 0 0 73.666054
0.75908643 -4.7665434 -1.0578086 77.5 0 0 0 72.10672
1.239063 -4.7819238 -1.0271537 227.75 0 0 0 70.537758
1.7133534 -4.6627622 -1.034477 212.25 0 0 0 68.973145
2.1438496 -4.5813336 -1.0550638 151.33333 0 0 0 67.60434
2.9521527 -4.9643359 -1.0698024 209 0 0 0 66.032562
3.2203484 -4.7307281 -1.0609709 223.25 0 0 0 65.057152
4.4241157 -4.9115973 -1.0661578 326 0 0 0 62.900921
4.549017 -4.691206 -1.0541358 252.5 0 0 0 62.316799
5.795876 -4.7792044 -1.0373902 227.66667 0 0 0 60.557037
7.3785801 -4.8147831 -1.0047765 318 0 0 0 58.795502
7.5488586 -4.5372047 -1.0047237 198 0 0 0 58.204567
10.236963 -4.702013 -1.0174689 169 0 0 0 56.449959
-19.650997 -4.4083877 -1.3103086 21 0 0 0 96.146927
-8.6204224 -4.2127423 -1.0765259 132 0 0 0 92.43586
-6.70574 -4.2510166 -1.0805376 152.33333 0 0 0 90.69091
-5.2691898 -4.217248 -1.0744575 226.5 0 0 0 88.92395
-4.1261387 -4.2299857 -1.0843697 193.5 0 0 0 86.97406
-3.1379952 -4.1194572 -1.0715157 154.5 0 0 0 85.005142
-2.8379445 -4.3553543 -1.0760875 167.25 0 0 0 83.834785
-2.0400419 -4.0412812 -1.0425875 79 0 0 0 82.075211
-1.7566936 -4.2227783 -1.0546147 88.199997 0 0 0 80.902763
-1.3543316 -4.434413 -1.069713 42 0 0 0 79.335747
-0.55768549 -4.0131617 -1.0301194 16.5 0 0 0 76.803741
-0.2116845 -4.0188665 -1.0242127 20 0 0 0 75.426796
0.28035709 -4.0185347 -1.0265 18 0 0 0 73.471146
0.8125875 -4.4607058 -1.049962 50.5 0 0 0 71.716393
1.2732397 -4.2654815 -1.0317616 55.400002 0 0 0 69.950256
1.671594 -4.08605 -1.0238382 53.333332 0 0 0 68.386307
2.3926086 -4.3906307 -1.0433028 101 0 0 0 66.624222
2.6730494 -4.1493297 -1.0307636 126 0 0 0 65.448807
3.4779363 -4.4887676 -1.0529648 204 0 0 0 64.080284
3.632225 -4.2408175 -1.0357009 100.66666 0 0 0 63.292614
4.7084155 -4.2950821 -1.0281154 314.33334 0 0 0 61.334869
5.9450989 -4.3156481 -1.0142584 133.5 0 0 0 59.574326
6.0241103 -4.0421691 -1.001454 127 0 0 0 58.996479
-18.812275 -3.7376602 -1.2468821 21 0 0 0 96.532188
-8.5750685 -3.8055577 -1.0521488 97 0 0 0 93.025528
-6.7686191 -3.7293463 -1.05114 174 0 0 0 91.658058
-5.3836389 -3.7929962 -1.0480481 189.66667 0 0 0 89.908028
-4.3577456 -3.7607212 -1.0554544 174 0 0 0 88.338806
-3.5346529 -3.5333016 -1.0330114 168 0 0 0 87.171501
-3.3806653 -3.8225901 -1.0558031 124 0 0 0 86.188042
-2.64922 -3.6615148 -1.0411093 85.75 0 0 0 84.614265
-2.2364047 -3.8482995 -1.0445859 84.199997 0 0 0 83.0168
-1.7417908 -3.6688721 -1.0316651 46 0 0 0 81.686691
-1.2365249 -3.8754349 -1.0341727 30.333334 0 0 0 79.532013
-0.80496019 -3.9884069 -1.0343213 18.333334 0 0 0 77.772919
0.76064336 -3.9188168 -1.01837 21.4 0 0 0 71.520676
1.2632191 -3.7327509 -1.0067984 23.333334 0 0 0 69.36306
1.7830868 -3.808677 -1.0063683 35 0 0 0 67.60434
2.1357355 -3.8121183 -1.0147065 77 0 0 0 66.427002
2.9112988 -3.8610888 -1.0098388 136 0 0 0 64.273117
3.8206208 -3.8482182 -1.0058088 197.66667 0 0 0 62.118816
-6.7575188 -3.3017921 -1.0224718 123 0 0 0 92.43586
-5.4359879 -3.3505697 -1.015397 199 0 0 0 90.887955
-4.4773507 -3.3240995 -1.0217227 125.33334 0 0 0 89.515358
-3.6926811 -3.266326 -1.0191431 115.5 0 0 0 88.145164
-2.7894726 -3.269383 -1.0123844 66.5 0 0 0 85.893539
-2.2286687 -3.2964656 -1.0101827 46.200001 0 0 0 84.107697
-11.26583 -2.6759381 -1.0245618 90 0 0 0 95.952347
-6.7563167 -2.9979169 -1.0045459 147 0 0 0 93.025528
-34.070221 -26.585958 -0.71921068 19 0 0 0 89.118782
-30.874077 -25.33539 -0.66155946 22 0 0 0 88.729126
-37.660412 -23.845133 -0.74527663 11 0 0 0 90.6875
-41.827988 -21.05043 -0.7882852 17 0 0 0 92.237648
-37.051273 -20.986313 -0.71183312 10 0 0 0 91.466797
-36.771698 -19.651905 -0.69704407 17 0 0 0 91.849319
-30.892559 -14.60906 -0.56630445 49 0 0 0 92.634071
-31.334616 -13.88745 -0.56892157 43 0 0 0 93.025528
-12.720594 -9.4319954 -0.62774843 413 0 0 0 89.51403
-12.711675 -8.9506073 -0.61583406 62 0 0 0 89.913261
2.7672248 -8.100297 -0.54210246 555 0 0 0 69.363853
3.1953893 -8.0407457 -0.54914486 517.5 0 0 0 68.582436
3.7631922 -8.0016527 -0.56297493 541 0 0 0 67.607437
-8.7415352 -7.9210544 -0.74655753 465 0 0 0 87.950409
-8.2042656 -7.809123 -0.85267586 352 0 0 0 87.56424
-7.60007 -7.5978613 -0.67667168 241 0 0 0 87.171501
-7.1938996 -7.7403116 -0.92606223 554.5 0 0 0 86.580254
-6.7922554 -7.8705068 -0.91036332 596 0 0 0 85.989197
-4.5816245 -7.6409621 -0.99469948 559 0 0 0 83.249199
-4.2046947 -7.6337571 -0.97242177 632 0 0 0 82.666229
-3.7371776 -7.6479616 -0.94914216 636.5 0 0 0 81.883728
-3.294261 -7.6731577 -0.93068135 657 0 0 0 81.096359
-2.7522688 -7.6746364 -0.90837091 612.33331 0 0 0 80.118988
-2.1352808 -7.6909027 -0.88891858 515 0 0 0 78.94632
-1.740513 -7.713532 -0.88095206 481.66666 0 0 0 78.16468
-1.2500237 -7.7099819 -0.8702454 512.5 0 0 0 77.189026
-0.76828885 -7.6986604 -0.86250615 562 0 0 0 76.212738
-0.20047128 -7.6856899 -0.85779548 539 0 0 0 75.035301
0.26861998 -7.6286473 -0.85212493 460.5 0 0 0 74.057495
0.87122864 -7.6925511 -0.80085087 593.33331 0 0 0 72.820457
1.2812121 -7.7021003 -0.79572809 610.59998 0 0 0 71.990875
1.7136225 -7.7124557 -0.78688568 584.25 0 0 0 71.128647
2.8604889 -7.7490702 -0.72657943 520 0 0 0 68.970421
3.1660743 -7.6935496 -0.73260361 560 0 0 0 68.387909
3.7081175 -7.6406155 -0.74971843 573.5 0 0 0 67.409485
4.0966964 -7.8607216 -0.63627142 546.33331 0 0 0 66.948769
-0.10303488 -7.3267794 -0.99743414 473 0 0 0 74.839615
0.25567496 -7.3113708 -0.9964599 521.5 0 0 0 74.057495
2.7337718 -7.4007025 -0.88699746 480 0 0 0 68.970421
3.2231638 -7.3096433 -0.89974707 471.66666 0 0 0 67.996468
3.7475104 -7.258131 -0.92174304 614.5 0 0 0 67.014465
4.2730055 -7.1604648 -0.94286305 620 0 0 0 66.038124
4.6846023 -7.0411391 -0.95743465 614 0 0 0 65.254356
5.2741976 -7.3298216 -0.80243957 690 0 0 0 64.661751
5.7164993 -7.1718874 -0.81637871 812 0 0 0 63.883286
6.3045673 -7.1567011 -0.85125983 586 0 0 0 63.095779
6.7725468 -7.140233 -0.88005877 633 0 0 0 62.511032
7.2188997 -7.0674543 -0.90503979 559 0 0 0 61.922707
8.9029036 -7.3276358 -0.75340563 386 0 0 0 60.560032
10.277908 -7.0669217 -0.81910646 282 0 0 0 59.187805
14.077147 -7.0970893 -0.65970522 161 0 0 0 57.033154
-2.0382285 -6.6972213 -0.77470154 390 0 0 0 79.332794
0.47330838 -6.6042519 -0.81647086 751.5 0 0 0 73.470909
2.8874478 -6.5615463 -0.62645674 161 0 0 0 67.994049
4.8824635 -6.9615149 -0.96324402 627 0 0 0 64.857559
5.2050014 -6.6969275 -0.96175545 735.33331 0 0 0 64.077507
7.8088932 -6.9260063 -0.93693221 579 0 0 0 61.140881
8.3378544 -6.8640823 -0.97106862 578 0 0 0 60.560032
10.908447 -6.9236388 -0.85015076 291 0 0 0 58.594528
11.801167 -6.69907 -0.89529598 310 0 0 0 57.821808
15.41151 -6.8403339 -0.708628 248 0 0 0 56.255241
16.195604 -6.7160659 -0.73853517 227 0 0 0 55.867271
18.211342 -6.5209913 -0.81901044 117 0 0 0 55.085281
5.6768594 -6.4415298 -0.97489816 602.5 0 0 0 63.095779
10.319816 -6.2007289 -0.79001844 309 0 0 0 58.204567
12.029381 -6.4426346 -0.90079063 277 0 0 0 57.428192
12.746001 -6.1673865 -0.82050109 322.66666 0 0 0 56.774166
20.082321 -6.0939732 -0.892057 107 0 0 0 54.296646
27.900648 -6.2561936 -0.52899575 118 0 0 0 53.125313
-29.593987 -5.8826137 -0.50485551 50 0 0 0 96.532188
13.316257 -5.7183208 -0.95984089 172.5 0 0 0 56.061256
17.759262 -5.8709502 -0.79096162 124 0 0 0 54.697247
20.585571 -5.6976142 -0.90871286 70 0 0 0 53.911129
29.923445 -5.9407077 -0.56692976 78 0 0 0 52.738579
-23.275684 -5.2205973 -0.9741047 41 0 0 0 96.146927
-5.0320516 -5.0311356 -0.61135143 1346 0 0 0 87.171501
-3.7226169 -5.1034842 -0.81431079 526.11108 0 0 0 84.679718
-3.4299903 -5.2668309 -0.9210757 515 0 0 0 83.835175
1.3619044 -5.2020569 -0.81805593 339.85715 0 0 0 70.508354
1.6065266 -5.1299777 -0.78953207 361.625 0 0 0 69.756676
2.948508 -5.2448406 -0.52101099 986 0 0 0 66.431061
3.2776251 -5.2106385 -0.53462976 942 0 0 0 65.645897
6.4693356 -5.0686231 -0.73074365 619.66669 0 0 0 60.162731
-5.0766249 -4.6608038 -0.76031744 988.5 0 0 0 87.853867
-4.9390974 -4.8608384 -0.8793748 834.66669 0 0 0 87.302422
-4.0785313 -4.9669433 -0.54841155 540 0 0 0 85.60247
-3.889679 -4.9807625 -0.53862643 642 0 0 0 85.199348
6.6009412 -4.8503618 -0.77951896 562 0 0 0 59.671928
11.747528 -4.5399532 -0.67507893 391.5 0 0 0 55.477367
14.128972 -4.6729431 -0.98724353 83 0 0 0 54.697247
21.842613 -4.9030452 -0.95439458 55 0 0 0 53.125313
7.5834589 -4.1860332 -0.98799008 221 0 0 0 57.625
9.9697161 -4.1394386 -0.97375774 170 0 0 0 55.867271
13.730058 -4.1695285 -0.95082337 102 0 0 0 54.296646
16.493147 -4.132947 -0.71617419 212 0 0 0 53.526981
21.959873 -4.3650603 -0.95462787 33 0 0 0 52.738579
1.6385846 -3.512423 -0.99017555 11 0 0 0 67.607437
2.3600721 -3.5683091 -0.99372965 71.333336 0 0 0 65.254219
3.04248 -3.6482987 -0.99208581 148 0 0 0 63.488464
3.9360306 -3.5921514 -0.98816603 154 0 0 0 61.333408
4.8160973 -3.7827642 -0.98735684 191 0 0 0 60.164097
5.9693089 -3.6945877 -0.96840662 215.5 0 0 0 58.399548
7.5396347 -3.6903625 -0.95681179 204.5 0 0 0 56.838913
9.8030949 -3.7904654 -0.94735336 174 0 0 0 55.477367
13.382605 -3.7071953 -0.91916281 71 0 0 0 53.911129
20.200445 -3.5018015 -0.87117553 38 0 0 0 52.349281
31.537403 -3.8740137 -0.59197986 20 0 0 0 51.569592
36.482365 -3.5731943 -0.68840522 25 0 0 0 51.174488
-5.4413257 -3.0832314 -0.99393874 160 0 0 0 91.466797
-3.0496931 -3.0498123 -0.99177527 40 0 0 0 87.171501
-2.9817784 -3.1315129 -0.99431676 46 0 0 0 86.780495
-2.3312123 -3.1387813 -0.99099517 23 0 0 0 84.810928
1.8490999 -3.4033911 -0.99106163 24.5 0 0 0 66.622047
2.6670704 -3.2022817 -0.96929044 70.666664 0 0 0 63.489185
3.2683117 -3.2983537 -0.97059441 110.2 0 0 0 62.118156
3.9772174 -3.4545498 -0.97677124 144 0 0 0 60.948353
4.0871673 -3.2124126 -0.96415925 168 0 0 0 60.164097
4.9472308 -3.3268025 -0.96103114 229 0 0 0 58.990047
5.0235929 -3.0293298 -0.94537413 193 0 0 0 58.204567
6.0441442 -3.2450695 -0.94623739 224.33333 0 0 0 57.427719
7.5263238 -3.2351515 -0.93332577 169.5 0 0 0 56.061256
9.6555405 -3.3304534 -0.91995287 155.5 0 0 0 54.891266
13.149744 -3.2966747 -0.89659917 88 0 0 0 53.526981
-6.6727571 -2.7669451 -0.9811579 144 0 0 0 93.413345
-5.4386582 -2.7397449 -0.96746808 126.66666 0 0 0 92.240349
-4.5708127 -2.7434433 -0.97577095 83.333336 0 0 0 91.080902
-4.4795609 -2.9951527 -0.98615628 70 0 0 0 90.296806
-3.8421276 -2.7798929 -0.97944963 67 0 0 0 89.710724
-3.2220662 -2.7833114 -0.97954547 46.200001 0 0 0 88.33989
-2.5911198 -2.9287968 -0.99148178 27.5 0 0 0 86.184601
2.9399662 -2.8263633 -0.94857734 52.333332 0 0 0 61.726273
3.2391541 -2.7499597 -0.93473554 54.25 0 0 0 60.754192
3.5673654 -2.6687152 -0.93112689 67.333336 0 0 0 59.770458
4.1921844 -2.7484269 -0.92953503 100 0 0 0 58.793678
5.0441489 -2.7135308 -0.92287135 201.33333 0 0 0 57.427719
6.0841813 -2.7093799 -0.91825813 228 0 0 0 56.255726
7.5061922 -2.7971253 -0.91220266 175.5 0 0 0 55.281326
9.4422493 -2.6183827 -0.88141519 133 0 0 0 53.911129
9.5213404 -2.8945582 -0.89559901 157 0 0 0 54.296646
12.768687 -2.7065561 -0.86214691 59 0 0 0 52.931946
19.010979 -2.8161416 -0.81444389 35 0 0 0 51.956039
-11.06113 -2.1989179 -0.99752492 144 0 0 0 96.532188
-8.1082582 -2.0343599 -0.93575084 102 0 0 0 95.757759
-5.3918381 -2.3130887 -0.93119103 171 0 0 0 93.219437
-4.5903559 -2.2454321 -0.93469137 93.75 0 0 0 92.436646
-3.9186192 -2.2873945 -0.93618387 76.25 0 0 0 91.27301
-3.3745892 -2.2601569 -0.93339539 40.200001 0 0 0 90.300003
3.1188993 -2.3951774 -0.91460431 31 0 0 0 59.966125
3.6710587 -2.2824807 -0.90351337 72.25 0 0 0 58.404346
4.2836471 -2.239635 -0.89605772 108.75 0 0 0 57.231956
5.0553532 -2.2562237 -0.89145756 170.66667 0 0 0 56.255726
6.0362635 -2.2533889 -0.8875525 177 0 0 0 55.281326
7.356566 -2.2382529 -0.87476593 168.66667 0 0 0 54.301678
9.2370224 -2.1989288 -0.85327184 144.5 0 0 0 53.326149
12.357464 -2.1443391 -0.82709527 69 0 0 0 52.349281
18.446262 -2.2704988 -0.78640866 35 0 0 0 51.569592
-8.0118122 -1.8022156 -0.91894716 221 0 0 0 96.146927
-7.9557157 -1.5853302 -0.90768832 152 0 0 0 96.532188
-6.269629 -1.5726821 -0.87576526 13 0 0 0 95.757759
-5.3655009 -1.7733858 -0.89636844 122 0 0 0 94.599846
-4.5976267 -1.7130593 -0.89717472 85.5 0 0 0 94.006592
-3.9580326 -1.8159939 -0.89782703 41.5 0 0 0 92.827652
-3.4257383 -1.9434799 -0.90398675 30 0 0 0 91.466797
3.7261105 -1.7790928 -0.86277026 40 0 0 0 56.64571
4.2949486 -1.7309747 -0.85781097 69.5 0 0 0 55.671291
4.9887314 -1.6593678 -0.84570515 107.5 0 0 0 54.690964
5.0063353 -1.8035992 -0.85621119 103 0 0 0 55.087307
5.9362845 -1.8089336 -0.85409838 156.66667 0 0 0 54.301678
7.19344 -1.7112403 -0.84004009 154 0 0 0 53.326149
8.9009914 -1.5460901 -0.81030631 154 0 0 0 52.349281
9.0248537 -1.7977388 -0.82594001 136 0 0 0 52.738579
11.995427 -1.778571 -0.79857284 100 0 0 0 51.956039
17.76022 -1.7438762 -0.75364232 42 0 0 0 51.174488
-6.3106503 -1.2575802 -0.8724637 181 0 0 0 96.534904
-5.2445731 -1.1786697 -0.85214376 103 0 0 0 96.14563
-4.5578299 -1.2061647 -0.86172056 62 0 0 0 95.568604
-3.9694841 -1.2064976 -0.85477275 42.666668 0 0 0 94.985954
3.7576866 -1.2532005 -0.82736588 19.799999 0 0 0 54.693531
4.2718973 -1.2482008 -0.82385951 37.25 0 0 0 54.108002
4.9254298 -1.2417225 -0.81630898 76.333336 0 0 0 53.521145
5.8278503 -1.313839 -0.82133001 119.66666 0 0 0 53.130291
6.9434729 -1.1175393 -0.79757988 155 0 0 0 52.15266
7.0713401 -1.4074217 -0.81835133 171 0 0 0 52.738579
8.6899757 -1.1814015 -0.78571761 178.5 0 0 0 51.762817
11.413998 -1.1216415 -0.7533592 114 0 0 0 51.174488
11.700327 -1.4414498 -0.77534997 120 0 0 0 51.569592
16.903486 -1.2408662 -0.71392536 51 0 0 0 50.781487
-6.1781359 -0.60908717 -0.8415758 133 0 0 0 98.098465
-5.2179251 -0.70914412 -0.83550096 81.5 0 0 0 97.512039
-4.5028362 -0.89701533 -0.83829296 47 0 0 0 96.532188
-4.478466 -0.77819347 -0.82986349 41 0 0 0 96.925606
-3.9403591 -0.78551763 -0.82769966 22 0 0 0 96.534912
4.1740594 -0.73005313 -0.78365135 19 0 0 0 52.347755
4.8404574 -0.78361654 -0.78741217 54.25 0 0 0 52.15337
5.6661711 -0.77193421 -0.78521091 117 0 0 0 51.762348
6.8000393 -0.75240058 -0.77506071 174.5 0 0 0 51.37204
8.3871384 -0.61642009 -0.75201327 172 0 0 0 50.781487
8.5007153 -0.83598626 -0.76434588 157 0 0 0 51.174488
10.921241 -0.53209746 -0.71654397 105 0 0 0 50.396271
11.155054 -0.81937999 -0.73382717 110 0 0 0 50.781487
16.321711 -0.79500967 -0.68695933 47 0 0 0 50.396271
-6.0779505 -0.14867757 -0.82444757 80 0 0 0 99.27243
-5.1831965 -0.12514314 -0.8228724 86 0 0 0 99.27243
-4.4118385 -0.27337411 -0.80786574 20.5 0 0 0 98.685448
-3.9051034 -0.38439009 -0.80844724 21 0 0 0 98.098465
4.1298294 -0.25301075 -0.76466227 37.5 0 0 0 50.587753
4.7357845 -0.29143408 -0.76115739 75 0 0 0 50.587753
5.4640889 -0.1300727 -0.74892759 118 0 0 0 49.998768
5.5289302 -0.3373214 -0.75946492 144.5 0 0 0 50.588879
6.6228776 -0.32154036 -0.75029308 179.66667 0 0 0 50.392178
8.2336521 -0.30019289 -0.73610389 176 0 0 0 50.197517
10.736059 -0.25811249 -0.70310134 107 0 0 0 49.998768
15.810504 -0.38042548 -0.66361934 68 0 0 0 49.998768
-15.812256 0.36048698 -0.93016988 75 0 0 0 0
-10.678787 0.37187427 -0.8754195 122.5 0 0 0 0.193345
-7.9489136 0.27412534 -0.83300769 150.5 0 0 0 0.193345
-6.3081627 0.22357629 -0.81759787 138.5 0 0 0 25.206577
-5.2847004 0.18948132 -0.80235219 56 0 0 0 25.206577
-4.6200523 0.27100509 -0.79805851 14.5 0 0 0 0.58345002
-4.1358919 0.23019138 -0.79605067 12 0 0 0 20.55764
4.0769515 0.20584178 -0.75439358 27.799999 0 0 0 48.831341
4.6552572 0.23341259 -0.74749416 60 0 0 0 48.831341
5.4127922 0.20585749 -0.74224597 115 0 0 0 49.026089
6.4654837 0.40707994 -0.73214179 185.5 0 0 0 48.632713
6.5231948 0.08738859 -0.73755908 195.5 0 0 0 49.41946
8.0903578 0.20471923 -0.72246045 183.33333 0 0 0 49.222218
10.644021 0.13721684 -0.69658434 124 0 0 0 49.41946
15.285017 0.19584292 -0.64012039 68.5 0 0 0 49.41946
-24.887604 0.56745994 -0.88241059 21 0 0 0 0
-15.360597 0.72508913 -0.90233696 79 0 0 0 0.38668999
-10.314895 0.86259902 -0.84557974 91.5 0 0 0 0.97355497
-7.6644034 0.72879523 -0.80403012 83.333336 0 0 0 1.1717234
-6.2079139 0.74220175 -0.79567903 126.66666 0 0 0 1.5627199
-5.2278891 0.68879509 -0.78721344 59.75 0 0 0 1.7585349
-4.5495872 0.6533373 -0.79175013 12.666667 0 0 0 1.9545568
-4.0035982 0.57423013 -0.78583032 13 0 0 0 1.94963
-3.9869301 0.66966403 -0.78550935 16 0 0 0 2.3459799
3.9378705 0.79630631 -0.7419374 14.8 0 0 0 46.486145
4.2335796 0.70174611 -0.73700368 25.5 0 0 0 47.073257
4.5514417 0.68518573 -0.73738497 39.333332 0 0 0 47.266781
5.2844439 0.72868425 -0.73039156 80.5 0 0 0 47.463173
6.3734932 0.79874915 -0.72562867 127.66666 0 0 0 47.658245
7.9572868 0.89301473 -0.71413887 204 0 0 0 47.855659
8.0440741 0.60230017 -0.71974289 187 0 0 0 48.437698
10.545834 0.65709424 -0.69102228 164.5 0 0 0 48.632713
15.100718 0.75276804 -0.63250595 80 0 0 0 48.827728
-56.710075 1.2832344 -0.67930943 34 0 0 0 0
-23.480318 1.1097764 -0.82965934 34 0 0 0 0.38668999
-14.988367 1.0741003 -0.8799969 72 0 0 0 0.77664
-14.486204 1.3934783 -0.8501935 95 0 0 0 1.17047
-10.034934 1.209489 -0.82390887 73 0 0 0 1.56806
-9.8401222 1.4291562 -0.80941778 62 0 0 0 1.94963
-7.4205689 1.071817 -0.78103209 78 0 0 0 1.94963
-4.9587564 1.4027271 -0.76800317 85.5 0 0 0 4.100915
-4.266181 1.3136164 -0.76799214 34 0 0 0 4.4883547
3.7177601 1.2228901 -0.72168785 22.5 0 0 0 44.633888
4.3580961 1.2221898 -0.724612 55.400002 0 0 0 45.317104
5.1340775 1.2355158 -0.72243851 104 0 0 0 45.9007
6.2223754 1.2540191 -0.71643418 161.66667 0 0 0 46.48822
7.8174276 1.2708864 -0.70580602 202.5 0 0 0 47.07069
10.38941 1.1636648 -0.68311322 144 0 0 0 47.855659
14.905266 1.2953165 -0.62533081 77.5 0 0 0 48.245029
-22.532621 1.6173533 -0.79457504 27 0 0 0 0.77664
-14.091547 1.7027787 -0.82752556 96 0 0 0 1.56806
-6.9359579 1.8785768 -0.74622846 83 0 0 0 3.90415
-5.7163124 1.7689553 -0.75937378 78.75 0 0 0 4.4883547
-4.7437935 1.7848387 -0.75544196 41 0 0 0 5.4613142
-4.1066289 1.5970674 -0.75772822 30.5 0 0 0 5.659205
-3.9575388 1.8201233 -0.74923259 25 0 0 0 6.6310802
3.4214494 1.861905 -0.71678954 37.333332 0 0 0 41.801224
3.6711102 1.6846598 -0.7168653 54 0 0 0 42.874863
4.1438732 1.6808856 -0.71483576 89.75 0 0 0 43.56002
4.9008369 1.7773288 -0.71214598 142.33333 0 0 0 44.145935
5.0079207 1.5399687 -0.71599454 155 0 0 0 44.929039
5.9275284 1.9011486 -0.70132834 195 0 0 0 44.735153
6.0634222 1.6185615 -0.70759881 178 0 0 0 45.508049
7.6264071 1.7284657 -0.69622731 186 0 0 0 46.096439
10.210978 1.6571438 -0.67530233 168.5 0 0 0 47.07069
14.626192 1.8185221 -0.6151734 81 0 0 0 47.658958
-21.503017 2.072212 -0.75699174 33 0 0 0 1.17047
-13.757693 2.0034308 -0.80910641 110 0 0 0 1.94963
-6.6862035 2.2518089 -0.73222959 137.5 0 0 0 4.8793421
-5.5301609 2.085752 -0.7494747 46 0 0 0 5.4681001
-5.3453536 2.3157854 -0.73851854 48 0 0 0 6.2402368
-4.5108137 2.0816123 -0.73962891 26 0 0 0 6.6338301
-4.3286266 2.322711 -0.73182344 35.75 0 0 0 7.6119275
-3.6885493 2.2066333 -0.7406612 15.333333 0 0 0 8.392621
-3.428618 2.4676116 -0.72779948 20 0 0 0 9.7607698
3.8023088 2.2511432 -0.70523423 75.833336 0 0 0 41.214985
4.4923363 2.4360888 -0.69626516 92 0 0 0 41.804798
4.6904202 2.1782675 -0.70575935 187.5 0 0 0 42.777519
5.7400517 2.2417557 -0.69361925 219 0 0 0 43.753376
7.3300457 2.2440703 -0.68138003 227 0 0 0 44.927929
8.3647566 2.3347242 -0.56059879 164 0 0 0 45.313461
9.8513603 2.3574173 -0.66002417 158.5 0 0 0 45.900887
10.034465 2.0124815 -0.66743559 151 0 0 0 46.48756
14.457119 2.1603465 -0.60962296 87 0 0 0 47.263401
27.125216 2.0233784 -0.5000037 15 0 0 0 48.437698
-20.827265 2.521647 -0.73302609 19 0 0 0 1.56806
-19.691801 2.8730857 -0.69239277 17 0 0 0 1.94963
-8.8536453 2.6413715 -0.74818146 28 0 0 0 4.2976799
-8.3690615 2.9455953 -0.71671784 53 0 0 0 5.0686398
-6.278686 2.8159328 -0.71359479 77.75 0 0 0 6.4358878
-5.121017 2.5970454 -0.72774029 40 0 0 0 7.21984
-4.8423977 2.835438 -0.71094704 79.333336 0 0 0 8.1984501
-4.0892172 2.5926757 -0.721403 31.5 0 0 0 8.7815704
-3.7213066 2.8240204 -0.69607764 49.599998 0 0 0 10.146319
-3.2088947 2.6147568 -0.71357739 24.5 0 0 0 10.728704
-2.9700911 2.7350349 -0.69576275 36 0 0 0 11.70029
3.3458169 2.796802 -0.69346702 55.200001 0 0 0 38.673607
3.5532699 2.5462224 -0.69575071 42 0 0 0 39.851089
4.3049364 2.766938 -0.6969021 124.6 0 0 0 40.629524
5.4156466 2.8457603 -0.68735582 192.5 0 0 0 41.996689
5.5888233 2.592073 -0.69284856 205.5 0 0 0 42.778954
6.2996211 2.6365457 -0.60243607 541 0 0 0 43.36359
6.7296982 2.6216576 -0.63929945 104 0 0 0 43.751766
7.1073604 2.5673449 -0.67069322 227 0 0 0 44.144768
9.3868885 2.869699 -0.63793147 176 0 0 0 44.929039
14.21203 2.6628461 -0.60233569 65 0 0 0 46.68277
-11.423901 3.4163737 -0.68661898 52 0 0 0 4.2976799
-8.1251926 3.1963637 -0.70481712 60.5 0 0 0 5.659205
-7.9298673 3.4585814 -0.69810891 67 0 0 0 6.2365699
-6.0154099 3.1511006 -0.70390868 68 0 0 0 7.4168401
-5.8200121 3.3233948 -0.69459414 84.5 0 0 0 8.004015
-4.5930972 3.0771217 -0.7005353 89 0 0 0 9.1717701
-4.2556481 3.3205764 -0.68429524 71.5 0 0 0 10.34097
-3.9488933 3.4866211 -0.66755491 85 0 0 0 11.31171
-3.2044556 3.1849821 -0.67448521 99.333336 0 0 0 12.288006
-2.8209276 3.4075277 -0.66115785 86.5 0 0 0 13.850625
2.7348194 3.326272 -0.68163967 85.333336 0 0 0 35.734695
3.0871806 3.0754077 -0.69127119 79.5 0 0 0 37.304756
3.8199368 3.3521206 -0.68956065 47.333332 0 0 0 38.280964
4.0567074 3.1372583 -0.69693649 58.5 0 0 0 39.262566
4.875699 3.4821866 -0.67072326 135 0 0 0 39.851089
5.164897 3.224844 -0.68330365 122.75 0 0 0 40.824135
6.7180438 3.2091208 -0.6595096 183.66667 0 0 0 42.582165
9.1293907 3.1645923 -0.62711322 255 0 0 0 44.343018
-11.040335 3.5961635 -0.6674577 39 0 0 0 4.68295
-10.687853 3.7709806 -0.65047902 45 0 0 0 5.0686398
-10.291591 3.914644 -0.63079762 53 0 0 0 5.4681001
-7.6349797 3.6653872 -0.6828236 60 0 0 0 6.8283348
-7.3265281 3.8519373 -0.66664422 76 0 0 0 7.4168401
-5.6133938 3.5769668 -0.69019866 113.5 0 0 0 8.7815704
-5.2948627 3.8440447 -0.67875081 164 0 0 0 9.7568464
-3.7119265 3.7017159 -0.66563988 173.25 0 0 0 12.288968
-3.3912442 3.9141614 -0.65857625 232.5 0 0 0 13.45572
-2.6351113 3.5175164 -0.65785688 126.5 0 0 0 14.63733
-2.2814555 3.5525746 -0.63225734 73.75 0 0 0 15.805475
-1.8751425 3.5498867 -0.60117483 72.333336 0 0 0 17.171495
-0.77185673 3.9780457 -0.6159296 30 0 0 0 21.85532
1.3524265 3.9792964 -0.65605098 79 0 0 0 30.063124
1.7468519 3.840421 -0.66159761 51.400002 0 0 0 31.626673
2.2448134 3.651849 -0.67554986 75 0 0 0 33.581486
2.9983661 3.9301283 -0.66622281 130 0 0 0 35.143898
3.2691386 3.7741122 -0.67472506 114.25 0 0 0 36.128147
3.5814958 3.5598223 -0.6838544 84.5 0 0 0 37.304756
4.3431544 3.9991102 -0.65847588 128 0 0 0 37.889969
4.6801896 3.8001351 -0.67441714 162.75 0 0 0 38.869514
6.3067603 3.8193066 -0.65157825 215.33333 0 0 0 41.0187
6.5327797 3.5270925 -0.65688241 231 0 0 0 41.804798
8.2562408 3.8112378 -0.587093 524.5 0 0 0 42.778954
8.5054445 3.5516262 -0.59593797 441 0 0 0 43.36359
-9.7822828 4.1328316 -0.6070497 60.5 0 0 0 6.0434399
-9.1674137 4.4102798 -0.58007598 126 0 0 0 6.8283348
-7.1159759 4.07831 -0.66063684 116 0 0 0 8.004015
-6.7601023 4.3233166 -0.64604306 111.5 0 0 0 8.7815704
-5.0468926 4.0527906 -0.67168599 143 0 0 0 10.53064
-4.7245603 4.2885427 -0.66296244 152.5 0 0 0 11.508657
-3.1251457 4.0842185 -0.65533465 267 0 0 0 14.441643
-2.6905439 4.2145762 -0.63836634 185.5 0 0 0 15.805475
-2.3058956 4.4006953 -0.63637835 169.33333 0 0 0 17.171495
-0.63993323 4.1155024 -0.6354022 26.5 0 0 0 22.440639
-0.28630614 4.2085638 -0.64713287 53.200001 0 0 0 23.815184
0.23389509 4.2172089 -0.65183502 37.599998 0 0 0 25.768362
0.74809855 4.136982 -0.65232581 57.599998 0 0 0 27.723404
1.1079612 4.0727468 -0.65719426 96.5 0 0 0 29.0854
1.8853391 4.416604 -0.64071923 78 0 0 0 31.23279
2.2388155 4.32163 -0.65215367 112.8 0 0 0 32.408226
2.7349701 4.0872884 -0.66163743 156.5 0 0 0 34.168148
3.7906842 4.3645873 -0.64226675 299.25 0 0 0 36.128147
4.1806507 4.1469927 -0.65607417 135 0 0 0 37.304756
5.7644172 4.3237958 -0.63446611 177.66667 0 0 0 39.45874
6.0500689 4.0866566 -0.64398378 139 0 0 0 40.240433
8.0904331 4.2336569 -0.58904946 358.5 0 0 0 41.996689
13.206608 4.2080345 -0.57451868 56.5 0 0 0 44.735153
-14.498832 4.7322955 -0.51937175 16 0 0 0 4.68295
-8.7148657 4.5912471 -0.56061208 166 0 0 0 7.4168401
-8.225193 4.720561 -0.53860795 210 0 0 0 8.004015
-7.6128597 4.7465582 -0.50764257 332 0 0 0 8.5873203
-6.5062914 4.5035706 -0.6369735 98 0 0 0 9.3677197
-6.2751074 4.6908045 -0.63091516 156 0 0 0 9.9514103
-5.8037252 4.7918453 -0.60524893 439 0 0 0 10.73053
-5.2861996 4.8124113 -0.57363629 369 0 0 0 11.506001
-4.8036633 4.9372077 -0.55255216 323.66666 0 0 0 12.485192
-4.2899909 4.6805258 -0.62097281 269 0 0 0 12.971072
-3.7716632 4.823503 -0.63852322 299.25 0 0 0 14.243978
-3.1853192 4.8763013 -0.60748786 462.66666 0 0 0 15.612027
-2.7105672 4.8940954 -0.58390546 407.33334 0 0 0 16.777945
-2.412817 4.9069691 -0.57106626 353 0 0 0 17.566481
-1.1386168 4.9731622 -0.53706229 71 0 0 0 21.27541
-0.80586374 4.7489343 -0.58996421 65.428574 0 0 0 22.191164
-0.25564981 4.7539601 -0.62149006 114.25 0 0 0 24.011648
0.21341552 4.761837 -0.62540656 80 0 0 0 25.574217
0.73930991 4.7028017 -0.62814534 83 0 0 0 27.330593
1.2253305 4.7743659 -0.60008961 174.42857 0 0 0 28.83733
1.6867324 4.561491 -0.6481052 156.66667 0 0 0 30.455963
2.769815 4.8747997 -0.61765742 149.5 0 0 0 32.99472
3.2899656 4.648253 -0.63015169 233.25 0 0 0 34.557419
4.8735671 4.9409766 -0.6069448 468 0 0 0 37.103741
5.2789645 4.7255301 -0.62182015 172 0 0 0 38.087166
7.8006511 4.7153296 -0.58703613 293 0 0 0 41.0187
12.806206 4.6096272 -0.56295383 86 0 0 0 44.144768
-4.1296597 5.0367165 -0.52212477 670 0 0 0 13.850625
-3.7460942 5.0493541 -0.50379395 498.5 0 0 0 14.63733
-0.65014732 5.1064773 -0.54533988 163.5 0 0 0 22.834234
-0.26996946 5.090857 -0.54218352 206 0 0 0 24.011648
0.23347464 5.0898108 -0.54493988 122 0 0 0 25.574219
0.73470426 5.0522528 -0.54913348 72.75 0 0 0 27.135296
1.445686 5.0155439 -0.56613761 322 0 0 0 29.27751
1.7869642 5.0043979 -0.57905132 311.25 0 0 0 30.258835
2.2980411 5.0120749 -0.60458213 187.33333 0 0 0 31.627295
2.7977204 5.2099953 -0.50617349 247 0 0 0 32.600941
3.1688211 5.1131053 -0.51701373 335.33334 0 0 0 33.581608
3.6940887 5.0701098 -0.54238302 383 0 0 0 34.753944
4.2131224 5.0866156 -0.57422048 461.5 0 0 0 35.73558
4.6362357 5.0630198 -0.59928834 239 0 0 0 36.52071
6.2070584 5.148941 -0.51264346 461 0 0 0 38.676514
6.7216978 5.163106 -0.54135501 429 0 0 0 39.262566
7.3655596 5.0988188 -0.57513797 538.5 0 0 0 40.045761
11.077165 5.2730494 -0.50249016 154 0 0 0 42.577953
-12.739485 -9.449317 -0.2411973 237 0 0 0 89.51403
-12.735758 -8.9707479 -0.23644651 136 0 0 0 89.913261
-9.2211046 -8.3554354 -0.48492742 215 0 0 0 87.950409
-8.8877563 -8.4594736 -0.47757912 333 0 0 0 87.56424
-8.4849815 -8.4823074 -0.4661054 244 0 0 0 87.171501
2.8572111 -8.3620815 -0.34445533 513.5 0 0 0 69.363853
3.3001516 -8.3009033 -0.34937969 637.5 0 0 0 68.582436
3.8624163 -8.2111473 -0.35644367 599 0 0 0 67.607437
4.3031054 -8.3337593 -0.37030381 529.5 0 0 0 67.014465
17.036455 -7.556673 -0.3307732 125 0 0 0 56.255241
20.438293 -7.3132257 -0.39204359 52 0 0 0 55.085281
23.264458 -7.0539265 -0.44387552 91 0 0 0 54.296646
2.2566938 -6.6113462 -0.093912624 201.5 0 0 0 69.363853
2.7498012 -6.5690584 -0.18493548 344.75 0 0 0 68.288239
3.2623327 -6.5170879 -0.10126443 322.5 0 0 0 67.212418
16.270317 -6.7439284 -0.31081629 98 0 0 0 55.867271
-28.737741 -6.4498034 -0.49091178 85 0 0 0 96.146927
2.8475118 -6.4709702 -0.2692486 1955 0 0 0 67.994049
3.247993 -6.4926291 -0.10068557 120 0 0 0 67.211533
12.797112 -6.0608845 -0.24235366 285 0 0 0 56.644672
17.742744 -5.8624201 -0.3325949 210 0 0 0 54.697247
0.4772343 -5.004735 -0.42487711 268 0 0 0 73.078308
0.73509312 -5.0568271 -0.18235016 330.44446 0 0 0 72.302582
1.2387407 -5.2030935 -0.23154096 468.28571 0 0 0 70.874596
1.5937029 -5.2215586 -0.30606145 302.39999 0 0 0 69.872383
2.9459412 -5.2393203 -0.22456501 1013.6667 0 0 0 66.431061
3.2738578 -5.2035041 -0.23119086 1127.1111 0 0 0 65.645897
3.8058014 -5.1611328 -0.24354474 1308.2222 0 0 0 64.467926
4.2810369 -5.1161237 -0.25537416 1421.8334 0 0 0 63.488461
4.6899815 -5.0747347 -0.2663345 1439.3334 0 0 0 62.705975
5.1275821 -5.0272012 -0.27864954 1427.1666 0 0 0 61.922703
-4.5177474 -4.7439632 -0.31806087 1077 0 0 0 86.780495
-4.2872758 -4.6701312 -0.18936896 699.25 0 0 0 86.480133
-3.7738533 -4.5923266 -0.21233007 845.66669 0 0 0 85.597008
-3.1998501 -4.5361395 -0.26418746 883.91669 0 0 0 84.419228
-2.7151926 -4.5207114 -0.24896754 902 0 0 0 83.250519
-2.2182918 -4.529892 -0.23671132 792.3125 0 0 0 81.883751
-1.7046686 -4.5640483 -0.2276967 589.375 0 0 0 80.313866
-1.2285111 -4.6251302 -0.22336914 257.1875 0 0 0 78.750549
-0.7657637 -4.6917849 -0.22238025 243.625 0 0 0 77.189781
-0.24710734 -4.7905512 -0.22598974 270.04999 0 0 0 75.426796
0.27701759 -4.9231415 -0.22209029 269.26666 0 0 0 73.705231
5.477695 -4.9883428 -0.28904474 1167.6666 0 0 0 61.333408
5.824563 -4.9461389 -0.26157922 1323.2 0 0 0 60.793022
6.2493706 -4.8974428 -0.21569034 1268 0 0 0 60.162727
6.6961923 -4.8569517 -0.22648665 1090 0 0 0 59.574329
7.2172942 -4.8398285 -0.2399548 1044.5 0 0 0 58.996479
7.6155467 -4.8388548 -0.25082067 964 0 0 0 58.594528
8.1839418 -4.8275561 -0.30622062 922 0 0 0 58.076981
8.8224993 -4.8196855 -0.24427587 824 0 0 0 57.559399
9.53543 -4.8108087 -0.17367822 723 0 0 0 57.033154
11.745004 -4.5369406 -0.21196616 439 0 0 0 55.477367
15.939993 -4.4114389 -0.29047215 170 0 0 0 53.911129
16.489231 -4.1292944 -0.29964432 293 0 0 0 53.526981
21.549747 -3.7319851 -0.39617938 130 0 0 0 52.349281
26.394892 -3.9038663 -0.49135885 88 0 0 0 51.956039
-26.733875 1.25807 -0.29878798 98 0 0 0 0.38668999
-26.590809 1.90391 -0.2960937 148 0 0 0 0.77664
8.6449699 1.9584945 -0.24675861 1082 0 0 0 46.099129
8.4001846 2.2333682 -0.24083656 1316.5 0 0 0 45.508049
-28.090288 2.7037055 -0.31430563 58 0 0 0 1.17047
6.4449282 2.5109558 -0.35354847 1037.5 0 0 0 43.751766
6.6057014 2.6700096 -0.10245471 1242.5 0 0 0 43.557678
25.701427 3.1943266 -0.47368038 15 0 0 0 47.658958
8.4497538 3.7759566 -0.25722599 672.5 0 0 0 42.979954
8.5422859 3.5663586 -0.37099594 640 0 0 0 43.36359
25.448677 3.8006315 -0.47000059 29 0 0 0 47.263401
24.793715 4.328866 -0.45853186 22 0 0 0 46.877979
-13.71792 4.8494859 -0.4935762 36 0 0 0 5.0686398
-13.015882 4.9603705 -0.47081554 30 0 0 0 5.4681001
-8.2396946 4.8655281 -0.19689821 143 0 0 0 8.1974297
-7.8550763 4.8995132 -0.30072072 467 0 0 0 8.5873203
-7.2324505 4.8815856 -0.38722396 282.25 0 0 0 9.1717701
-6.7863059 4.9504471 -0.37167519 401 0 0 0 9.7607698
-6.2001786 4.9148383 -0.38133681 588 0 0 0 10.40111
-5.6815848 4.970552 -0.36235848 263.33334 0 0 0 11.184613
24.229496 4.8474793 -0.44908163 22 0 0 0 46.48756
-12.425994 5.084816 -0.45242122 34 0 0 0 5.8503098
-11.764919 5.1511469 -0.43113369 46 0 0 0 6.2365699
-11.30631 5.2815156 -0.4179284 54 0 0 0 6.6338301
-10.711866 5.3240552 -0.39913142 58 0 0 0 7.02284
-10.281131 5.4253049 -0.38697666 73 0 0 0 7.4168401
-8.0406837 5.014811 -0.079338625 596 0 0 0 8.5873203
-7.762733 5.3840675 -0.079589814 624 0 0 0 9.3677197
-7.2873011 5.4560843 -0.075838745 831 0 0 0 9.9514103
-6.7141972 5.2877312 -0.1705251 502 0 0 0 10.336345
-6.1376266 5.3301105 -0.064746141 606.5 0 0 0 11.121065
-5.8177662 5.1761298 -0.15511689 646.5 0 0 0 11.315355
-5.323103 5.1769547 -0.23485242 518.66669 0 0 0 12.027535
-4.7675438 5.180788 -0.24243709 791.5 0 0 0 12.922935
-4.1776867 5.0966592 -0.20780385 959 0 0 0 13.850625
-3.7351851 5.1941252 -0.23059401 684.09998 0 0 0 14.870026
-3.2505341 5.2070999 -0.23698792 520.90002 0 0 0 15.923967
-2.7603951 5.1812863 -0.26074788 516.23077 0 0 0 17.020241
-2.48352 5.0611911 -0.4522334 382 0 0 0 17.566481
-1.2212492 5.1825628 -0.20902638 288.10001 0 0 0 21.158457
-0.78001893 5.1391411 -0.23098768 229.875 0 0 0 22.441479
-0.27041185 5.1769757 -0.23316173 200.9375 0 0 0 24.011644
0.24015336 5.1571016 -0.23470311 176.5 0 0 0 25.574219
0.75408828 5.2372298 -0.25654849 182.39999 0 0 0 27.096394
1.2624691 5.2021217 -0.22467396 298.8125 0 0 0 28.600483
1.776104 5.2244244 -0.27597427 315.38461 0 0 0 30.002695
2.2801089 5.3011498 -0.2754862 264 0 0 0 31.235329
2.7622287 5.326756 -0.2456985 374.29999 0 0 0 32.369312
3.2528925 5.2431555 -0.22633179 337 0 0 0 33.581612
3.832273 5.368299 -0.27696747 509.60001 0 0 0 34.597515
4.2239213 5.3589897 -0.25569549 406 0 0 0 35.342804
4.7541499 5.316905 -0.27100432 615.55554 0 0 0 36.323624
5.2451253 5.3121939 -0.28659442 604.33331 0 0 0 37.103741
5.706429 5.3057294 -0.32804841 449.14285 0 0 0 37.780518
6.2653246 5.4624844 -0.22216277 416 0 0 0 38.276409
6.6953845 5.4114332 -0.23210067 482.5 0 0 0 38.871437
7.2018452 5.3913374 -0.24417549 548.5 0 0 0 39.458767
7.5590482 5.3714151 -0.25424576 623 0 0 0 39.851089
8.2612839 5.4156027 -0.39543939 304 0 0 0 40.434986
8.5934095 5.4860468 -0.15940003 254 0 0 0 40.629539
9.0347271 5.4568815 -0.29603118 347.5 0 0 0 41.016258
9.6790247 5.415875 -0.36019015 203.33333 0 0 0 41.541798
10.381935 5.2613025 -0.4745051 161 0 0 0 42.18858
-9.9224949 5.5485229 -0.37782606 277 0 0 0 7.8105998
3.8506205 5.5652361 -0.086810589 591 0 0 0 34.36623
8.1889925 5.5181384 -0.15276827 503 0 0 0 40.240433
10.348161 5.5702696 -0.19084899 326 0 0 0 41.804798
10.984807 5.5668631 -0.20216283 498 0 0 0 42.18858
11.696801 5.5682921 -0.21497788 122 0 0 0 42.577953
15.533536 5.5895634 -0.28582788 150 0 0 0 44.144768
17.12813 5.689415 -0.31632033 84 0 0 0 44.541271
18.722733 5.7100067 -0.34659994 133 0 0 0 44.929039
-12.440919 6.9672604 -0.13788754 64 0 0 0 7.8105998
-10.279394 6.7827387 -0.11490016 81 0 0 0 8.9758196
-19.369963 7.3956347 -0.21633181 48 0 0 0 5.4681001
-17.952572 7.3598695 -0.20005001 52 0 0 0 5.8503098
-16.820999 7.3791661 -0.18747467 72 0 0 0 6.2365699
-15.720609 7.3574157 -0.17523672 60 0 0 0 6.6338301
-14.688249 7.3145847 -0.16380234 46 0 0 0 7.02284
-13.536399 7.1557741 -0.15056208 48 0 0 0 7.4168401
-21.217432 7.5147867 -0.23811558 17 0 0 0 5.0686398
-38.622036 -33.323334 0.3915399 4 0 0 0 88.336891
-36.130535 -22.885025 0.33122689 7 0 0 0 90.6875
-37.124008 -21.035568 0.32907403 18 0 0 0 91.466797
-29.211702 -20.578857 0.28365964 13 0 0 0 89.913261
-29.990288 -20.044371 0.28552979 16 0 0 0 90.296806
-36.779469 -19.663807 0.32165053 27 0 0 0 91.849319
-30.869858 -14.604468 0.26839244 63 0 0 0 92.634071
-31.448057 -13.943807 0.26927936 53 0 0 0 93.025528
-8.3311329 -10.673359 0.46808904 190 0 0 0 85.199348
-7.0503092 -10.547708 0.44053173 365 0 0 0 84.027199
-6.362186 -9.0305662 0.38829359 332 0 0 0 84.419586
-6.6041136 -8.9022141 0.38959065 372 0 0 0 84.810928
-4.2877841 -6.9523172 0.49577963 178 0 0 0 83.446182
-3.8199129 -6.9321718 0.48127294 1081.5 0 0 0 82.666229
-3.28146 -6.9241767 0.4667587 1830 0 0 0 81.687256
-2.7490125 -6.8578391 0.45089275 215.5 0 0 0 80.702499
-2.2661667 -6.8344841 0.43995079 821.66669 0 0 0 79.72773
-1.7176844 -6.8212495 0.43005374 316.33334 0 0 0 78.55648
-1.1885772 -6.7935424 0.42173362 1070.6666 0 0 0 77.382996
-0.67799801 -6.7734628 0.41607478 697.33331 0 0 0 76.212738
-0.17767327 -6.7496185 0.41228935 1104 0 0 0 75.035301
0.31740829 -6.7331767 0.41093567 1747.6666 0 0 0 73.861969
0.81181318 -6.6984391 0.41056418 802.66669 0 0 0 72.690605
1.2270606 -6.6726599 0.41190141 730.5 0 0 0 71.718086
1.9971641 -6.6393294 0.24845068 255.66667 0 0 0 69.949516
2.2582979 -6.6141887 0.24985908 229.66667 0 0 0 69.363853
2.7133181 -6.5930367 0.25355184 359.33334 0 0 0 68.386314
3.2917929 -6.5753822 0.25954092 332.22223 0 0 0 67.21212
3.8031912 -6.5600462 0.45240456 129.5 0 0 0 66.231812
4.2442646 -6.5554514 0.46432322 1429.5 0 0 0 65.45256
4.6928344 -6.5216722 0.47613448 126 0 0 0 64.661751
5.18753 -6.5081143 0.49137545 380 0 0 0 63.883286
-28.805098 -6.4696865 0.2291719 98 0 0 0 96.146927
12.819708 -6.0704765 0.28168514 344 0 0 0 56.644672
13.718653 -6.0868769 0.29609558 103 0 0 0 56.255241
-29.02931 -5.7751684 0.22863841 45 0 0 0 96.532188
14.428902 -5.9795814 0.110593 27 0 0 0 55.867271
30.223154 -5.9954295 0.18056956 48 0 0 0 52.738579
-4.2268515 -5.1494966 0.24846117 358 0 0 0 85.60247
0.86270887 -5.0536437 0.13101332 504.33334 0 0 0 71.912712
1.2815298 -5.1793208 0.26630878 495.91666 0 0 0 70.733833
2.9384999 -5.2233639 0.14377528 913 0 0 0 66.431061
3.265301 -5.1874843 0.14590128 1184.1666 0 0 0 65.645897
3.7931159 -5.141645 0.14983036 1290.8334 0 0 0 64.467934
4.2693176 -5.099957 0.15391445 1390.5 0 0 0 63.488461
4.7439346 -5.0543628 0.17601524 1457.4 0 0 0 62.589294
5.1291637 -5.0257072 0.072719976 1460.5 0 0 0 61.922707
24.453199 -5.480299 0.15380804 15 0 0 0 53.125313
-5.0599751 -4.8185911 0.25886431 174 0 0 0 87.56424
-4.6391554 -4.6399655 0.32536831 454.5 0 0 0 87.171501
-4.3239059 -4.7701516 0.24218856 799.77777 0 0 0 86.383232
-3.6900187 -4.6094952 0.077230722 963 0 0 0 85.400909
-3.2232132 -4.5724816 0.074993439 888.33331 0 0 0 84.419243
-2.7433426 -4.5698376 0.13962014 841.5 0 0 0 83.250519
-2.2326524 -4.5617604 0.13434726 917 0 0 0 81.883759
-1.7106961 -4.5832982 0.13025545 717 0 0 0 80.313858
-1.2320704 -4.6434956 0.12804225 307.125 0 0 0 78.750549
-0.76962227 -4.7241192 0.12714334 294.125 0 0 0 77.189774
-0.24697599 -4.8056822 0.12701599 348.10001 0 0 0 75.426781
0.28889528 -4.9017577 0.12807997 341.75 0 0 0 73.666054
0.5996269 -4.9784584 0.12947136 316 0 0 0 72.691536
5.3892341 -4.9864058 0.19496973 1421 0 0 0 61.463223
5.8467512 -4.9383917 0.17005154 1260.5 0 0 0 60.754192
6.2896667 -4.927464 0.27545482 1101.6666 0 0 0 60.162731
6.6695886 -4.8612037 0.24027947 1004.2 0 0 0 59.613365
7.2314405 -4.8475623 0.18778153 1045 0 0 0 58.996479
7.6359253 -4.8500185 0.19332911 987.5 0 0 0 58.594528
8.0455999 -4.8359184 0.19921935 979.5 0 0 0 58.204567
8.7446022 -4.8220744 0.20946285 869 0 0 0 57.625
9.5287552 -4.8066053 0.22109756 767.5 0 0 0 57.033154
11.716693 -4.6370411 0.30674368 340 0 0 0 55.607334
13.113495 -4.6958542 0.27499321 381.5 0 0 0 55.085281
14.218653 -4.6978788 0.10710821 293 0 0 0 54.697247
15.065269 -4.569159 0.11058161 144 0 0 0 54.296646
40.223759 -4.9338508 0.22591844 14 0 0 0 51.569592
15.848181 -4.3834605 0.11376089 326 0 0 0 53.911129
16.4638 -4.1202698 0.11615102 280 0 0 0 53.526981
21.482349 -3.7170482 0.13852942 144 0 0 0 52.349281
26.34692 -3.8928223 0.16103706 125 0 0 0 51.956039
36.405025 -3.560308 0.20764355 26 0 0 0 51.174488
41.616264 -3.03934 0.23186876 12 0 0 0 50.781487
-26.757385 1.2529691 0.3526178 120 0 0 0 0.38668999
-26.605419 1.8988436 0.35266593 132 0 0 0 0.77664
8.4778624 1.9225771 0.078843124 443 0 0 0 46.099129
6.6026516 2.3861024 0.24536383 1261.3334 0 0 0 44.144764
8.3683052 2.2261846 0.1874226 1224.25 0 0 0 45.508049
-28.091089 2.6973791 0.37245351 90 0 0 0 1.17047
6.4351735 2.5992951 0.33084193 1518.5 0 0 0 43.557678
6.5462875 2.7405865 0.19088422 859.33331 0 0 0 43.365101
8.4072285 3.7576859 0.198332 646.5 0 0 0 42.979954
38.636234 4.8040562 0.22182536 26 0 0 0 47.658958
92.674583 4.6311455 0.47407836 9 0 0 0 48.827728
-7.6613798 5.3122053 0.26227376 645.5 0 0 0 9.3677197
-7.3493156 5.364347 0.25674379 668.5 0 0 0 9.7607698
-3.0564098 5.2311392 0.10207923 512 0 0 0 16.38582
-2.8142395 5.2471671 0.10018347 813 0 0 0 16.974005
-1.3057648 5.2823868 0.12355269 480.5 0 0 0 20.98303
-0.79130501 5.2180285 0.085713178 265 0 0 0 22.441483
-0.26481792 5.2231913 0.16988157 337.77777 0 0 0 24.033272
0.20595551 5.2472701 0.10764454 265 0 0 0 25.4566
0.83605021 5.3717842 0.12599377 258.33334 0 0 0 27.265039
1.239972 5.3929734 0.26648477 417.81818 0 0 0 28.397535
1.7744548 5.3030424 0.24185953 453.27274 0 0 0 29.920286
2.1708882 5.3482747 0.17243874 360.33334 0 0 0 30.910025
2.8053389 5.3813944 0.11486211 395 0 0 0 32.407314
3.2160962 5.3311415 0.0768314 594.5 0 0 0 33.3885
3.7685151 5.4438658 0.078119516 503 0 0 0 34.359764
4.2602 5.4057164 0.078507543 725.5 0 0 0 35.342804
4.7594075 5.4597349 0.079700999 736 0 0 0 36.127136
5.2728629 5.4731941 0.080819875 992.5 0 0 0 36.910172
5.7608218 5.4578595 0.14786111 739.66669 0 0 0 37.633835
28.648502 5.0044179 0.17595194 34 0 0 0 46.877979
51.394562 5.1097069 0.28150082 24 0 0 0 48.052361
-7.1983466 5.6231885 0.29611221 560.66669 0 0 0 10.27158
-6.4714441 5.7648187 0.13804835 293 0 0 0 11.31171
-5.7839003 5.963131 0.13256167 689 0 0 0 12.48801
-5.3281221 5.9064441 0.12773281 748.5 0 0 0 13.067909
-4.820765 5.8952532 0.1228082 794 0 0 0 13.850625
-4.2614875 5.9074302 0.11772675 778.66669 0 0 0 14.831243
-3.7132049 5.8700399 0.11256835 986.5 0 0 0 15.808505
-2.871207 5.8767519 0.10558046 435 0 0 0 17.566481
0.34538352 5.7198334 0.22753362 315 0 0 0 25.770247
0.69488239 5.6719518 0.22555308 303 0 0 0 26.746063
2.6044407 5.5367208 0.18079744 337.33334 0 0 0 31.758768
3.2624388 5.7154341 0.24430904 364 0 0 0 32.993271
3.786164 5.6895223 0.208231 630.25 0 0 0 34.071781
4.2957711 5.7334023 0.26009345 656.5 0 0 0 34.9478
4.7721043 5.6063595 0.26506138 760.33331 0 0 0 35.931995
5.3155642 5.513958 0.27299577 1086 0 0 0 36.910172
6.3189111 5.647707 0.19067459 811.5 0 0 0 38.083191
6.8543034 5.7769089 0.23712675 571.33331 0 0 0 38.543148
7.1351275 5.6215782 0.2006855 570.5 0 0 0 39.06636
7.7590899 5.6576672 0.088524617 455 0 0 0 39.65493
8.3375978 5.7183108 0.26036084 628 0 0 0 40.110653
8.8982458 5.6808033 0.092351064 414 0 0 0 40.629539
9.4349098 5.6992946 0.094286755 282 0 0 0 41.016258
9.7315388 5.5550265 0.094747156 181 0 0 0 41.410301
10.573772 5.691031 0.24873906 470 0 0 0 41.804798
11.256149 5.7036829 0.25871438 407 0 0 0 42.18858
12.39284 5.8981438 0.27891296 276 0 0 0 42.577953
17.650682 5.864893 0.12817995 121 0 0 0 44.541271
18.805746 5.7378178 0.13290955 88 0 0 0 44.929039
-7.5217662 6.0774102 0.1507007 594 0 0 0 10.53064
-7.1698918 6.0875034 0.26435262 707.5 0 0 0 10.93042
-6.2761836 6.0154219 0.13776579 826.5 0 0 0 11.89625
-5.7520447 6.3863196 0.34794176 769 0 0 0 13.067909
-5.1700439 6.3318214 0.33159688 705.5 0 0 0 13.850625
-4.6477065 6.2938347 0.31781384 695.5 0 0 0 14.63733
-4.2122269 6.3262205 0.30864251 828 0 0 0 15.41567
-3.7996352 6.35707 0.30052987 890 0 0 0 16.19528
-3.273833 6.3174815 0.28872073 738.66669 0 0 0 17.171495
-1.2328074 6.2739968 0.32032761 460.60001 0 0 0 21.70072
-0.77062732 6.2269092 0.32878163 400.16666 0 0 0 22.8339
-0.23252462 6.2682238 0.40134558 360.5 0 0 0 24.208
0.22895861 6.2167096 0.39654908 419.66666 0 0 0 25.380112
0.76803279 6.2101016 0.39666176 486 0 0 0 26.744709
1.7060125 6.1297965 0.39902529 435.5 0 0 0 29.0854
2.7691538 6.1970501 0.41947234 587 0 0 0 31.430004
3.2566795 6.2182598 0.43112397 634.33331 0 0 0 32.407917
3.8109558 6.1231666 0.44040033 546.66669 0 0 0 33.581608
4.3676496 6.1337314 0.45679474 479 0 0 0 34.558968
4.7710619 6.199266 0.47227648 661 0 0 0 35.143898
5.2379861 6.3021145 0.49217486 636.5 0 0 0 35.73558
8.0439777 6.0158195 0.34262908 391 0 0 0 39.458767
9.4780922 6.0455189 0.3773427 238 0 0 0 40.629539
10.253091 6.1873584 0.39895517 284 0 0 0 41.016258
10.65356 6.0750899 0.407132 246 0 0 0 41.410301
30.157125 6.0350337 0.18447888 53 0 0 0 46.48756
43.324814 6.4709892 0.24558872 21 0 0 0 47.263401
-7.4615078 6.6617022 0.40155581 458 0 0 0 11.31171
-6.583271 6.8027291 0.3805441 626 0 0 0 12.48801
-3.3411741 6.872077 0.49266684 737 0 0 0 17.566481
-1.7201918 6.5276833 0.43475619 474.66666 0 0 0 20.690039
-1.3789107 6.5146174 0.42804301 473 0 0 0 21.47477
-7.5866337 7.1173439 0.41580063 579 0 0 0 11.70029
-8.0630722 7.9512844 0.44913173 386 0 0 0 12.09221
-24.878523 8.1320648 0.3537623 39 0 0 0 4.68295
-24.77644 8.7756557 0.35523829 96 0 0 0 5.0686398
-24.510099 9.3625793 0.35468692 75 0 0 0 5.4681001
-25.246885 10.36067 0.36743766 11 0 0 0 5.8503098
-23.550762 10.342964 0.34823745 35 0 0 0 6.2365699
-24.097197 11.296043 0.35882604 16 0 0 0 6.6338301
-23.499235 11.725284 0.35424176 19 0 0 0 7.02284
-24.267529 12.86245 0.36840591 76 0 0 0 7.4168401
-23.613867 13.26601 0.36328512 120 0 0 0 7.8105998
-22.361002 13.290735 0.34975034 28 0 0 0 8.1974297
-22.115458 13.889018 0.3503294 48 0 0 0 8.5873203
-64.780769 -32.61282 0.53134304 6 0 0 0 92.237648
-7.8675146 -11.770802 0.83368647 104 0 0 0 84.027199
-8.241046 -10.557984 0.79092795 121 0 0 0 85.199348
-7.428668 -10.544847 0.76280648 73 0 0 0 84.419586
-8.586585 -10.461328 0.79893553 53 0 0 0 85.60247
-6.6389742 -8.9509373 0.80290246 372.5 0 0 0 84.810928
-4.2885513 -6.9566545 0.79805166 134 0 0 0 83.446182
-3.822778 -6.9400854 0.77443683 233.25 0 0 0 82.666229
-3.2701166 -6.9027429 0.74757761 278.83334 0 0 0 81.687256
-2.734143 -6.8747435 0.77901274 297 0 0 0 80.663315
-2.2688284 -6.8490143 0.79580379 296.55554 0 0 0 79.72773
-1.719967 -6.8378854 0.77775854 602 0 0 0 78.55648
-1.1907412 -6.815321 0.76315546 521 0 0 0 77.383003
-0.67738336 -6.7843266 0.75187033 648.22223 0 0 0 76.212738
-0.1763857 -6.7712493 0.74675983 1195.5555 0 0 0 75.035294
0.32107121 -6.7665248 0.74621189 1889.7778 0 0 0 73.861969
0.81628162 -6.7171612 0.74479306 912 0 0 0 72.690598
1.2335891 -6.6972623 0.74846536 796.66669 0 0 0 71.718086
1.8357005 -6.6861024 0.84506005 291.5 0 0 0 70.336273
2.1848247 -6.6583953 0.76811177 391 0 0 0 69.559074
2.7266417 -6.6211038 0.78338599 283.11111 0 0 0 68.386307
3.2397938 -6.6037369 0.7427482 440.33334 0 0 0 67.343788
3.7566991 -6.58636 0.75147778 414.20001 0 0 0 66.348923
4.2541022 -6.5677977 0.75508785 1214 0 0 0 65.45256
4.7128382 -6.5467424 0.77678001 178 0 0 0 64.661751
5.0781889 -6.5332484 0.7953853 143 0 0 0 64.080284
5.5993724 -6.5177493 0.5057056 1025 0 0 0 63.290638
-28.777054 -6.4575977 0.96525776 17 0 0 0 96.146927
5.3124142 -6.4983492 0.80602872 409.5 0 0 0 63.686287
5.7483263 -6.4912934 0.76650465 159.60001 0 0 0 63.056805
6.290451 -6.4676304 0.75150371 616.5 0 0 0 62.316803
6.7368236 -6.4353313 0.66057277 125 0 0 0 61.722847
7.2379456 -6.4179244 0.68405652 263.75 0 0 0 61.140881
7.7759328 -6.3998513 0.71028972 404 0 0 0 60.560032
8.9865074 -6.3442764 0.77188975 73.5 0 0 0 59.379128
9.4274797 -6.3134751 0.79455352 73.5 0 0 0 58.996479
9.8860521 -6.2734704 0.81911886 99 0 0 0 58.594528
10.372573 -6.2304039 0.69392312 162 0 0 0 58.204567
11.091161 -6.2952127 0.72919905 36 0 0 0 57.821808
11.532577 -6.1754236 0.74685824 50 0 0 0 57.428192
12.211943 -6.1569557 0.77891546 183 0 0 0 57.033154
12.883517 -6.1022749 0.81016189 64 0 0 0 56.644672
13.753038 -6.1038575 0.85287458 266 0 0 0 56.255241
-29.07744 -5.7789335 0.96907634 45 0 0 0 96.532188
16.626211 -5.9524937 0.99396837 54 0 0 0 55.085281
17.745777 -5.8641438 0.59163648 285 0 0 0 54.697247
19.078804 -5.7875862 0.62849182 7 0 0 0 54.296646
20.881523 -5.7768683 0.67962486 8 0 0 0 53.911129
24.803511 -5.5638661 0.7906906 6 0 0 0 53.125313
1.2134302 -5.1721411 0.65587926 669.75 0 0 0 70.932625
-5.0348973 -4.5678434 0.91953021 444 0 0 0 87.950409
-4.6872292 -4.6609888 0.75370002 754.625 0 0 0 87.221024
-4.2223382 -4.7744083 0.70548773 833.66669 0 0 0 86.186218
-3.7108529 -4.6370869 0.88060206 1168.25 0 0 0 85.400909
-3.2156887 -4.5632777 0.82954645 990.5 0 0 0 84.419235
-2.7277069 -4.5463767 0.72421497 1031.6666 0 0 0 83.250519
-2.3448596 -4.514441 0.69594872 1100.5 0 0 0 82.274239
1.9406573 -4.515739 0.83106869 446.66666 0 0 0 68.125336
2.2893629 -4.5468373 0.83264935 526.875 0 0 0 67.162704
2.651736 -4.5812936 0.84832954 669.16669 0 0 0 66.231812
