# .PCD v0.7 - Point Cloud Data file format
VERSION 0.7
FIELDS x y z intensity normal_x normal_y normal_z curvature
SIZE 4 4 4 4 4 4 4 4
TYPE F F F F F F F F
COUNT 1 1 1 1 1 1 1 1
WIDTH 905
HEIGHT 1
VIEWPOINT 0 0 0 1 0 0 0
POINTS 905
DATA ascii
-2.1293664 3.4225774 -0.52723289 67 0 0 0 15.99778
1.9761556 3.3970461 -0.71632028 28 0 0 0 33.17215
2.2553792 3.250463 -0.72248536 23.6 0 0 0 34.425213
2.7193639 3.2170267 -0.71445858 103 0 0 0 35.912487
3.158885 3.2115893 -0.71327639 51.400002 0 0 0 37.086716
3.9034734 3.4130657 -0.69968051 104 0 0 0 38.263939
4.1159043 3.170573 -0.70127547 69 0 0 0 39.241425
5.2573843 3.2710009 -0.68694347 201 0 0 0 40.80307
6.4966826 3.4952404 -0.64101112 213 0 0 0 41.780159
6.7324128 3.2025433 -0.64788294 209.66667 0 0 0 42.563274
7.3336945 3.4872296 -0.50670969 582 0 0 0 42.569126
7.8226509 3.4841332 -0.5359689 412 0 0 0 42.953079
9.451973 3.1317663 -0.62757641 126 0 0 0 44.518993
-10.769562 3.686161 -0.71906579 58.5 0 0 0 4.8738804
-10.220424 3.9216182 -0.69052565 72 0 0 0 5.4542198
-7.641264 3.696342 -0.73480105 104 0 0 0 6.8234949
-7.4653282 3.9533961 -0.7315852 91 0 0 0 7.4112101
-5.2796869 3.7579973 -0.71059525 200 0 0 0 9.5532284
-3.7448757 3.5746737 -0.68683553 197 0 0 0 11.891287
-3.2612796 3.5981269 -0.64209259 208.5 0 0 0 13.06495
-2.1046057 3.7416646 -0.64166188 158.75 0 0 0 16.670406
-1.8559893 3.8895307 -0.67080438 101.5 0 0 0 17.750904
1.7750933 3.7683215 -0.70518184 30 0 0 0 31.807247
2.2311013 3.818573 -0.69888365 28.4 0 0 0 33.17429
2.6830351 3.5994334 -0.71027589 41.25 0 0 0 34.932076
3.3293984 3.923975 -0.69436425 86.666664 0 0 0 35.911102
3.6944568 3.6581535 -0.70200098 138.25 0 0 0 37.283463
4.7213774 3.8205504 -0.67377156 141.75 0 0 0 38.851501
5.0134835 3.5674136 -0.68250269 163 0 0 0 39.823639
6.2603049 3.7784595 -0.63559216 324.66666 0 0 0 40.998604
7.164794 3.7393684 -0.50450164 643 0 0 0 41.973892
13.620251 3.7724581 -0.55711156 57 0 0 0 45.300152
-9.7965918 4.1732769 -0.67124593 91 0 0 0 6.0411749
-9.4021063 4.4178767 -0.65439785 102 0 0 0 6.6333399
-7.1638713 4.2500672 -0.7216723 94 0 0 0 8.1889429
-4.798768 4.1717672 -0.69775075 256.25 0 0 0 11.11281
-4.4857917 4.4063935 -0.69007742 319 0 0 0 12.08662
-2.2970886 4.4103999 -0.66190809 165 0 0 0 17.161161
-1.6458703 4.0756288 -0.68591094 86 0 0 0 18.724783
-1.2365716 4.2068353 -0.68560994 83.199997 0 0 0 20.2871
-0.7607345 4.2844634 -0.68113852 53 0 0 0 22.039782
-0.28163031 4.3234191 -0.67945606 76.800003 0 0 0 23.79793
0.25269926 4.3281012 -0.6812402 41.200001 0 0 0 25.753311
0.78479087 4.271636 -0.6836127 73.800003 0 0 0 27.705511
1.2601866 4.1768279 -0.68752372 96.5 0 0 0 29.46229
1.7046999 4.0478272 -0.69320315 62.25 0 0 0 31.125622
2.3146276 4.4437103 -0.67451519 122.66666 0 0 0 32.393009
2.767395 4.2277694 -0.68121976 135.2 0 0 0 33.955429
3.0695477 4.0069909 -0.6802187 104 0 0 0 35.130753
3.945833 4.4161587 -0.65625644 190 0 0 0 36.29974
4.2767653 4.2255425 -0.66690826 143.25 0 0 0 37.283459
5.9238439 4.3156242 -0.63766581 184.5 0 0 0 39.630936
6.0635862 4.0822134 -0.63558847 287 0 0 0 40.216461
13.328585 4.4091873 -0.55404526 73 0 0 0 44.518993
13.503025 4.1006784 -0.55667037 42 0 0 0 44.9119
-14.075504 4.6392746 -0.588332 25 0 0 0 4.6770701
-13.473743 4.8072734 -0.56705767 39 0 0 0 5.0706902
-12.830529 4.9324365 -0.54382598 31 0 0 0 5.4542198
-9.1462126 4.5720787 -0.64387941 80 0 0 0 7.0136499
-8.7127724 4.7576103 -0.62450325 200.5 0 0 0 7.6044302
-8.0940161 4.8107543 -0.5906617 306 0 0 0 8.1877804
-7.7920499 4.8906574 -0.57649779 112 0 0 0 8.5813999
-7.2910004 4.9517899 -0.55108166 443 0 0 0 9.1648254
-6.7496815 4.5806446 -0.70663738 117.5 0 0 0 9.1648254
-6.3860664 4.8021889 -0.69196814 244.5 0 0 0 9.9416304
-5.8516169 4.8596597 -0.65728462 363 0 0 0 10.72565
-5.2355633 4.9111495 -0.61871213 395 0 0 0 11.695519
-4.2140584 4.5608873 -0.68164748 346.66666 0 0 0 12.869496
-2.6375699 4.9347172 -0.61243427 365 0 0 0 16.96335
-2.2261734 4.8490076 -0.61329472 294.25 0 0 0 17.944782
-1.7496666 4.6831551 -0.66727149 148.39999 0 0 0 19.115841
-1.2155013 4.8095584 -0.66269141 110.5 0 0 0 20.870768
-0.7343924 4.8805885 -0.65999192 120.75 0 0 0 22.429604
-0.25168061 4.9231339 -0.66010261 124.5 0 0 0 23.99448
0.23238048 4.8973622 -0.65716743 61 0 0 0 25.556772
0.71533442 4.8575687 -0.65889704 94.75 0 0 0 27.120117
1.2523392 4.7593789 -0.66133088 145.2 0 0 0 28.87818
1.7889098 4.6302233 -0.66767311 139.25 0 0 0 30.63476
2.0904562 4.5507712 -0.67386127 121 0 0 0 31.606211
2.8450079 4.9849839 -0.63482475 156 0 0 0 32.976154
3.2747571 4.8575907 -0.64902925 131.5 0 0 0 34.151249
3.7327807 4.6191273 -0.65836024 144 0 0 0 35.521439
5.2898464 4.8388124 -0.62367415 186.33333 0 0 0 37.870106
5.685112 4.588347 -0.63580906 208.5 0 0 0 38.851913
7.887949 4.8856049 -0.58504111 294.5 0 0 0 40.802788
8.1077166 4.6158366 -0.58802563 278 0 0 0 41.390232
13.149089 4.7123127 -0.55149525 130 0 0 0 44.126221
-12.247661 5.0532265 -0.52321923 54 0 0 0 5.8437901
-11.708797 5.1671915 -0.50452226 61 0 0 0 6.2385602
-6.6931973 5.0362511 -0.52229899 255 0 0 0 9.9416304
-4.7889466 5.0742583 -0.60077024 494.5 0 0 0 12.674615
-4.4391341 5.0590773 -0.57834572 366 0 0 0 13.25926
-2.9818709 5.1321225 -0.50670111 446 0 0 0 16.37746
-2.0183449 5.0366497 -0.59352601 148 0 0 0 18.72287
-1.7541672 5.0817323 -0.58818108 208.33333 0 0 0 19.508017
-1.2855865 5.0977345 -0.57502478 197.75 0 0 0 20.870768
-0.77137148 5.1412387 -0.56885087 131.75 0 0 0 22.429604
-0.25961065 5.1284046 -0.56215316 219.25 0 0 0 23.99448
0.24758661 5.1496682 -0.5652349 188.25 0 0 0 25.556774
0.75670058 5.1220593 -0.56835514 140.75 0 0 0 27.120117
1.2609799 5.0323834 -0.56998187 181.75 0 0 0 28.683184
1.7329086 5.020803 -0.5845657 292 0 0 0 30.048098
2.2436087 5.0306187 -0.60781783 264.5 0 0 0 31.416853
2.706526 5.1731739 -0.53682727 270.5 0 0 0 32.39241
3.2640684 5.2444515 -0.53303754 368.33334 0 0 0 33.566895
3.7131922 5.078692 -0.54354662 315.66666 0 0 0 34.735741
4.2218781 5.0804472 -0.57228726 477 0 0 0 35.716782
4.7821083 5.0749364 -0.60595101 371.33334 0 0 0 36.695736
6.1611319 5.2241216 -0.50602144 354.5 0 0 0 38.462666
6.7298245 5.1534214 -0.53233004 363 0 0 0 39.240334
7.2868791 5.1633844 -0.56236118 312 0 0 0 39.823639
7.6417651 5.1350145 -0.58057362 460 0 0 0 40.216461
-14.116996 -9.4386253 -0.26084936 216 0 0 0 90.283669
-14.087881 -8.9271793 -0.25546885 176 0 0 0 90.686722
0.71248615 -8.4663363 -0.31472886 767.5 0 0 0 73.257477
1.2329603 -8.434514 -0.31547415 669.33331 0 0 0 72.280937
1.7359486 -8.289854 -0.31281644 795.5 0 0 0 71.303307
2.2775311 -8.3047323 -0.31830749 574 0 0 0 70.323616
13.705666 -7.7900925 -0.22592662 210 0 0 0 57.799198
15.21412 -7.6832447 -0.24764889 236 0 0 0 57.014393
16.029232 -7.6059833 -0.25953013 163 0 0 0 56.626659
19.178541 -7.4220071 -0.30753791 111 0 0 0 55.458141
21.692312 -7.1899862 -0.34657943 128 0 0 0 54.683361
23.465042 -7.1420808 -0.37508008 59 0 0 0 54.285271
-24.801401 -6.8705754 -0.41058314 77 0 0 0 95.362228
0.4747524 -6.6334381 -0.076110184 1110 0 0 0 73.454163
0.80192035 -6.6248894 -0.076213002 961.66669 0 0 0 72.671722
1.2946153 -6.5938888 -0.076620951 451 0 0 0 71.496246
1.6634293 -6.5445828 -0.20033899 1892 0 0 0 70.623032
26.509258 -6.6643939 -0.42319515 111 0 0 0 53.499969
11.446981 -6.1434793 -0.33910024 343.5 0 0 0 57.409927
14.467587 -6.0146141 -0.22548795 60 0 0 0 55.841381
28.531311 -6.4314699 -0.45594141 63 0 0 0 53.114498
-30.034279 -5.9815021 -0.49380264 91 0 0 0 96.526894
16.414951 -5.8947697 -0.255685 87 0 0 0 55.06266
-0.66010177 -5.0633392 -0.18816817 352.89999 0 0 0 76.669426
-0.18838064 -5.1996303 -0.19928291 412.92307 0 0 0 75.171379
0.19952928 -5.2127824 -0.2646718 260 0 0 0 73.973396
1.8075819 -5.2212176 -0.23998167 667.71429 0 0 0 69.259346
2.276212 -5.1829777 -0.26623693 744.83331 0 0 0 67.975914
2.723237 -5.1373854 -0.27420458 932.33331 0 0 0 66.802124
3.204809 -5.0989504 -0.21101078 1088.5555 0 0 0 65.63195
3.7214372 -5.0519719 -0.2212131 1234.4445 0 0 0 64.454315
4.1348467 -5.0094862 -0.23018301 1209 0 0 0 63.569206
31.059353 -5.4137163 -0.49569002 49 0 0 0 52.325447
-6.4431052 -4.7827697 -0.30008677 1087.3334 0 0 0 89.50132
-5.6417794 -4.6339679 -0.27016798 679.66669 0 0 0 88.716347
-5.1548791 -4.5597816 -0.25220343 1032 0 0 0 88.124519
-4.6364937 -4.525465 -0.23495364 1053.1666 0 0 0 87.351349
-4.2251077 -4.5491285 -0.22265483 941.33331 0 0 0 86.571159
-3.7417696 -4.557395 -0.21000299 959.11108 0 0 0 85.580605
-3.2226882 -4.5941548 -0.24804206 867 0 0 0 84.366943
-2.7400086 -4.6677933 -0.26062766 943.46667 0 0 0 83.080498
-2.2474422 -4.7409143 -0.22862794 866.42859 0 0 0 81.674843
-1.7773501 -4.7991385 -0.25279701 666.59998 0 0 0 80.260635
-1.2965981 -4.9043179 -0.21688828 346 0 0 0 78.724213
-0.93546003 -4.9745116 -0.11216783 349.75 0 0 0 77.567673
4.3989153 -4.9822664 -0.23634548 1301 0 0 0 63.045319
4.7870536 -4.9363313 -0.24580891 1215 0 0 0 62.299671
5.2331691 -4.8899331 -0.25752404 1341.5 0 0 0 61.518463
5.7826266 -4.8919802 -0.1818561 1236.75 0 0 0 60.73727
6.2301264 -4.8891659 -0.19185606 1168 0 0 0 60.14682
6.7266264 -4.8861275 -0.20338857 1122.5 0 0 0 59.557766
7.2716947 -4.8840361 -0.21645634 1115.5 0 0 0 58.971802
7.6775718 -4.8864326 -0.22639728 901.5 0 0 0 58.587761
8.0843353 -4.8696651 -0.23630869 951.5 0 0 0 58.1856
10.396061 -4.6296873 -0.29318821 589 0 0 0 56.232929
15.156951 -4.2124853 -0.22801264 367 0 0 0 53.891361
20.187685 -4.0340695 -0.31077066 140 0 0 0 52.7197
25.113234 -3.7448552 -0.39304692 95 0 0 0 51.939999
30.159418 -3.7415497 -0.47846526 56 0 0 0 51.549767
-28.026075 1.4052705 -0.45342544 94 0 0 0 0.38545001
8.198349 1.8473108 -0.21352893 1262.5 0 0 0 46.076408
-27.872105 2.0818334 -0.45275047 137 0 0 0 0.77427
6.2362032 2.4216084 -0.16377722 1259 0 0 0 43.73703
8.2036448 2.1365697 -0.18043248 1146.6666 0 0 0 45.560516
-29.429993 2.9238062 -0.48264989 68 0 0 0 1.16645
6.3237686 2.6365736 -0.25090814 691.66669 0 0 0 43.340302
6.5173907 2.5288992 -0.4308562 899 0 0 0 43.73703
27.032164 2.6520019 -0.43178666 15 0 0 0 48.03756
-2.6461263 3.2288451 -0.2221673 141.90909 0 0 0 13.898353
-2.3391466 3.3456926 -0.17008594 153.88889 0 0 0 15.127345
7.3190813 3.4814477 -0.20704632 762 0 0 0 42.569126
7.6009145 3.3862944 -0.31517187 462 0 0 0 42.953079
26.102018 3.2105923 -0.41778752 15 0 0 0 47.636608
-2.256593 3.6380816 -0.27763942 91.5 0 0 0 15.99282
7.1859207 3.7518346 -0.20742321 565.5 0 0 0 41.973892
25.55002 3.7826319 -0.41051373 18 0 0 0 47.247059
25.089437 4.3474612 -0.40502083 29 0 0 0 46.86491
-9.3044605 4.9391055 -0.28084549 376 0 0 0 7.4112101
-8.8644896 4.9851427 -0.39413112 257 0 0 0 7.7976499
-8.2681293 4.9158177 -0.3709445 243 0 0 0 8.1877804
-7.4734521 4.947331 -0.3435216 562 0 0 0 8.9688196
24.769743 4.9223576 -0.40220976 26 0 0 0 46.470058
-11.195375 5.269022 -0.486891 172 0 0 0 6.6333399
-10.063433 5.0355539 -0.43956754 166 0 0 0 7.0136499
-8.6933126 5.4615836 -0.15019597 739 0 0 0 8.5813999
-8.148797 5.2603378 -0.25438526 438.5 0 0 0 8.7751102
-7.315207 5.1918187 -0.1980136 462 0 0 0 9.4902964
-6.7656708 5.2236276 -0.22249833 413.5 0 0 0 10.13801
-6.1343651 5.1858692 -0.30333287 602 0 0 0 10.85342
-5.7329054 5.1294551 -0.38282275 628.5 0 0 0 11.30137
-5.2664986 5.1592741 -0.25448871 603.5 0 0 0 12.039095
-4.8244915 5.2834921 -0.26734576 662.5 0 0 0 12.934838
-4.470964 5.0963612 -0.41680691 406 0 0 0 13.25926
-3.1262126 5.2350631 -0.1502122 714 0 0 0 16.18762
-2.7068241 5.1779704 -0.28897983 565 0 0 0 17.100874
-2.2087283 5.1514697 -0.27095976 470.83334 0 0 0 18.333395
-1.7275478 5.1780448 -0.25059798 393.20001 0 0 0 19.66329
-1.2485099 5.1465726 -0.2697188 177.23077 0 0 0 21.006084
-0.77744603 5.2078094 -0.25327924 182.1875 0 0 0 22.429604
-0.26271969 5.2504592 -0.25135443 245.75 0 0 0 23.99448
0.25141132 5.1727533 -0.24903964 277.5625 0 0 0 25.556772
0.76957065 5.2649064 -0.26065883 204.8 0 0 0 27.080967
1.2456009 5.3129458 -0.25829971 219.92308 0 0 0 28.428478
1.7517544 5.2736053 -0.26979724 350.5 0 0 0 29.852823
2.2204466 5.2599177 -0.30074459 315.55554 0 0 0 31.090878
2.7497199 5.3165631 -0.23376878 284.29999 0 0 0 32.314331
3.3249655 5.3421268 -0.23237753 478.22223 0 0 0 33.566895
3.7468026 5.2608037 -0.23970711 547.5 0 0 0 34.538235
4.2754536 5.3067031 -0.27583924 472.25 0 0 0 35.472557
4.769249 5.3863497 -0.22675864 543 0 0 0 36.202927
5.2458143 5.4021449 -0.32060546 502.39999 0 0 0 36.933228
5.6819148 5.3234882 -0.29438832 553.66669 0 0 0 37.673191
6.280344 5.3251252 -0.21247646 562.75 0 0 0 38.462666
6.9031329 5.4247284 -0.22876841 537 0 0 0 39.042431
7.2470536 5.4096417 -0.23656413 268 0 0 0 39.438232
7.6756434 5.4380875 -0.24683565 363.5 0 0 0 39.823639
8.3410921 5.4040432 -0.30275694 274.66666 0 0 0 40.478672
9.2192087 5.4458642 -0.32998702 342.33334 0 0 0 41.127277
12.356606 5.4926562 -0.20254269 250 0 0 0 42.953079
-9.9177895 5.7434258 -0.17154358 139.5 0 0 0 7.9927149
2.5622044 5.545815 -0.14972246 500 0 0 0 31.606211
5.1937213 5.5118256 -0.10083625 692 0 0 0 36.696239
8.1987877 5.5091376 -0.14034465 366 0 0 0 40.216461
9.7195568 5.5300016 -0.16264027 432 0 0 0 41.390232
15.448663 5.5364871 -0.25195414 134 0 0 0 44.126221
16.767279 5.545794 -0.27331841 108 0 0 0 44.518993
18.441395 5.5983567 -0.30092198 90 0 0 0 44.9119
-22.868885 6.9369249 -0.39083216 16 0 0 0 4.28687
-14.847752 6.9991851 -0.26014829 33 0 0 0 6.6333399
-13.765185 6.9018569 -0.2422213 46 0 0 0 7.0136499
-21.274504 7.0238066 -0.36488262 29 0 0 0 4.6770701
-19.654663 7.0240941 -0.33811706 32 0 0 0 5.0706902
-18.442871 7.1020775 -0.31886417 34 0 0 0 5.4542198
-17.182398 7.1013064 -0.29839125 49 0 0 0 5.8437901
-16.199526 7.1614246 -0.28309274 51 0 0 0 6.2385602
-36.648907 -24.504118 0.34183317 19 0 0 0 90.283669
-38.664433 -21.919889 0.34510666 6 0 0 0 91.452484
-38.473209 -20.581064 0.33979437 12 0 0 0 91.84391
-31.415052 -19.908035 0.29420188 21 0 0 0 90.686722
-38.205189 -19.24748 0.33424118 12 0 0 0 92.228882
-62.400192 -17.291683 0.4942207 14 0 0 0 95.362228
-62.344448 -15.639615 0.49197993 12 0 0 0 95.746284
-9.6041651 -10.599175 0.49215546 119 0 0 0 86.372017
-7.7252088 -8.9578218 0.41325861 280 0 0 0 85.972351
-30.251163 -6.8065815 0.25663543 75 0 0 0 96.142815
-5.661509 -6.9003148 0.32065031 777 0 0 0 85.5783
-5.190845 -6.8806787 0.23984045 687.33331 0 0 0 84.926857
-4.7212315 -6.8789721 0.30231249 1641.5 0 0 0 84.206528
-4.2265244 -6.8544788 0.39165553 913.75 0 0 0 83.433472
-3.7625093 -6.8296051 0.3805584 558.75 0 0 0 82.649223
-3.215766 -6.7878265 0.36838007 442.66666 0 0 0 81.675743
-2.7248659 -6.799561 0.36020839 706 0 0 0 80.689499
-2.245904 -6.774672 0.3522464 492.83334 0 0 0 79.713165
-1.7002653 -6.7531199 0.42994532 307 0 0 0 78.54261
-1.1785949 -6.7333584 0.42313552 515.66669 0 0 0 77.373329
-0.67280883 -6.7143383 0.41864109 471.33334 0 0 0 76.198631
-0.34215897 -6.7174664 0.41766846 1560 0 0 0 75.40741
0.41218695 -6.672133 0.28489783 2207.8 0 0 0 73.610336
0.80451179 -6.6443558 0.25255513 907.33331 0 0 0 72.671722
1.3015335 -6.6254606 0.27583912 717.625 0 0 0 71.497818
1.8064388 -6.5937028 0.25827953 523.33331 0 0 0 70.323616
10.978188 -6.2415504 0.29314789 56 0 0 0 57.799198
11.462532 -6.1487236 0.30075917 549.5 0 0 0 57.409927
12.231752 -6.17836 0.31488988 29.5 0 0 0 57.014393
28.84115 -6.4952364 0.26169255 19 0 0 0 53.114498
-30.036879 -5.9879351 0.25452921 87 0 0 0 96.526894
-5.5809264 -5.0628047 0.27612033 704 0 0 0 87.929321
-0.6528607 -5.0444546 0.15779446 466 0 0 0 76.655922
-0.15895967 -5.1618438 0.22395574 492.75 0 0 0 75.086029
0.14115945 -5.2194748 0.23010254 274 0 0 0 74.154518
1.2915839 -5.2272711 0.34309405 17 0 0 0 70.722839
1.7706002 -5.1994467 0.21442318 748.83331 0 0 0 69.342972
2.2648349 -5.1547294 0.21919672 752 0 0 0 67.975922
2.7127502 -5.1153417 0.22466673 913.88892 0 0 0 66.802132
3.1924887 -5.0772748 0.23171276 1124.7778 0 0 0 65.631958
3.6857021 -5.0338221 0.22029686 1264.5 0 0 0 64.502594
4.0829997 -5.0075827 0.16786297 1216.5 0 0 0 63.666607
31.197935 -5.4314489 0.276346 37 0 0 0 52.325447
-6.449657 -4.7895603 0.29084983 793 0 0 0 89.50132
-5.7806501 -4.7190943 0.29634312 796.875 0 0 0 88.763023
-5.2539711 -4.649869 0.084699713 746.5 0 0 0 88.124519
-4.7131605 -4.6029301 0.081756704 1145 0 0 0 87.351349
-4.2447214 -4.5727549 0.079386115 1076 0 0 0 86.571159
-3.7208049 -4.5338788 0.076884389 534.66669 0 0 0 85.580605
-3.1407199 -4.5783987 0.074870378 985 0 0 0 84.206528
-2.7168384 -4.65767 0.07395111 1091.5 0 0 0 83.041351
-2.2514832 -4.7535381 0.073274501 978.33331 0 0 0 81.675743
-1.8020258 -4.8340073 0.07287278 834.25 0 0 0 80.299667
-1.2818033 -4.9406114 0.12721466 396.14285 0 0 0 78.653641
-0.90366459 -4.9764161 0.10448132 354.5 0 0 0 77.470871
3.8749995 -4.9995289 0.3989546 1367 0 0 0 64.068008
4.3258901 -4.9735522 0.27434507 1235.7142 0 0 0 63.167171
4.7846045 -4.931848 0.26092091 1221.5 0 0 0 62.299667
5.2380996 -4.8924446 0.27065518 1182.8334 0 0 0 61.518459
5.7883139 -4.8949833 0.19084926 1219 0 0 0 60.73727
6.2433996 -4.8975258 0.19796251 1188 0 0 0 60.14682
6.7373161 -4.891726 0.20585154 1199.25 0 0 0 59.55777
7.2675338 -4.8791065 0.21437134 1138 0 0 0 58.971802
7.665801 -4.8767619 0.22093493 953 0 0 0 58.587761
8.0870075 -4.8689966 0.22830732 1024.5 0 0 0 58.1856
10.355976 -4.7634754 0.26731354 339 0 0 0 56.429794
11.768387 -4.8932281 0.29195446 392.5 0 0 0 55.841381
12.253509 -4.7457919 0.46654803 348 0 0 0 55.458141
12.7948 -4.7734103 0.31299055 336 0 0 0 55.260399
13.419566 -4.8181667 0.14639899 242 0 0 0 55.06266
14.118126 -4.6800141 0.15088548 416 0 0 0 54.683361
49.813766 -4.9289403 0.41095686 20 0 0 0 51.161819
14.620528 -4.45048 0.15375857 343 0 0 0 54.285271
15.115143 -4.19768 0.15656626 405 0 0 0 53.891361
20.116234 -4.0156565 0.19228102 169 0 0 0 52.7197
25.093109 -3.7367418 0.22782864 80 0 0 0 51.939999
29.982021 -3.7134817 0.26340815 84 0 0 0 51.549767
44.998936 -3.3390081 0.37258351 37 0 0 0 50.763329
-58.232677 1.4858071 0.44101217 6 0 0 0 0
-28.053833 1.40315 0.22962573 89 0 0 0 0.38545001
8.1570148 1.840013 0.20016833 1336.5 0 0 0 46.076408
-27.879978 2.0789218 0.22744979 153 0 0 0 0.77427
6.239821 2.3532472 0.28144458 1505.8 0 0 0 43.892708
8.0752649 2.1034234 0.23461033 1375.3334 0 0 0 45.560516
-29.433224 2.9204168 0.23724551 60 0 0 0 1.16645
6.2092814 2.6369963 0.29234415 1078 0 0 0 43.243496
-2.673934 3.3446927 0.28312004 317.875 0 0 0 14.090722
-2.4242098 3.4068694 0.19212388 232.42857 0 0 0 14.993055
7.2449164 3.4482849 0.289823 992 0 0 0 42.569126
-2.3978682 3.5862153 0.27093092 142.39999 0 0 0 15.443616
7.0976143 3.5961514 0.28784749 1077.3334 0 0 0 42.167622
27.34906 4.7437758 0.2342732 91 0 0 0 46.86491
37.270252 4.5887156 0.3064971 41 0 0 0 47.636608
50.083736 4.9182868 0.40000051 17 0 0 0 48.03756
-8.7830849 5.3682661 0.22562572 545 0 0 0 8.3845901
-3.1315057 5.2406301 0.071179286 859.5 0 0 0 16.18762
-2.7399426 5.2913437 0.070352532 1045.6666 0 0 0 17.16116
-2.3182163 5.230988 0.069034137 760 0 0 0 18.13866
-1.6986458 5.2189918 0.1262513 491.71429 0 0 0 19.785385
-1.2785547 5.2482438 0.12165697 437.60001 0 0 0 20.988987
-0.78766507 5.2695823 0.067392811 136.5 0 0 0 22.429604
-0.21634409 5.3688035 0.17110643 453.66666 0 0 0 24.146408
0.27188119 5.3085022 0.22928962 331.46155 0 0 0 25.602205
0.73497051 5.2936058 0.18371363 260.875 0 0 0 26.972485
1.2266798 5.4320359 0.11618293 219 0 0 0 28.293261
1.7617301 5.3017044 0.070319936 465 0 0 0 29.852825
2.2558093 5.4081774 0.072351225 475.5 0 0 0 31.026461
2.8228691 5.3955197 0.074220859 338 0 0 0 32.393013
3.2786932 5.4174838 0.075933009 399 0 0 0 33.371407
3.8334084 5.4665685 0.14562815 822.79999 0 0 0 34.422161
4.2912803 5.432126 0.16733646 904.5 0 0 0 35.325912
4.631094 5.4341331 0.17181717 746.5 0 0 0 35.912487
5.1768565 5.4962354 0.084635779 1060 0 0 0 36.696239
-8.5094471 5.9423938 0.098502651 587 0 0 0 9.3608303
-8.4525032 5.7018399 0.26598489 473.33334 0 0 0 9.0994902
-7.0255055 5.9960108 0.09069518 617 0 0 0 10.91655
-6.666389 5.9741621 0.088803567 424 0 0 0 11.30137
-6.1835904 5.9579291 0.086383194 505 0 0 0 11.892595
-5.6287742 5.9764709 0.083911896 673 0 0 0 12.674615
-5.1784878 5.915174 0.081715927 745 0 0 0 13.25926
-2.2247591 5.573997 0.070714459 528 0 0 0 18.72287
-1.1033212 5.9497027 0.22184938 296 0 0 0 21.84049
-0.79424912 5.8666997 0.21805608 320.33334 0 0 0 22.625977
-0.49309233 5.7395911 0.21325397 252 0 0 0 23.409981
0.066698864 5.5053835 0.34012872 352 0 0 0 24.970329
1.272302 5.6302676 0.21506384 361 0 0 0 28.293289
1.7467009 5.7098632 0.22168028 359.5 0 0 0 29.462589
2.2401972 5.7559948 0.22861291 404.5 0 0 0 30.634762
2.753278 5.6734247 0.1950483 394.5 0 0 0 31.902826
3.2531447 5.6831694 0.24106354 510 0 0 0 32.976154
3.5941639 5.6141882 0.24496301 665.5 0 0 0 33.764267
5.0751443 5.6609354 0.18108886 691.5 0 0 0 36.29974
5.6951857 5.6935124 0.20983024 775.79999 0 0 0 37.166706
6.3982677 5.7516274 0.16489302 644.66669 0 0 0 38.000622
6.7457242 5.5793495 0.093345031 351 0 0 0 38.661392
7.0993042 5.6767297 0.24878991 720.66669 0 0 0 38.915417
7.6452465 5.7080131 0.098963194 553 0 0 0 39.438232
8.151947 5.6264315 0.10176248 435 0 0 0 40.02005
8.8255482 5.6195331 0.10588305 322 0 0 0 40.609779
9.3475971 5.6303434 0.24561435 516.5 0 0 0 40.9958
9.9310322 5.6512432 0.25596333 521.5 0 0 0 41.390232
10.623182 5.7013836 0.268641 316 0 0 0 41.780159
12.616825 5.6108274 0.13057093 281 0 0 0 42.953079
16.104959 5.7744975 0.15462074 131 0 0 0 44.126221
17.417883 5.764154 0.16373609 101 0 0 0 44.518993
18.545044 5.6337905 0.17151698 96 0 0 0 44.9119
20.163439 5.5861692 0.18290958 116 0 0 0 45.300152
29.67312 5.9007664 0.25111058 32 0 0 0 46.470058
-8.5136471 6.2635174 0.36103359 390 0 0 0 9.7492304
-8.2989264 6.1012177 0.09776634 211 0 0 0 9.7492304
-7.9131832 6.1184654 0.095724657 628 0 0 0 10.13403
-7.4644523 6.0653391 0.093190268 589 0 0 0 10.53475
-6.8625231 6.4654989 0.32481423 629 0 0 0 11.69857
-6.1798444 6.4147358 0.30850571 391 0 0 0 12.47859
-5.75982 6.4299755 0.29995036 662 0 0 0 13.06495
-3.7825212 6.3612871 0.2619909 713 0 0 0 16.18762
-3.2390614 6.2852821 0.25199863 517 0 0 0 17.161161
-2.7486775 6.2403402 0.24441028 686 0 0 0 18.13866
-2.3727593 6.1855531 0.23863217 564 0 0 0 18.92103
-1.6825762 6.4260764 0.40146074 571.66669 0 0 0 20.67688
-1.1993978 6.2800112 0.3505553 406.75 0 0 0 21.74531
-0.69122833 6.304914 0.38585028 456.33334 0 0 0 23.01734
-0.37565729 6.2427435 0.3811366 265 0 0 0 23.796129
0.69669139 6.1875706 0.38071072 299 0 0 0 26.53948
1.3319017 6.2182498 0.38885537 619.33331 0 0 0 28.097977
1.826418 6.2278366 0.39669874 432.66666 0 0 0 29.268106
2.3268347 6.192894 0.40428221 636.66669 0 0 0 30.440332
2.7427654 6.1211901 0.40988055 492.5 0 0 0 31.412125
3.2310045 6.1519413 0.42386615 458 0 0 0 32.393017
3.788928 6.2420931 0.44386166 563.5 0 0 0 33.371407
4.2620778 6.2947369 0.46088237 650 0 0 0 34.150635
4.7991629 6.3803716 0.4825173 464.5 0 0 0 34.931911
5.1321297 6.3212433 0.49159822 507 0 0 0 35.521072
6.9069424 6.0018215 0.32480508 672 0 0 0 38.263939
8.1926203 6.1116672 0.35931048 488 0 0 0 39.438232
8.6495495 6.1247849 0.37150577 426 0 0 0 39.823639
9.1052618 6.1146083 0.38347813 341 0 0 0 40.216461
9.5883427 6.1000772 0.39633274 396 0 0 0 40.609779
41.907059 6.2073197 0.33975887 33 0 0 0 47.247059
-7.4997125 6.7334805 0.34506848 555 0 0 0 11.30137
-6.5870914 6.5151348 0.3196198 678 0 0 0 12.08662
-4.2074146 6.8982844 0.47916785 715 0 0 0 15.99778
-3.7856846 6.7437577 0.46019137 662 0 0 0 16.571865
-3.2282953 6.6674027 0.4425247 831 0 0 0 17.554079
-2.7192669 6.6162033 0.428738 616.5 0 0 0 18.52758
-2.2389228 6.5553055 0.41667581 573.66669 0 0 0 19.508017
-9.166584 7.2845011 0.39602119 264.5 0 0 0 10.334391
-9.3448191 8.0033054 0.41406462 330 0 0 0 10.91655
-25.874521 8.5450726 0.21121931 119 0 0 0 4.6770701
-26.436064 9.4545803 0.21553436 25 0 0 0 5.0706902
-26.512903 10.220613 0.21669202 72 0 0 0 5.4542198
-26.298143 10.884068 0.2160006 51 0 0 0 5.8437901
-26.190071 11.597962 0.21618576 50 0 0 0 6.2385602
-25.734632 12.157595 0.2141047 93 0 0 0 6.6333399
-25.511297 12.824888 0.21375415 80 0 0 0 7.0136499
-25.140121 13.418653 0.2125162 40 0 0 0 7.4112101
-23.611568 13.352839 0.20316894 59 0 0 0 7.7976499
-9.8983746 -10.399807 0.84499484 16 0 0 0 86.770302
-7.8205652 -9.0683918 0.71074563 204 0 0 0 85.972351
-8.0261269 -8.8582373 0.70948857 282 0 0 0 86.372017
-5.6911416 -6.9381003 0.76270598 145.33333 0 0 0 85.5783
-5.2622275 -6.9168968 0.74017113 156 0 0 0 84.992943
-4.7327051 -6.8975673 0.71349126 707.5 0 0 0 84.206528
-4.2340107 -6.869822 0.78926027 261.75 0 0 0 83.433472
-3.7677507 -6.8419499 0.76540679 310.25 0 0 0 82.649223
-3.2350664 -6.831501 0.74215001 624.16669 0 0 0 81.675735
-2.7347696 -6.8271961 0.72332406 618 0 0 0 80.689499
-2.2512658 -6.7950959 0.70532894 471.33334 0 0 0 79.713165
-1.7043228 -6.7753167 0.77494341 392.55554 0 0 0 78.542603
-1.1826457 -6.7655411 0.76303846 463 0 0 0 77.373344
-0.6734069 -6.7348652 0.75295693 872.88892 0 0 0 76.198631
-0.34122968 -6.7213216 0.66670907 1122.5 0 0 0 75.40741
0.36330029 -6.6959453 0.77081031 1944 0 0 0 73.732613
0.80842203 -6.6680293 0.74911022 852.44446 0 0 0 72.671722
1.3057249 -6.6402621 0.75514597 664.55554 0 0 0 71.498337
1.905571 -6.6298556 0.76948142 398 0 0 0 70.125961
2.2552462 -6.6079745 0.77900285 367.5 0 0 0 69.343407
2.7118921 -6.5914588 0.79507339 992.44446 0 0 0 68.365753
3.2570035 -6.5671144 0.76547807 498.42856 0 0 0 67.251083
3.7941413 -6.5478735 0.74995363 291.25 0 0 0 66.215767
4.1803956 -6.5188403 0.73498088 255.66667 0 0 0 65.502739
4.6840882 -6.5133724 0.69595307 899.5 0 0 0 64.647461
4.2946906 -6.4634562 0.86263812 151 0 0 0 65.237389
4.6576991 -6.4768486 0.88611186 189.5 0 0 0 64.647461
5.1560197 -6.4731593 0.81738842 529.25 0 0 0 63.867306
5.6408157 -6.4615293 0.88136083 241.66667 0 0 0 63.148285
6.0992227 -6.4354486 0.87369978 209.5 0 0 0 62.496441
7.2636943 -6.3955574 0.75202918 105.66666 0 0 0 61.063679
7.741766 -6.3800817 0.73708451 105.5 0 0 0 60.540501
8.1211529 -6.3636808 0.75700146 80.5 0 0 0 60.14682
8.7226114 -6.3271809 0.78886056 248.5 0 0 0 59.557766
9.4053478 -6.3083072 0.82732081 431 0 0 0 58.971802
9.8740463 -6.2771916 0.70731217 45 0 0 0 58.587761
10.421855 -6.2705803 0.73372269 59 0 0 0 58.1856
10.955112 -6.2293715 0.75879592 28 0 0 0 57.799198
11.505611 -6.1726842 0.78470665 123 0 0 0 57.409927
12.248707 -6.1878333 0.82271373 291 0 0 0 57.014393
14.651952 -6.0900884 0.94489312 22 0 0 0 55.841381
15.472658 -5.9890776 0.98608387 12 0 0 0 55.458141
17.87536 -5.9258032 0.65207374 20 0 0 0 54.683361
19.308765 -5.8777704 0.69587791 6 0 0 0 54.285271
22.782585 -5.7274742 0.80300468 94 0 0 0 53.499969
-0.11367817 -5.1938677 0.66239458 483.39999 0 0 0 74.941948
0.11658245 -5.25735 0.59268266 303 0 0 0 74.231995
4.9977074 -5.0236192 0.96631336 755 0 0 0 62.102901
5.0159035 -5.0437121 0.70818233 769.5 0 0 0 62.102901
-6.1289434 -4.5529203 0.74830616 656 0 0 0 89.50132
-5.8965659 -4.7265921 0.74181914 759.75 0 0 0 88.910797
-5.2616701 -4.6575747 0.86272478 1024.25 0 0 0 88.124512
-4.6977262 -4.5659809 0.75780118 907.59998 0 0 0 87.391029
-4.2028828 -4.5275269 0.68704069 1238.5 0 0 0 86.571159
-3.8907228 -4.514585 0.66399235 888 0 0 0 85.972351
-1.6156049 -4.504199 0.6578868 683 0 0 0 80.110703
-1.4348834 -4.5136347 0.65168643 465.5 0 0 0 79.514397
-0.69866532 -4.5246668 0.78236461 511.33334 0 0 0 77.048294
-0.23355493 -4.5479155 0.85374993 549.20001 0 0 0 75.412384
0.26979527 -4.5857387 0.8615945 483.75 0 0 0 73.647888
0.73081923 -4.6267319 0.87861294 446.66666 0 0 0 72.086334
1.2056926 -4.6324549 0.83921129 590.875 0 0 0 70.519707
4.4899445 -4.9834309 0.58828694 124 0 0 0 62.890873
5.1014662 -4.8833108 0.78986025 905.66669 0 0 0 61.713947
10.320829 -4.7977567 0.78303272 348.66666 0 0 0 56.495419
-4.1554971 -4.4783039 0.90519506 1188.25 0 0 0 86.571159
-3.7501111 -4.4610333 0.86491358 1103.5 0 0 0 85.77533
-3.298377 -4.4482841 0.82357341 1069.5 0 0 0 84.794853
-2.7343123 -4.4340639 0.84125453 993.66669 0 0 0 83.431442
-2.2385778 -4.4427681 0.80483699 1003 0 0 0 82.067345
-1.7857939 -4.4538598 0.80699259 856 0 0 0 80.692223
-1.2458711 -4.4765792 0.86943042 502.20001 0 0 0 78.931305
-0.76866484 -4.491591 0.9283883 506 0 0 0 77.307991
14.988433 -4.1646543 0.92591089 428 0 0 0 53.891361
15.072224 -4.1882524 0.54735309 550 0 0 0 53.891361
20.094755 -4.0145144 0.70435613 127 0 0 0 52.7197
25.06517 -3.7364132 0.86099529 79 0 0 0 51.939999
-28.095894 1.4115579 0.92938572 92 0 0 0 0.38545001
8.1488209 1.8386296 0.61424679 1232.5 0 0 0 46.076408
-27.927895 2.0887878 0.92413002 123 0 0 0 0.77427
6.2658958 2.3651421 0.71469468 982.79999 0 0 0 43.892708
8.0936775 2.0377979 0.71716785 1138 0 0 0 45.690701
-29.318985 2.9156852 0.9692229 19 0 0 0 1.16645
6.2173142 2.656888 0.64231414 1075.3334 0 0 0 43.211227
-2.745717 3.441395 0.74468392 475.07693 0 0 0 14.102082
1.9501896 3.422477 0.77582389 128.33333 0 0 0 33.041485
2.2687635 3.3362615 0.86051542 315.41666 0 0 0 34.281254
2.7223878 3.3133373 0.8776477 619.88892 0 0 0 35.694351
3.2158234 3.3272455 0.86848825 768.66669 0 0 0 36.957439
3.7191222 3.3371136 0.87429529 854.83331 0 0 0 38.067432
4.2534685 3.3617122 0.87718213 931.20001 0 0 0 39.045387
4.7206588 3.4221637 0.84514999 831.33331 0 0 0 39.695171
5.1373234 3.4081776 0.89117819 595 0 0 0 40.347569
7.1330733 3.3970177 0.77574289 1116.5 0 0 0 42.569126
-2.5586381 3.5971985 0.83457357 459.60001 0 0 0 14.982126
-2.4829133 3.5983486 0.64531416 210 0 0 0 15.21165
7.0240707 3.5607486 0.7732178 1054 0 0 0 42.167622
91.110001 4.4424543 0.70134574 7 0 0 0 48.811127
27.24477 4.7215734 0.92466158 113 0 0 0 46.86491
-8.7297602 5.4861622 0.60378158 615 0 0 0 8.5813999
-8.5400505 5.9671669 0.6093694 563 0 0 0 9.3608303
-8.454484 5.6041894 0.59428757 588 0 0 0 8.9688196
-7.7816792 5.8657832 0.81221223 382 0 0 0 9.9416304
17.756748 5.8730154 0.63394439 158 0 0 0 44.518993
19.415031 5.8941584 0.6852175 198 0 0 0 44.9119
-8.6680012 6.3787417 0.62826759 216 0 0 0 9.7492304
-7.9713902 6.1671219 0.59017038 403 0 0 0 10.13403
-7.2935352 6.227531 0.79974174 412 0 0 0 10.91806
1.9030303 6.4868903 0.57998073 353 0 0 0 29.26701
5.4616466 6.395195 0.50673342 662 0 0 0 35.912487
13.919466 6.1851063 0.52134836 176 0 0 0 42.953079
-8.2792511 6.7385197 0.62308711 251 0 0 0 10.53475
-7.7077336 6.5887246 0.59328735 534 0 0 0 10.91655
-7.1773138 6.5988374 0.69033271 373 0 0 0 11.499969
-6.9376836 6.8649402 0.81291324 287 0 0 0 12.08662
-2.5747051 6.9918604 0.62977201 627 0 0 0 19.11919
-2.2715061 6.9384651 0.61810648 644.5 0 0 0 19.702431
-1.7876776 6.8441448 0.60053271 534.66669 0 0 0 20.67688
-1.2452521 6.7585182 0.58508229 475.66666 0 0 0 21.842936
-0.72858071 6.6797929 0.5733996 516.33331 0 0 0 23.01734
-0.23327547 6.6775546 0.57092017 552 0 0 0 24.189314
0.094256781 6.6411443 0.56800783 942 0 0 0 24.970329
0.74735695 6.6046643 0.5693593 242.66667 0 0 0 26.534006
1.2654046 6.6924953 0.62634003 594.75 0 0 0 27.705328
1.6796627 6.8266916 0.7059806 654.59998 0 0 0 28.566992
2.2300801 6.7282495 0.67760181 525.59998 0 0 0 29.813894
2.7005243 6.6791444 0.67727941 567.33331 0 0 0 30.8314
3.2360799 6.7570958 0.73388928 571.33331 0 0 0 31.806269
3.7888441 6.6034899 0.65098143 590 0 0 0 32.976154
4.2566099 6.6333523 0.67297804 606.5 0 0 0 33.764267
4.8087177 6.7322292 0.70495027 548.5 0 0 0 34.538235
5.2555261 6.8084135 0.73163867 678 0 0 0 35.130753
5.7907562 6.7798309 0.68491393 467.66666 0 0 0 35.911098
6.2332826 6.7724514 0.6687386 609 0 0 0 36.49799
6.7255468 6.6113501 0.56456876 529 0 0 0 37.284321
7.2500567 6.7285595 0.75539273 553.33331 0 0 0 37.738449
7.745049 6.724205 0.61134654 585 0 0 0 38.263939
8.0945282 6.8547316 0.76408064 444.5 0 0 0 38.462666
8.668169 6.8037672 0.79306549 243.5 0 0 0 39.042431
9.0998898 6.78404 0.67346883 338 0 0 0 39.438232
9.6029167 6.7957191 0.69699138 386 0 0 0 39.823639
10.135917 6.8027458 0.72217 318 0 0 0 40.216461
10.767679 6.8462849 0.75354385 264 0 0 0 40.609779
11.253224 6.7704473 0.7748701 409 0 0 0 40.9958
12.236706 6.9550481 0.82818824 208 0 0 0 41.390232
-8.2079544 7.0191669 0.89664668 203 0 0 0 10.91655
-7.4497423 7.0261683 0.59859067 356 0 0 0 11.69857
-6.5322537 7.4883461 0.82712549 557 0 0 0 13.25926
-4.6998682 7.3054328 0.72731352 237 0 0 0 15.59826
-4.3067646 7.4727092 0.7226271 745 0 0 0 16.37746
-3.8542666 7.2837067 0.69210106 695.5 0 0 0 16.96335
-3.2200754 7.0938783 0.65653408 639.66669 0 0 0 17.9447
-2.6701324 7.2699299 0.74884307 611.5 0 0 0 19.115269
-2.2123699 7.3793764 0.83682489 539.5 0 0 0 20.09079
-1.7086507 7.284029 0.814421 634 0 0 0 21.066227
-1.2247128 7.1681099 0.79313183 460 0 0 0 22.038189
-0.76681584 7.0600891 0.77599591 621.33331 0 0 0 23.01734
-0.2425434 7.0716553 0.77399534 618.66669 0 0 0 24.189314
0.28007761 7.0807967 0.77583581 676.33331 0 0 0 25.362692
0.80514354 7.0699196 0.77967787 663.33331 0 0 0 26.534006
1.1503375 7.0123682 0.77906507 599 0 0 0 27.31012
2.441304 7.0011582 0.81334454 695 0 0 0 30.04484
2.8491817 7.0304608 0.831882 577 0 0 0 30.834881
3.8240235 7.0564394 0.87938499 544.5 0 0 0 32.585381
4.332696 7.1279173 0.91289037 581.5 0 0 0 33.371407
4.7774949 7.2386765 0.94795161 571 0 0 0 33.95787
5.0852742 7.303894 0.97197098 578 0 0 0 34.343399
6.7156935 7.1119089 0.82788789 496 0 0 0 36.696239
7.0232568 7.0780911 0.84346664 567 0 0 0 37.091221
8.5053463 7.0230722 0.93021834 347 0 0 0 38.661392
13.296329 7.1276379 0.88544214 177 0 0 0 41.780159
-26.321856 7.9910102 0.89800858 53 0 0 0 4.28687
-7.2324586 7.520853 0.86699098 165 0 0 0 12.47859
-6.5478525 7.5086432 0.582973 1352 0 0 0 13.25926
-4.6585913 7.6499834 0.74909669 738 0 0 0 15.99778
-3.5106783 7.7559295 0.91991842 765 0 0 0 17.94503
-3.2449107 7.6584802 0.8996926 660 0 0 0 18.332291
-2.8784125 7.5464644 0.87498271 603.5 0 0 0 18.92103
-3.8739414 8.0373392 0.96238172 586 0 0 0 17.55678
-26.134634 8.6376648 0.89754206 160 0 0 0 4.6770701
-8.69596 8.628746 0.70974034 18 0 0 0 12.08662
-25.226902 11.923633 0.90471995 12 0 0 0 6.6333399
-23.967987 13.561979 0.89086384 11 0 0 0 7.7976499
-37.139175 -23.52577 1.4386727 16 0 0 0 90.686722
-37.375523 -22.409985 1.4266802 8 0 0 0 91.070145
-37.143997 -21.050022 1.3987421 18 0 0 0 91.452484
-29.932156 -20.006977 1.1844847 35 0 0 0 90.283669
-9.1576138 -10.622066 1.1752357 34 0 0 0 85.972351
-9.7855358 -10.284942 1.1890919 156 0 0 0 86.770302
-8.0764828 -8.9169579 1.01309 470 0 0 0 86.372017
-30.251114 -6.8014936 1.0307778 78 0 0 0 96.142815
2.2587378 -6.6155953 1.2962297 244.83333 0 0 0 69.343407
2.6929705 -6.6011052 1.2994484 266.5 0 0 0 68.414284
3.3184638 -6.5798202 1.2064586 292.625 0 0 0 67.146034
3.8012183 -6.5574965 1.216874 266.66666 0 0 0 66.215767
4.2218232 -6.5222349 1.0547111 247.5 0 0 0 65.436401
4.5636888 -6.5123792 1.0788863 336 0 0 0 64.84259
6.4375467 -6.788403 1.2639261 57 0 0 0 62.496441
7.1693306 -6.5222616 1.3082879 30 0 0 0 61.322968
4.1856713 -6.2970238 1.2148465 104 0 0 0 65.238464
4.7462564 -6.3228927 1.2022446 94 0 0 0 64.324226
5.1690192 -6.328702 1.2079275 111.5 0 0 0 63.669556
5.6999798 -6.1618137 1.3457389 31.5 0 0 0 62.693657
6.7241998 -6.1186662 1.4547338 18 0 0 0 61.322968
7.2190919 -6.3290858 1.2354301 130.75 0 0 0 61.031269
7.7214055 -6.360796 1.2259146 102.5 0 0 0 60.540501
8.0833015 -6.3315244 1.2572087 144.5 0 0 0 60.14682
8.6968393 -6.2537079 1.2653667 133.33333 0 0 0 59.491276
9.2391739 -6.1944904 1.3566551 71.5 0 0 0 58.971802
9.8966341 -6.2887669 1.1431587 97.5 0 0 0 58.587761
10.414986 -6.2636452 1.1841228 95 0 0 0 58.1856
11.029724 -6.268774 1.2345629 47 0 0 0 57.799198
11.607311 -6.2241087 1.2798479 76.5 0 0 0 57.409927
12.358677 -6.2402644 1.1748607 20 0 0 0 57.014393
13.856148 -6.1602826 1.2829118 187 0 0 0 56.232929
16.731977 -6.007225 1.0536677 21 0 0 0 55.06266
-30.074106 -5.9903693 1.0204337 90 0 0 0 96.526894
14.250352 -5.9202628 1.3046882 14 0 0 0 55.841381
14.837185 -5.7402644 1.3437074 21 0 0 0 55.458141
17.870075 -5.9236331 1.11332 30 0 0 0 54.683361
19.156832 -5.8311396 1.1814797 31 0 0 0 54.285271
-6.1436582 -4.6036248 1.160576 671 0 0 0 89.43512
-5.2058816 -4.5865555 1.2466295 1086.4 0 0 0 88.163559
-4.7064824 -4.5227242 1.3126479 1197.8334 0 0 0 87.480743
-4.2909203 -4.5113959 1.3013531 1042 0 0 0 86.765083
-3.5090206 -4.5026999 1.4788065 1104 0 0 0 85.191185
-2.62362 -4.5028744 1.4820681 1036 0 0 0 83.042297
-2.2701914 -4.5071464 1.4364411 965 0 0 0 82.067345
-1.7273608 -4.5220203 1.4190607 744.33331 0 0 0 80.431419
-1.2045585 -4.5266519 1.3577027 609.36365 0 0 0 78.754097
-0.72412151 -4.5352764 1.2944221 571.38464 0 0 0 77.133095
-0.23307368 -4.5568194 1.2483964 588.04999 0 0 0 75.412384
0.2716864 -4.5997896 1.2609924 478.9375 0 0 0 73.647888
0.73455644 -4.6428852 1.286606 500.6875 0 0 0 72.086342
1.2045012 -4.6648822 1.2177498 641.76471 0 0 0 70.554077
4.9553618 -4.9810867 1.3059038 747 0 0 0 62.102901
5.09203 -4.8729 1.3100157 701 0 0 0 61.713947
10.277267 -4.8784418 1.248796 541 0 0 0 56.626659
-6.3134232 -4.4558306 1.3270471 782 0 0 0 89.896286
-4.2218981 -4.4816008 1.2003201 1200 0 0 0 86.687515
-3.7599914 -4.4734073 1.2272545 1162 0 0 0 85.77533
-3.2950475 -4.4656177 1.2165353 1041.8182 0 0 0 84.75882
-2.7540753 -4.4673471 1.2344846 1014.6667 0 0 0 83.431435
-2.2491918 -4.4647074 1.1774166 990.33331 0 0 0 82.067352
-1.8061279 -4.4633603 1.1462048 862.27271 0 0 0 80.745087
-1.2913104 -4.4833732 1.1446507 545.375 0 0 0 79.077789
-0.78573304 -4.4868779 1.0764095 632 0 0 0 77.373329
14.955714 -4.1523995 1.310992 333 0 0 0 53.891361
20.124731 -4.0199914 1.208385 23 0 0 0 52.7197
25.033892 -3.7311213 1.4802626 68 0 0 0 51.939999
29.778036 -3.6927471 1.0117151 82 0 0 0 51.549767
35.001396 -3.4692025 1.17845 69 0 0 0 51.161819
44.686989 -3.3225486 1.4897841 16 0 0 0 50.763329
-2.8443444 3.4827373 1.0795702 399.66666 0 0 0 13.90932
1.8838207 3.2514675 1.4229478 188.66667 0 0 0 33.17432
2.2513731 3.218483 1.2424654 328.85715 0 0 0 34.495056
2.7672579 3.2097404 1.2308702 602.29413 0 0 0 36.072594
3.2621679 3.2174973 1.2221557 773.45453 0 0 0 37.337154
3.7450287 3.2463233 1.2356108 786.90002 0 0 0 38.343925
4.2809911 3.2877958 1.2364999 907 0 0 0 39.268608
4.6867352 3.3411891 1.2151215 982.33331 0 0 0 39.823639
5.0364356 3.4033906 1.2815661 936.33331 0 0 0 40.216461
7.0885339 3.3780301 1.2558696 1224.6666 0 0 0 42.569126
-3.0119014 3.572988 1.367269 349 0 0 0 13.65074
-2.7082887 3.6444342 1.2321061 423.26666 0 0 0 14.642104
-1.208608 3.62202 1.4228295 161.66667 0 0 0 19.767349
6.9440246 3.5225506 1.2454267 1025 0 0 0 42.167622
32.888817 4.8684239 1.1053486 18 0 0 0 47.247059
37.022465 4.552702 1.2367991 34 0 0 0 47.636608
-7.7768574 5.8129921 1.1218187 439 0 0 0 9.8774977
-7.8251934 6.361968 1.3280932 494 0 0 0 10.53475
-7.2927313 6.2287335 1.1490715 534.75 0 0 0 10.917305
-6.9073391 6.3497257 1.0086784 493 0 0 0 11.499969
-7.0073228 6.6008172 1.268872 563 0 0 0 11.69857
-6.8687439 6.795352 1.1572158 496 0 0 0 12.08662
-6.293766 6.8635125 1.001352 375 0 0 0 12.87064
7.1523805 6.8630023 1.2038183 486 0 0 0 37.477421
7.7455473 6.8937435 1.1289213 376 0 0 0 38.066452
8.3961077 6.9337668 1.1839887 295 0 0 0 38.661392
-7.1316872 7.413188 1.354197 31 0 0 0 12.47859
-6.6687875 7.2800431 1.0602412 269.5 0 0 0 12.868925
1.8969846 7.447484 1.029732 664 0 0 0 28.684616
2.2981932 7.4607716 1.0460972 693 0 0 0 29.462589
2.7165599 7.4810548 1.0664709 604.5 0 0 0 30.243061
3.0219302 7.4508467 1.0774254 485 0 0 0 30.834881
5.4684439 7.4517102 1.0082195 342 0 0 0 34.73307
5.7859464 7.4877796 1.0315415 383 0 0 0 35.130753
7.2619896 7.3169041 1.121763 515 0 0 0 37.091221
7.7140446 7.0432029 1.3942679 380 0 0 0 37.868961
9.9663506 7.4289503 1.0441772 292 0 0 0 39.438232
-6.5517755 7.5092769 1.3129411 103 0 0 0 13.25926
-1.7520251 7.9313664 1.0803648 497.5 0 0 0 21.261135
-1.2287841 7.7935576 1.0512875 550 0 0 0 22.235563
-0.73588353 7.7130632 1.0335519 589 0 0 0 23.210855
-0.25678179 7.5654392 1.0113525 550.66669 0 0 0 24.189314
0.3042326 7.5979705 1.0166658 562 0 0 0 25.362692
0.77044022 7.560689 1.0167636 595 0 0 0 26.339249
1.2406803 7.5370631 1.0226728 612.33331 0 0 0 27.313665
1.6187556 7.5062242 1.0283254 637 0 0 0 28.096491
3.3789706 7.5153542 1.1038611 408 0 0 0 31.412125
3.7455812 7.5667181 1.1305799 462 0 0 0 32.008282
4.1474791 7.646409 1.1642318 407 0 0 0 32.585381
4.7682705 7.8362808 1.2261279 406.5 0 0 0 33.371407
5.2099395 7.8885427 1.2627763 475 0 0 0 33.95787
6.1602163 7.5756936 1.0634425 383 0 0 0 35.521072
6.7609682 7.7065492 1.1151464 419 0 0 0 36.106113
7.2307515 7.6527524 1.1445367 458 0 0 0 36.696239
10.654669 7.5387259 1.0948511 278 0 0 0 39.823639
11.291941 7.5774865 1.1395168 184 0 0 0 40.216461
11.876645 7.5509744 1.1784104 200 0 0 0 40.609779
12.78644 7.6917324 1.2475457 173 0 0 0 40.9958
13.843478 7.8677526 1.329185 174 0 0 0 41.390232
14.883824 7.9788733 1.4079034 176 0 0 0 41.780159
24.751814 7.5104671 1.497357 60 0 0 0 44.9119
40.116325 7.9673924 1.3486408 20 0 0 0 46.470058
-4.2583346 8.3160582 1.0060966 133 0 0 0 17.160431
-2.7176111 8.3435993 1.1632328 573 0 0 0 19.702431
-2.2272601 8.1709967 1.1244125 582 0 0 0 20.4804
0.23717314 8.3292255 1.3163409 620.5 0 0 0 25.166975
0.73846453 8.1882095 1.3002783 654.66669 0 0 0 26.144205
1.2455231 8.1578045 1.3057852 529.5 0 0 0 27.116819
1.7640152 8.1516113 1.3204244 599 0 0 0 28.097977
2.2863293 8.1096163 1.3343711 568.5 0 0 0 29.073074
2.7283323 8.117877 1.356456 538.5 0 0 0 29.851505
3.216888 8.2030706 1.3953335 571 0 0 0 30.638081
3.7474849 8.3170576 1.4440776 537.5 0 0 0 31.412125
4.1614251 8.3926258 1.4824021 413 0 0 0 32.008282
5.7943897 8.0975504 1.3284969 339 0 0 0 34.538235
6.3336735 8.1922913 1.3803804 470 0 0 0 35.130753
6.755301 8.303484 1.4259179 317 0 0 0 35.521072
7.1686115 8.3785009 1.4680073 286 0 0 0 35.912487
10.335666 8.1058426 1.4205739 363 0 0 0 39.042431
11.056788 8.2374363 1.4896585 243 0 0 0 39.438232
-3.1152778 8.5020752 1.1987801 16 0 0 0 19.11919
-2.6225331 8.8004436 1.4424791 123 0 0 0 20.09079
-0.7044307 8.5962677 1.3597282 56 0 0 0 23.409981
-0.17729732 8.6590366 1.366173 501.5 0 0 0 24.385906
-6.3932133 9.9846802 1.2678329 101 0 0 0 15.59826
-5.786953 10.090766 1.2448049 15 0 0 0 16.37746
-4.1020975 10.447329 1.4783618 43 0 0 0 18.72287
-33.201199 11.890334 1.1395191 35 0 0 0 5.0706902
-32.681763 14.490939 1.1510645 24 0 0 0 6.2385602
-30.812071 15.507241 1.1095846 52 0 0 0 7.0136499
-30.552397 16.326082 1.1131138 40 0 0 0 7.4112101
-34.429848 -34.43248 1.5891289 25 0 0 0 87.152946
9.2923164 -10.80105 1.905364 237 0 0 0 63.276993
9.5707426 -10.587486 1.9087003 39 0 0 0 62.890873
6.5730553 -8.0385942 1.9126921 19 0 0 0 63.666607
-30.319584 -6.8173413 1.7938553 81 0 0 0 96.142815
2.8823416 -6.5456586 1.5023187 64 0 0 0 67.977409
3.1641908 -6.522541 1.522774 38.5 0 0 0 67.393021
-30.130564 -6.0020738 1.7744542 78 0 0 0 96.526894
2.2428093 -6.3114572 1.5725976 47 0 0 0 69.147858
2.7740319 -6.2955871 1.6150661 41.666668 0 0 0 67.975914
3.30849 -6.3484101 1.6197821 36 0 0 0 66.932343
3.7769721 -6.3335876 1.6385707 30.166666 0 0 0 66.022316
7.3598375 -6.0626874 1.5241026 9 0 0 0 60.540501
9.4601851 -6.0096178 1.5071629 9 0 0 0 58.587761
10.022751 -6.0257111 1.5709935 5 0 0 0 58.1856
13.812975 -6.1408215 1.6467594 138 0 0 0 56.232929
11.10551 -5.9528608 1.6896219 7 0 0 0 57.409927
-0.32532743 -5.1661372 1.8561797 540.66669 0 0 0 75.606903
0.37466797 -5.2400041 1.7557753 360 0 0 0 73.454163
0.50228071 -5.2250547 1.7546545 43 0 0 0 73.060791
4.7908487 -5.0565639 1.8104993 254 0 0 0 62.496441
10.109981 -5.1047044 1.8032781 9 0 0 0 57.014393
-6.1767583 -4.6699691 1.6791388 438.66666 0 0 0 89.369293
-4.7416582 -4.5236793 1.5325313 1095 0 0 0 87.549744
-3.688015 -4.5007343 1.5067626 958 0 0 0 85.5783
-1.8106006 -4.5232058 1.5073855 816 0 0 0 80.689499
-0.067394212 -4.6329756 1.5515985 46.5 0 0 0 74.825584
1.2914623 -4.71772 1.5184566 669.66669 0 0 0 70.324921
2.8979037 -4.8685584 1.8967092 26 0 0 0 66.023056
3.2198079 -4.8484249 1.8750389 491.75 0 0 0 65.238197
3.6970847 -4.7611742 1.9421263 765.5 0 0 0 64.059471
4.1564436 -4.723856 1.9491241 1135.5 0 0 0 63.083931
4.8854446 -4.9091868 1.799305 741.66669 0 0 0 62.102901
5.0864058 -4.8063402 1.8612883 672.75 0 0 0 61.616203
6.0350704 -4.7294135 1.9886842 9 0 0 0 60.14682
10.257628 -4.8666062 1.6666974 474 0 0 0 56.626659
-6.6171131 -4.4329085 1.8561884 260 0 0 0 90.283669
-6.3133683 -4.4570541 1.8024064 686.66669 0 0 0 89.896278
-3.8442929 -4.463984 1.5251424 114 0 0 0 85.972351
-2.8176484 -4.4503102 1.5751007 199.2 0 0 0 83.625351
-2.3252597 -4.4831777 1.5611442 6 0 0 0 82.261353
-1.9804454 -4.4664521 1.5113208 14 0 0 0 81.27919
14.903666 -4.1376228 1.6829146 297 0 0 0 53.891361
29.574169 -3.6667345 1.7352908 90 0 0 0 51.549767
20.089483 -3.4977462 1.708921 34 0 0 0 52.325447
-58.202145 1.4980794 1.8915634 58 0 0 0 0
-28.124508 1.4143775 1.6168803 109 0 0 0 0.38545001
-27.929714 2.090301 1.6070536 129 0 0 0 0.77427
-29.487127 2.9339077 1.6972575 19 0 0 0 1.16645
2.2655718 3.306412 1.5495428 263.66666 0 0 0 34.34478
2.7566433 3.3492982 1.6216701 423.16666 0 0 0 35.716267
3.212841 3.3662131 1.6638166 574.28571 0 0 0 36.864044
3.6850598 3.3664649 1.6766052 637.16669 0 0 0 37.935364
4.2314372 3.3753574 1.6807909 748.16669 0 0 0 38.981388
4.6668024 3.3979659 1.7325141 724.59998 0 0 0 39.669476
5.0504289 3.4145167 1.7374889 986.66669 0 0 0 40.216461
6.8884659 3.4969544 1.9994496 747 0 0 0 42.167622
7.0433378 3.3579497 1.730955 1026 0 0 0 42.569126
-3.0546722 3.624635 1.6744232 293.66666 0 0 0 13.650739
-2.7664998 3.7184002 1.6390562 381.41666 0 0 0 14.628628
6.9065161 3.5049667 1.7183011 741.5 0 0 0 42.167622
16.852093 3.791281 1.8654015 50 0 0 0 46.076408
27.170841 4.7095246 1.5981351 80 0 0 0 46.86491
50.125477 4.9148984 1.6586069 36 0 0 0 48.03756
-7.7566643 5.6992035 1.6221447 238.5 0 0 0 9.7492304
-6.5219145 7.4752951 1.6726507 149 0 0 0 13.25926
25.825024 7.1470127 1.5506341 27 0 0 0 45.300152
-26.30975 7.9886603 1.5681081 41 0 0 0 4.28687
-9.4042912 8.2569542 1.9497197 601 0 0 0 11.108959
4.4284272 8.4022551 1.5028535 473 0 0 0 32.390598
4.7111244 8.4262018 1.5271806 278 0 0 0 32.780159
7.5742536 8.4212093 1.5071622 328 0 0 0 36.29974
11.725235 8.2925158 1.5504133 231 0 0 0 39.823639
12.49626 8.3819733 1.6230414 238 0 0 0 40.216461
24.653515 8.1477871 1.5021371 41 0 0 0 44.518993
-26.150084 8.6441202 1.5697001 162 0 0 0 4.6770701
-3.1164198 8.5060892 1.6454762 319 0 0 0 19.11919
-2.8397191 8.7311649 1.6680765 385 0 0 0 19.702431
-2.3288898 8.5636806 1.614188 285.5 0 0 0 20.4804
0.35832116 8.6933575 1.6945926 274 0 0 0 25.363621
2.8686554 8.8806334 1.7056444 502 0 0 0 29.658171
3.2455378 8.9031219 1.7321472 424 0 0 0 30.243061
3.6604097 8.991643 1.774169 392 0 0 0 30.834881
5.2118597 8.55548 1.5838988 312.5 0 0 0 33.371407
5.753602 8.7021055 1.6481203 349 0 0 0 33.95787
6.2630014 8.7462778 1.69889 335 0 0 0 34.538235
6.897872 8.9152575 1.7786732 285 0 0 0 35.130753
7.3187346 8.9900713 1.8284333 290 0 0 0 35.521072
8.0799313 8.5473242 1.563954 295 0 0 0 36.696239
8.5751696 8.6324892 1.6169165 223 0 0 0 37.091221
10.313704 8.9448242 1.8105842 236 0 0 0 38.263939
10.886206 8.9794931 1.8706205 195 0 0 0 38.661392
13.480116 8.5660009 1.7208511 126 0 0 0 40.609779
14.671191 8.8209734 1.8421863 112 0 0 0 40.9958
2.2052991 9.0677824 1.7042761 252 0 0 0 28.490089
2.5936522 9.1757793 1.741389 328.5 0 0 0 29.073074
3.9636617 9.0855656 1.811178 302 0 0 0 31.21804
4.3958216 9.4279613 1.8992858 74 0 0 0 31.606211
4.6332488 9.32973 1.9023349 222 0 0 0 32.008282
7.8164186 9.1295338 1.8945388 249 0 0 0 35.912487
16.033796 9.1080408 1.9819381 116 0 0 0 41.390232
-4.1792021 9.9147625 1.6831839 40 0 0 0 18.332291
-25.937077 10.005778 1.5822489 21 0 0 0 5.4542198
-6.5041032 10.156725 1.5842587 25 0 0 0 15.59826
1.7078539 10.226921 1.8882469 55 0 0 0 27.31012
-25.891863 10.723343 1.5938649 13 0 0 0 5.8437901
-4.2352214 10.793531 1.8119831 57 0 0 0 18.72287
-2.7395616 10.653069 1.7224503 63 0 0 0 20.676411
1.2362083 10.567592 1.9358287 19 0 0 0 26.53948
-25.721949 11.398026 1.5990902 29 0 0 0 6.2385602
-25.587622 12.096066 1.6076151 25 0 0 0 6.6333399
-25.404976 12.779515 1.6143076 31 0 0 0 7.0136499
-25.141571 13.427768 1.6170833 76 0 0 0 7.4112101
-25.157621 14.238945 1.6388125 32 0 0 0 7.7976499
-53.20755 20.558825 1.8208969 8 0 0 0 5.4542198
-53.037586 22.001425 1.830786 14 0 0 0 5.8437901
-36.900021 -22.12537 2.4621711 6 0 0 0 91.070145
