# .PCD v0.7 - Point Cloud Data file format
VERSION 0.7
FIELDS x y z intensity normal_x normal_y normal_z curvature
SIZE 4 4 4 4 4 4 4 4
TYPE F F F F F F F F
COUNT 1 1 1 1 1 1 1 1
WIDTH 948
HEIGHT 1
VIEWPOINT 0 0 0 1 0 0 0
POINTS 948
DATA ascii
-15.740318 14.194032 0.64171195 26 0 0 0 11.31364
-15.470587 14.653934 0.64700758 17 0 0 0 11.70004
14.491282 -9.7141666 1.4873703 10 0 0 0 58.948608
16.399775 -9.3230686 1.1377457 102 0 0 0 57.771191
17.034998 -9.1374588 1.1657962 297 0 0 0 57.37822
17.886496 -9.0348787 1.2079508 247 0 0 0 56.9911
18.798782 -8.9222918 1.2537588 238 0 0 0 56.594048
19.846436 -8.8280716 1.3079894 186 0 0 0 56.20446
20.912287 -8.6924553 1.3630772 172 0 0 0 55.819458
22.088154 -8.5502605 1.4248433 138 0 0 0 55.425041
23.393139 -8.3997965 1.4943594 136 0 0 0 55.04586
28.08264 -7.8004656 1.0348873 106 0 0 0 53.866489
30.04188 -7.5540967 1.0986329 90 0 0 0 53.481541
-5.9638004 -4.7787013 1.4074894 604 0 0 0 88.855705
-6.5513515 -4.1537213 1.2376428 333 0 0 0 90.62027
-5.8594818 -4.2424803 1.4211876 565.5 0 0 0 89.642151
-3.5806756 -4.1520171 1.2860243 195 0 0 0 85.919441
-3.063853 -4.1296988 1.4608463 211 0 0 0 84.738441
-2.8207362 -4.0027356 1.2712578 184 0 0 0 84.350998
-2.4201236 -4.0319986 1.3381468 418 0 0 0 83.181374
-1.6285552 -4.2051892 1.3945844 165 0 0 0 80.451981
-1.1643769 -4.1294851 1.2890245 179.125 0 0 0 78.933853
-0.76434112 -4.1924295 1.3436873 204.38461 0 0 0 77.415474
-0.2064092 -4.1672044 1.3263983 207.0625 0 0 0 75.315613
0.29586312 -4.1233568 1.2753243 140 0 0 0 73.377998
0.82975447 -4.2149205 1.1905917 191.81818 0 0 0 71.421906
1.2587427 -4.2144389 1.150991 179.60001 0 0 0 69.88961
1.7571059 -4.2112684 1.1296461 196.57143 0 0 0 68.215508
2.2855425 -4.1968117 1.0741956 234.33333 0 0 0 66.568558
2.6989098 -4.1905823 1.0594525 254.5 0 0 0 65.3927
3.502784 -4.0963764 1.0125369 4 0 0 0 63.248581
6.329083 -4.0322933 1.2157129 3800 0 0 0 58.547871
-5.7048788 -3.8568661 1.238394 412.39999 0 0 0 90.15361
-5.3395176 -3.9640784 1.2293649 637 0 0 0 89.442673
-4.3290811 -3.9242432 1.1305777 384 0 0 0 87.877327
-3.7430136 -3.8751845 1.2456656 391 0 0 0 86.822319
-3.223841 -3.8530116 1.1968377 384.625 0 0 0 85.676697
-2.6975439 -3.8116896 1.2521113 294.75 0 0 0 84.386414
-2.1895657 -3.7825201 1.191535 293.83334 0 0 0 82.924751
-1.7561216 -3.8476551 1.2595242 235.77777 0 0 0 81.383446
-1.2416131 -3.748065 1.2683618 166.73685 0 0 0 79.644882
-0.8292644 -3.8712447 1.2146376 102.33334 0 0 0 77.910164
-0.31531787 -3.8748398 1.1430959 142.33333 0 0 0 75.82325
0.29774517 -3.8657861 1.3288212 119.42857 0 0 0 73.296608
0.56344104 -3.9198565 1.1835208 84.5 0 0 0 72.234573
6.3243475 -3.7101302 1.3715169 4309 0 0 0 57.966015
-33.635616 -0.82932454 1.1390297 20 0 0 0 99.200111
-2.6912789 2.9362371 1.1622236 168 0 0 0 13.075134
-2.1555681 3.2628973 1.2913988 102.5 0 0 0 15.614655
-1.9875246 3.3500576 1.2881509 122 0 0 0 16.395491
1.6686593 3.4492168 1.1773843 111.33334 0 0 0 32.002712
2.4622529 3.2398639 1.4882171 186 0 0 0 35.120541
2.7209594 3.3379586 1.3738251 319 0 0 0 35.647884
5.8424001 3.3389788 1.1036903 1186.6666 0 0 0 41.381084
6.2519274 3.172333 1.1481119 479 0 0 0 42.162647
-2.6194949 3.990098 1.4548626 148 0 0 0 15.61167
-1.6998106 3.6361873 1.3329488 122 0 0 0 17.95262
-1.4684622 3.5787594 1.3795396 198 0 0 0 18.732401
1.6246839 3.6522758 1.1572019 135.5 0 0 0 31.485594
2.8525968 3.5877004 1.1700141 412 0 0 0 35.437881
5.8255563 3.8614433 1.203276 1049.6666 0 0 0 40.337883
6.16575 3.831244 1.3675157 1180.5 0 0 0 40.794964
10.640899 3.8210077 1.2659059 648 0 0 0 44.113781
-2.8149648 4.0793495 1.0270399 532 0 0 0 15.2311
-1.5423092 4.0695181 1.4445776 195 0 0 0 19.12122
1.4778211 4.3261933 1.318009 133 0 0 0 30.053631
1.7028534 4.2005334 1.1939416 200 0 0 0 30.932512
2.1930158 4.3508015 1.1031539 258.5 0 0 0 32.19875
2.708962 4.3783636 1.1035851 518 0 0 0 33.562401
5.8581781 4.2524242 1.1461245 883.79999 0 0 0 39.66291
10.669557 4.1309094 1.2805073 148 0 0 0 43.717178
-13.216796 4.6921382 1.1056032 90 0 0 0 5.0749102
-12.768448 4.5309052 1.3954912 369 0 0 0 5.0749102
-7.3561201 4.8479443 1.1397606 748 0 0 0 8.9819803
2.1733031 4.5879555 1.0862023 369 0 0 0 31.804874
6.8153276 5.9278679 1.3516555 519.5 0 0 0 38.252918
7.1280365 5.7483439 1.0308406 435 0 0 0 38.84758
7.1758409 6.2355213 1.0680077 457 0 0 0 38.252918
6.884644 6.6063066 1.0709771 322 0 0 0 37.477768
8.4015474 6.9408464 1.4876323 348 0 0 0 38.650089
8.5643835 6.7268381 1.4870381 185 0 0 0 39.045071
9.2516642 6.5505853 1.2671708 280 0 0 0 39.821659
9.4019613 7.3761168 1.041644 330 0 0 0 39.045071
9.6123018 7.1660876 1.3375075 196 0 0 0 39.424793
10.625442 7.1318789 1.4255474 288 0 0 0 40.20816
16.632183 7.3842282 1.1147777 133 0 0 0 42.949322
7.8484159 7.9029517 1.2428124 485 0 0 0 37.08271
8.4634485 7.7189646 1.2780162 240 0 0 0 37.862926
16.86154 7.9880357 1.1417849 154 0 0 0 42.54887
-7.2823377 8.1326065 1.1520712 560.5 0 0 0 13.075134
7.7278156 10.496124 1.1255007 229 0 0 0 34.730713
-3.1956489 10.909429 1.3154815 671.33331 0 0 0 20.167673
-2.680593 10.952326 1.3537362 653.75 0 0 0 20.878401
-2.2676451 10.997565 1.4879625 667 0 0 0 21.467211
-1.695514 10.909236 1.3304908 753.5 0 0 0 22.23918
7.4249377 10.623866 1.118575 332 0 0 0 34.346889
-15.961934 11.181287 1.0589212 85 0 0 0 9.3660603
-2.2670591 11.010902 1.2138612 632 0 0 0 21.467211
-1.9895971 11.017428 1.3475484 593 0 0 0 21.84885
-1.3067327 11.094281 1.3477063 504.5 0 0 0 22.831154
-0.75762391 11.102594 1.3446546 498.75 0 0 0 23.610012
-0.21109623 11.16341 1.3506775 432.5 0 0 0 24.390699
0.33936399 11.186297 1.3564343 455 0 0 0 25.175739
0.75541878 11.217304 1.3640223 332.5 0 0 0 25.76325
1.1820238 11.274456 1.2384396 472 0 0 0 26.34469
1.7671895 11.406036 1.2626376 654 0 0 0 27.129856
2.2129776 11.466115 1.2787532 651 0 0 0 27.706989
2.5131397 11.490992 1.2889652 708 0 0 0 28.103861
7.3844004 11.13986 1.4765942 282 0 0 0 33.958752
-15.774345 11.635883 1.0666472 187 0 0 0 9.7586603
2.7200572 11.519828 1.1061764 638.66669 0 0 0 28.363512
3.2910531 11.571294 1.1741289 621.75 0 0 0 29.079021
3.7723832 11.614523 1.1928593 528.5 0 0 0 29.66255
-18.643833 12.400754 1.2095529 124 0 0 0 8.9819803
-15.851792 12.304943 1.0930181 217 0 0 0 10.1471
7.9999471 12.058799 1.2432462 219 0 0 0 33.958752
-15.918742 12.995436 1.1203983 158 0 0 0 10.53307
-15.995064 13.72583 1.1502751 97 0 0 0 10.93218
-18.283239 16.497534 1.3405125 134 0 0 0 11.31364
-17.473118 16.558895 1.313527 103 0 0 0 11.70004
12.466819 -9.763155 1.736051 509 0 0 0 60.115398
12.991111 -9.6680012 1.7754643 481 0 0 0 59.718361
13.596926 -9.6084061 1.8252344 349 0 0 0 59.330994
14.471915 -9.7015953 1.9091864 8 0 0 0 58.948608
15.008413 -9.5345917 1.5161037 6 0 0 0 58.547871
15.857751 -9.53479 1.5770663 13 0 0 0 58.160839
16.440975 -9.342967 1.6117823 76 0 0 0 57.771191
17.089163 -9.1629086 1.6526483 275 0 0 0 57.37822
17.940207 -9.0582972 1.7123574 258 0 0 0 56.9911
18.879801 -8.9568787 1.7798264 197 0 0 0 56.594048
19.905006 -8.8501368 1.854686 198 0 0 0 56.20446
20.986492 -8.7191544 1.9342134 183 0 0 0 55.819458
24.810476 -8.2256117 1.5705835 101 0 0 0 54.652912
26.408377 -8.0400696 1.6576647 102 0 0 0 54.255161
28.1556 -7.8207831 1.7535925 70 0 0 0 53.866489
30.155882 -7.5827703 1.8646597 67 0 0 0 53.481541
-6.0510845 -5.3555017 1.7825863 676 0 0 0 88.07164
-5.777318 -5.2388144 1.8634855 521 0 0 0 87.877892
-2.3728526 -5.005404 1.8428105 364 0 0 0 81.622238
-7.0533252 -4.7181163 1.7687148 317 0 0 0 90.232269
-5.792665 -4.698976 1.6906343 548 0 0 0 88.75605
-4.6748376 -4.6781945 1.5452998 59 0 0 0 87.108192
-3.6847169 -4.9675083 1.5975232 185 0 0 0 84.738441
-3.2753787 -4.6487098 1.612096 229 0 0 0 84.350998
-2.287344 -4.6796293 1.9892764 318.5 0 0 0 81.82164
0.39047885 -4.7396975 1.8220406 112 0 0 0 73.212898
-6.6256628 -4.2024698 1.8299711 168 0 0 0 90.62027
-5.6793284 -4.1834254 1.790875 588 0 0 0 89.511055
-5.4758539 -4.278801 1.795099 369.5 0 0 0 89.055023
-3.7696481 -4.2659593 1.6147294 292 0 0 0 86.116638
-3.3541834 -4.1157041 1.7310221 330.42856 0 0 0 85.472404
-2.624507 -4.2195897 1.7384291 283.16666 0 0 0 83.443542
-2.3065243 -4.2563891 1.7351204 244.2 0 0 0 82.485184
-1.8007007 -4.0507822 1.6433437 154 0 0 0 81.229355
-0.56047207 -4.1699791 1.5436422 147.66667 0 0 0 76.673637
-0.38514146 -4.1254468 1.5548469 158.33333 0 0 0 76.017883
0.63660574 -4.1686997 1.5505172 97.333336 0 0 0 72.106232
6.3703327 -4.0581093 1.7840061 4110 0 0 0 58.547871
-6.7232547 -3.8157077 1.9937942 425 0 0 0 91.398659
-6.1569557 -3.7651031 1.8051649 339.33334 0 0 0 90.886932
-5.8143234 -3.9592469 1.8152202 547 0 0 0 90.102058
-3.7221973 -3.818254 1.7096002 354 0 0 0 86.909966
-3.3416069 -3.6899235 1.7611609 364 0 0 0 86.314423
-2.6949449 -3.7451961 1.5839441 182.39999 0 0 0 84.505966
-1.6559153 -3.8089435 1.5233936 180 0 0 0 81.096191
-1.2634236 -3.789083 1.5338227 120 0 0 0 79.668915
-0.78036237 -3.8737228 1.5162753 87 0 0 0 77.715523
-0.20638146 -3.9351103 1.5132488 104 0 0 0 75.364395
0.46233344 -3.8838058 1.5043876 63 0 0 0 72.624672
6.3510604 -3.7596962 1.7442493 4282 0 0 0 58.030956
-3.575985 -3.4097402 1.8908165 351 0 0 0 87.488708
-3.4732144 -3.4779091 1.8808357 60 0 0 0 87.108192
-35.553749 0.87924725 1.853591 44 0 0 0 0
-35.673538 1.7563745 1.8621466 49 0 0 0 0.40303999
-35.829319 2.6442101 1.8737966 57 0 0 0 0.78534001
2.3455338 3.2839534 1.5587649 199.33333 0 0 0 34.670559
2.7722707 3.2441354 1.5577408 277.75 0 0 0 36.007122
-35.892254 3.5337882 1.8819542 29 0 0 0 1.17282
1.9346151 3.8672638 1.6801792 122 0 0 0 32.19875
2.2195368 3.7567098 1.6353378 142.28572 0 0 0 33.283176
2.580965 3.7118196 1.5630844 254.75 0 0 0 34.441769
-35.840771 4.4166627 1.8854896 32 0 0 0 1.5683399
1.8664657 4.0976644 1.7464213 211 0 0 0 31.61064
2.0666604 4.2468653 1.7143254 215 0 0 0 31.999109
13.143879 5.4605141 1.5827991 114 0 0 0 43.332287
13.059937 5.8069224 1.5891305 275 0 0 0 42.949322
8.2656784 6.4953098 1.9592537 348 0 0 0 39.045071
8.4768934 6.6593776 1.7401358 351 0 0 0 39.045071
7.3949022 7.4552507 1.9547545 196 0 0 0 37.08271
8.6027956 7.1069345 1.7993814 328 0 0 0 38.650089
6.5407457 7.6542392 1.8741531 274 0 0 0 35.909206
7.1313205 7.7435155 1.8294221 467.25 0 0 0 36.493752
7.8858867 7.9442782 1.524966 528 0 0 0 37.08271
8.2397842 7.8999753 1.5548365 456 0 0 0 37.477768
5.985817 8.1565208 1.8808619 341 0 0 0 34.730713
7.7905312 8.2446394 1.5442082 174 0 0 0 36.687649
8.1005411 8.1601133 1.8507752 279 0 0 0 37.08271
8.9297848 8.1465063 1.9446164 179 0 0 0 37.862926
18.418732 8.1798964 1.7331613 121 0 0 0 42.949322
8.9805765 8.6065826 1.9993407 261 0 0 0 37.477768
6.2506323 9.4503193 1.8183675 322 0 0 0 33.958752
6.044312 9.6467371 1.8258592 194 0 0 0 33.562401
-3.6888905 10.912564 1.6599903 283.5 0 0 0 19.518841
-3.290796 10.892169 1.6890711 647.66669 0 0 0 20.037355
-2.6766515 10.923447 1.7659738 658.5 0 0 0 20.878399
-2.2626853 10.966395 1.7603055 607 0 0 0 21.467211
-1.8399892 10.928994 1.7447617 551.5 0 0 0 22.044014
-1.2895126 10.913404 1.7329326 499.5 0 0 0 22.831154
-0.75218481 10.975433 1.7373021 411.5 0 0 0 23.61001
-0.2121325 11.038752 1.7459086 394 0 0 0 24.390701
0.33833918 11.232018 1.7787528 689 0 0 0 25.175739
0.75675935 11.273072 1.7899215 651 0 0 0 25.76325
1.1798573 11.293516 1.6604218 508.25 0 0 0 26.34469
1.7601199 11.385786 1.6862247 640 0 0 0 27.129856
2.3011436 11.436813 1.7577552 584.66669 0 0 0 27.839279
2.6544929 11.47387 1.7273299 597 0 0 0 28.298599
3.1099994 11.493856 1.8946805 619 0 0 0 28.883181
2.8121729 11.506525 1.5904155 541 0 0 0 28.49334
3.3316088 11.549496 1.7149822 547 0 0 0 29.144302
3.7535794 11.571781 1.7864666 605.5 0 0 0 29.66255
4.1944942 11.612628 1.8657991 469.66666 0 0 0 30.18331
7.496623 11.939241 1.9016984 385 0 0 0 33.562401
-18.57325 12.346732 1.7577699 118 0 0 0 8.9819803
8.4129829 12.028269 1.6187662 161 0 0 0 34.346889
-17.968145 12.58815 1.7316194 161 0 0 0 9.3660603
-17.176708 12.66967 1.6875039 149 0 0 0 9.7586603
-16.423771 12.744704 1.6464123 193 0 0 0 10.1471
-15.842639 12.926003 1.6218365 173 0 0 0 10.53307
-35.110039 13.514285 1.9823813 15 0 0 0 5.4675102
-15.892943 13.630383 1.6620171 162 0 0 0 10.93218
-8.052659 14.06544 1.7108041 45 0 0 0 16.395491
-18.236732 16.446541 1.94616 83 0 0 0 11.31364
-17.447186 16.525303 1.9075391 109 0 0 0 11.70004
-16.681133 16.591684 1.8706403 128 0 0 0 12.09639
13.376457 -11.57218 2.3681123 326 0 0 0 60.89883
13.498005 -11.109999 2.3421175 204 0 0 0 60.504833
12.537642 -9.8153849 2.1375229 417 0 0 0 60.115398
13.003468 -9.6740665 2.1759839 480 0 0 0 59.718361
13.606763 -9.6121788 2.2365491 396 0 0 0 59.330994
14.470147 -9.6971388 2.3376956 8 0 0 0 58.948608
15.90219 -9.5617924 2.0327022 11 0 0 0 58.160839
14.932651 -9.4836311 2.3743787 11 0 0 0 58.547871
15.667058 -9.4173393 2.4532087 176 0 0 0 58.160839
16.3927 -9.3159075 2.0657885 31 0 0 0 57.771191
17.135689 -9.1880951 2.1299963 281 0 0 0 57.37822
18.003633 -9.0905256 2.2088699 211 0 0 0 56.9911
18.970186 -8.9999199 2.2989118 211 0 0 0 56.594048
19.968191 -8.8783989 2.3920331 175 0 0 0 56.20446
21.027216 -8.7362442 2.4917812 170 0 0 0 55.819458
22.123224 -8.5595589 2.0183074 141 0 0 0 55.425041
23.43874 -8.4116879 2.1179035 151 0 0 0 55.04586
24.904406 -8.252018 2.2303317 99 0 0 0 54.652912
26.506233 -8.0648737 2.3542554 122 0 0 0 54.255161
28.279198 -7.8498292 2.4926503 70 0 0 0 53.866489
0.1366698 -6.1383834 2.1920261 105 0 0 0 74.19091
-6.0305591 -5.7463865 2.349045 240 0 0 0 87.488708
-3.5906198 -5.7748599 2.2567551 179.66667 0 0 0 83.445137
-42.645855 -5.2643776 2.4921687 15 0 0 0 97.643135
-6.4554467 -5.3037972 2.3569295 310 0 0 0 88.656387
-5.8473969 -5.1322155 2.1968944 337.33334 0 0 0 88.135658
-3.5341961 -5.2905393 2.3463883 269.5 0 0 0 83.963058
-2.7992024 -5.2333031 2.1175158 110 0 0 0 82.408966
-6.3191023 -4.694942 2.4173994 158.5 0 0 0 89.448334
-5.673429 -4.8990245 2.1175795 368 0 0 0 88.263695
-3.5445912 -4.544847 2.1991577 266 0 0 0 85.135292
-3.4230616 -4.6175914 2.1930611 146 0 0 0 84.738441
-6.7256556 -4.1538858 2.4280539 192.5 0 0 0 90.820267
-6.2333188 -4.1703253 2.2580204 190.25 0 0 0 90.231613
-5.9289846 -4.4047818 2.2693753 163 0 0 0 89.442673
-3.5588517 -4.2348528 2.1122999 248 0 0 0 85.725418
-3.4768486 -4.4579506 2.0195389 239 0 0 0 85.135292
-6.7436261 -3.7197731 2.272737 118 0 0 0 91.588707
-6.4014783 -3.8436699 2.1118178 434 0 0 0 91.020256
-12.972363 -2.920701 2.4331832 59 0 0 0 96.070923
-35.709534 -0.88024843 2.0815954 25 0 0 0 99.200111
-35.432373 -0.0034523341 2.0659943 58 0 0 0 99.592354
8.1534462 6.0911617 2.2734265 343 0 0 0 39.424793
11.19616 6.0128531 2.3619823 221 0 0 0 41.772129
7.8429594 6.8183503 2.3198195 417 0 0 0 38.252918
8.4626245 6.9936352 2.3149459 200 0 0 0 38.650089
8.5866861 6.7467604 2.3033214 179 0 0 0 39.045071
11.563357 6.5811477 2.4705296 294 0 0 0 41.378529
6.9699841 7.3893523 2.3922317 342 0 0 0 36.687649
7.1286616 7.1915846 2.2588444 375 0 0 0 37.08271
8.1883698 7.1139326 2.019367 288 0 0 0 38.252918
8.7290163 7.2114658 2.1064832 190 0 0 0 38.650089
9.4912701 7.0815325 2.2020221 198 0 0 0 39.424793
6.8820968 7.6658731 2.4248443 300 0 0 0 36.299858
7.3534369 7.7887559 2.2570708 173 0 0 0 36.687649
7.9929338 7.6680117 2.3336465 216 0 0 0 37.477768
8.263361 7.5442891 2.3575501 311 0 0 0 37.862926
6.2205148 8.4790468 2.4711583 209 0 0 0 34.730713
6.6465759 8.3847294 2.2521734 290 0 0 0 35.320053
7.0693488 8.2686262 2.2901769 336 0 0 0 35.909206
7.5197783 8.3661423 2.3674376 325 0 0 0 36.299858
8.9458313 8.1621361 2.2489145 86 0 0 0 37.862926
33.693123 8.4321966 2.0925426 56 0 0 0 45.674721
8.9894772 8.6162262 2.3106341 256 0 0 0 37.477768
32.539265 8.9992132 2.0351684 58 0 0 0 45.287781
6.2597356 9.4656305 2.1028194 351 0 0 0 33.958752
6.9084711 9.4029226 2.450644 285 0 0 0 34.730713
6.0613327 9.6754169 2.1144269 97 0 0 0 33.562401
11.257124 10.255217 2.0609677 111 0 0 0 37.862926
-3.0896571 10.856972 2.1870956 568.5 0 0 0 20.297991
-2.6719668 10.895603 2.176089 587 0 0 0 20.878399
-2.2576237 10.931643 2.1674461 611 0 0 0 21.467211
-1.8471231 10.967812 2.1621122 564.5 0 0 0 22.044016
-17.066095 11.337707 2.1127274 91 0 0 0 8.9819803
-1.3051178 11.037845 2.1633177 569 0 0 0 22.831156
-0.76114279 11.091244 2.1665373 587.25 0 0 0 23.61001
-0.21518025 11.139778 2.1739421 638.5 0 0 0 24.390699
0.33537406 11.199267 2.1885431 631 0 0 0 25.175739
0.75332057 11.250292 2.2039261 569.5 0 0 0 25.76325
1.1758194 11.282704 2.2190566 589.75 0 0 0 26.34469
1.7512188 11.345239 2.2479618 578 0 0 0 27.129856
2.3406272 11.402047 2.2815309 618.5 0 0 0 27.905426
2.7945986 11.448295 2.3112173 556 0 0 0 28.49334
3.1030307 11.475193 2.3324823 578 0 0 0 28.883181
3.4218972 11.516245 2.2102625 518 0 0 0 29.27486
3.7428114 11.54474 2.2336597 583 0 0 0 29.66255
4.2374353 11.586713 2.2720518 512 0 0 0 30.24815
4.7495432 11.634622 2.3152578 436 0 0 0 30.835119
5.2919102 11.701065 2.3671207 355.5 0 0 0 31.420013
5.8471732 11.75211 2.4202476 256 0 0 0 31.999109
6.2233052 11.769982 2.4554288 377 0 0 0 32.398392
6.6361179 11.832283 2.3336434 299.5 0 0 0 32.781208
-17.911943 12.546405 2.2550571 171 0 0 0 9.3660603
-17.156895 12.652781 2.2010188 156 0 0 0 9.7586603
-16.415478 12.736004 2.1479292 194 0 0 0 10.1471
-15.773577 12.867048 2.1070533 187 0 0 0 10.53307
-15.819283 13.56442 2.1583643 166 0 0 0 10.93218
-9.1648903 13.578441 2.1244066 159 0 0 0 15.2311
-8.8155432 13.776973 2.1230412 288 0 0 0 15.61167
-17.426201 16.502295 2.4860291 110 0 0 0 11.70004
-16.662149 16.569609 2.4371636 112 0 0 0 12.09639
-15.930159 16.635544 2.3918991 126 0 0 0 12.48507
13.670163 -12.425437 2.9281845 293 0 0 0 61.291302
13.579234 -11.74776 2.848294 291 0 0 0 60.89883
13.482628 -11.097891 2.7722013 303 0 0 0 60.504833
12.61442 -9.8760052 2.7464466 414.5 0 0 0 60.115398
13.054559 -9.7124014 2.5876179 392 0 0 0 59.718361
13.652628 -9.6449032 2.6582303 404 0 0 0 59.330994
14.255055 -9.5537157 2.7288578 342 0 0 0 58.948608
16.364656 -9.296545 2.5256491 281 0 0 0 57.771191
17.195751 -9.2166634 2.6176348 260 0 0 0 57.37822
18.057236 -9.1138506 2.7133081 261 0 0 0 56.9911
18.976517 -8.9991055 2.8167541 182 0 0 0 56.594048
19.994024 -8.8859043 2.9337859 199 0 0 0 56.20446
22.219704 -8.5970049 2.6064951 133 0 0 0 55.425041
23.522299 -8.4417896 2.7332444 134 0 0 0 55.04586
24.981974 -8.2778196 2.8773503 116 0 0 0 54.652912
30.24802 -7.6003375 2.6476212 65 0 0 0 53.481541
-42.83419 -6.3583961 2.5100029 15 0 0 0 97.249847
-6.6387463 -5.5924945 2.7676191 68 0 0 0 88.460037
-6.4509964 -5.8543477 2.6694365 45 0 0 0 87.879585
-6.8331308 -5.2035642 2.8460307 92.5 0 0 0 89.248848
-6.3598928 -5.2271471 2.8280835 126.5 0 0 0 88.656387
-5.6730714 -5.1465902 2.5401335 166 0 0 0 87.879585
-8.1633854 -4.6325388 2.6467741 217 0 0 0 91.398659
-7.3171892 -4.6409221 2.8721249 70 0 0 0 90.62027
-6.9749465 -4.6675301 2.7824788 44 0 0 0 90.232269
-5.9042268 -4.6167717 2.6706691 113 0 0 0 89.055023
49.384132 -4.8968811 2.9624593 7 0 0 0 51.132881
-7.7616959 -4.1582499 2.7017858 71 0 0 0 91.778755
-7.1379538 -4.167141 2.7419717 213 0 0 0 91.209457
-6.7650471 -4.2913055 2.8549728 66 0 0 0 90.626266
-6.1862655 -4.144484 2.7142868 65.333336 0 0 0 90.231392
-5.9827828 -4.2228537 2.7900219 57 0 0 0 89.841637
-7.2752447 -3.8961787 2.7382822 17 0 0 0 91.778755
-6.5696082 -3.5214863 2.6588814 70 0 0 0 91.778755
-6.3999405 -3.845834 2.8453283 87 0 0 0 91.020256
-13.136727 -2.6206167 2.7810662 16 0 0 0 96.472702
-13.124188 -2.2846315 2.7663789 22 0 0 0 96.858795
8.13766 5.7750902 2.7249002 359.5 0 0 0 39.821659
10.929629 5.5314603 2.8820918 228 0 0 0 42.162647
11.141475 5.9842997 2.6630914 272 0 0 0 41.772129
12.530694 5.9510503 2.5746636 172 0 0 0 42.54887
7.68367 6.358685 2.8471088 176 0 0 0 38.650089
8.5956526 6.4217272 2.7926235 315 0 0 0 39.424793
9.5857487 6.4461374 2.7190583 198 0 0 0 40.20816
12.380334 6.2581949 2.5744894 128 0 0 0 42.162647
14.402004 6.4066639 2.9198079 57 0 0 0 42.949322
6.8530822 6.808495 2.7556572 269.66666 0 0 0 37.214397
7.6100602 6.7328148 2.8151462 241.66667 0 0 0 38.122921
8.7805195 6.9018669 2.7674935 273 0 0 0 39.045071
10.490377 6.6820602 2.9245679 217 0 0 0 40.597328
10.779311 6.8617501 2.6893711 278 0 0 0 40.597328
11.247319 6.7749434 2.7626057 266 0 0 0 40.992599
6.9020152 7.3199635 2.8687906 339 0 0 0 36.687649
7.6992183 7.2727227 2.8417237 264 0 0 0 37.606155
8.1029434 7.40237 2.5829377 339 0 0 0 37.862926
8.5272923 7.0510149 2.8775403 223 0 0 0 38.650089
10.428832 7.0065312 2.6446986 280 0 0 0 40.20816
10.534968 7.4604001 2.715728 164 0 0 0 39.821659
18.287912 7.0719728 2.6484833 102 0 0 0 43.717178
6.7503829 7.6457019 2.821703 289 0 0 0 36.16964
7.0754509 7.5013185 2.6819842 308 0 0 0 36.687649
7.9232264 7.6052775 2.5841057 52 0 0 0 37.477768
9.5640249 7.9018226 2.9150376 156 0 0 0 38.650089
19.140459 7.9475298 2.796839 38 0 0 0 43.332287
6.195507 8.4466677 2.7197986 317 0 0 0 34.730713
33.565895 8.407733 2.9476893 39 0 0 0 45.674721
5.940691 8.5336494 2.6991224 247 0 0 0 34.346889
19.199209 8.5315561 2.8344579 39 0 0 0 42.949322
6.571701 9.4294052 2.6958814 164 0 0 0 34.346889
32.591103 9.0208025 2.8816683 48 0 0 0 45.287781
31.868225 9.6704187 2.8385468 63 0 0 0 44.895679
-3.0829415 10.816271 2.7291999 485 0 0 0 20.297991
-2.669189 10.865185 2.7176456 487 0 0 0 20.878399
-2.2568336 10.905425 2.7073326 560.5 0 0 0 21.467211
-1.8475314 10.943325 2.7006164 534 0 0 0 22.044014
-1.4400415 10.981178 2.6971362 535.5 0 0 0 22.63349
7.1636605 10.821307 2.7188847 198 0 0 0 33.958752
-1.1691234 11.007292 2.6972466 549.5 0 0 0 23.02882
-0.76275265 11.048223 2.7009134 534.5 0 0 0 23.610012
-0.21898177 11.106712 2.7120972 540.5 0 0 0 24.390701
0.32987934 11.166908 2.7299824 517.5 0 0 0 25.175739
0.74609727 11.210321 2.7470713 553 0 0 0 25.76325
1.1678978 11.249227 2.7673135 549.5 0 0 0 26.34469
1.7400146 11.302582 2.8006148 506.75 0 0 0 27.129856
2.3286281 11.366109 2.8437982 499.75 0 0 0 27.905426
2.7824638 11.415339 2.737128 494 0 0 0 28.49334
3.247792 11.459998 2.7765679 494.5 0 0 0 29.079021
3.4165065 11.502441 2.5031691 524 0 0 0 29.27486
3.7308931 11.517508 2.674819 488.5 0 0 0 29.66255
4.2248306 11.560568 2.72089 440.25 0 0 0 30.248152
4.7406883 11.616246 2.6207924 522 0 0 0 30.835119
5.0902472 11.642392 2.6549885 468 0 0 0 31.229389
8.6775894 12.414856 2.79389 127 0 0 0 34.346889
-17.868391 12.508918 2.7831399 165 0 0 0 9.3660603
-17.083517 12.591565 2.7107751 170 0 0 0 9.7586603
-16.369738 12.693498 2.6486294 183 0 0 0 10.1471
-15.714365 12.811613 2.595089 184 0 0 0 10.53307
-15.737214 13.486439 2.6542337 146 0 0 0 10.93218
-7.8768206 13.73909 2.8414905 169 0 0 0 16.395491
-7.4628048 13.78787 2.8153143 105 0 0 0 16.777929
-18.198914 16.409294 2.5351355 130 0 0 0 11.31364
-16.587593 16.486202 2.9987233 90 0 0 0 12.09639
-15.915941 16.61162 2.9528055 119 0 0 0 12.48507
-15.244222 16.709793 2.9060826 110 0 0 0 12.87861
-15.20743 17.515106 2.9820218 94 0 0 0 13.27166
14.008581 -14.753441 3.2171671 160 0 0 0 62.457958
13.897193 -13.935483 3.1146362 268 0 0 0 62.071918
13.77729 -13.153951 3.0169735 282 0 0 0 61.678673
13.761539 -12.508928 3.4084101 211 0 0 0 61.291302
13.640701 -11.801384 3.3080785 289 0 0 0 60.89883
13.565947 -11.16683 3.2246239 321 0 0 0 60.504833
12.727904 -9.9652958 3.3690257 354 0 0 0 60.115398
13.107172 -9.7520809 3.2042956 368.5 0 0 0 59.718361
13.683734 -9.6672277 3.0795724 306 0 0 0 59.330994
14.329353 -9.603776 3.170557 318 0 0 0 58.948608
15.024723 -9.5427017 3.2712357 282 0 0 0 58.547871
-9.7898083 -9.328661 3.1262755 51 0 0 0 87.488708
16.430084 -9.3339529 3.003963 184 0 0 0 57.771191
17.237286 -9.2391787 3.1086318 239 0 0 0 57.37822
18.115583 -9.1435175 3.2249467 211 0 0 0 56.9911
19.017933 -9.0189562 3.3445582 189 0 0 0 56.594048
20.073725 -8.9214869 3.489846 154 0 0 0 56.20446
21.10392 -8.7639408 3.0633755 172 0 0 0 55.819458
22.309975 -8.6275797 3.2059033 134 0 0 0 55.425041
23.616684 -8.4711151 3.3618522 119 0 0 0 55.04586
26.627768 -8.1019077 3.0419199 89 0 0 0 54.255161
28.364407 -7.8735294 3.2160997 78 0 0 0 53.866489
30.431877 -7.6465168 3.4267318 67 0 0 0 53.481541
-6.8495498 -5.090333 3.0370057 41 0 0 0 89.442673
-6.5441775 -4.8634658 3.1025469 25 0 0 0 89.442673
-7.1209126 -3.5948975 3.0389547 49 0 0 0 92.171295
-42.56649 1.0459377 3.2693636 18 0 0 0 0
-42.749531 2.0983152 3.2871604 36 0 0 0 0.40303999
-42.753235 3.1490028 3.293422 28 0 0 0 0.78534001
-44.411961 4.3669581 3.4284627 19 0 0 0 1.17282
-41.179573 5.0685315 3.1910505 23 0 0 0 1.5683399
8.4887733 5.7166567 3.1749215 276 0 0 0 40.20816
7.5489473 6.2509899 3.0408735 238 0 0 0 38.650089
8.6876993 6.4908671 3.0927243 228 0 0 0 39.424793
14.58193 6.0615501 3.3151007 53 0 0 0 43.332287
6.9190578 6.9873939 3.2929435 222 0 0 0 37.08271
7.2505622 6.7417808 3.2336185 221.66667 0 0 0 37.734543
7.5518894 6.5735221 3.10483 148 0 0 0 38.252918
8.5294037 6.7101803 3.3625796 270 0 0 0 39.045071
11.40845 6.8758664 3.4575901 206 0 0 0 40.992599
12.268394 6.5903864 3.2701952 64 0 0 0 41.772129
13.832344 6.9900432 3.2537689 157 0 0 0 42.162647
14.083443 6.6863627 3.2730284 91 0 0 0 42.54887
7.2108827 7.281239 3.1749775 146 0 0 0 37.08271
11.907363 7.1743836 3.2638509 128 0 0 0 40.992599
12.600009 7.1693892 3.0458868 198 0 0 0 41.378529
17.704678 7.3537002 3.0660303 60 0 0 0 43.332287
6.2188249 7.6649313 3.0568166 136 0 0 0 35.519562
6.5266013 7.6489477 3.1139801 262 0 0 0 35.909206
9.6085405 7.5501585 3.4785709 225 0 0 0 39.045071
10.698149 7.5790911 3.0795863 144 0 0 0 39.821659
17.397327 7.7337594 3.0449786 100 0 0 0 42.949322
18.481312 8.76507 3.2679863 73 0 0 0 42.54887
-10.267709 10.159387 3.2786825 128 0 0 0 12.09639
-9.7567959 10.13555 3.1957786 176 0 0 0 12.48507
-9.3149729 10.160847 3.1335111 107 0 0 0 12.87861
-3.2163923 10.767199 3.2798038 445.5 0 0 0 20.102516
-2.663141 10.82508 3.2573061 464.75 0 0 0 20.878399
-2.252244 10.865172 3.2445788 472.5 0 0 0 21.467211
-1.8448282 10.905643 3.2369914 442 0 0 0 22.044016
-1.3038733 10.958561 3.2330787 434.75 0 0 0 22.831156
-0.89989847 10.98977 3.3680086 415 0 0 0 23.41111
7.1814537 10.853967 3.0459292 196 0 0 0 33.958752
-0.71870261 11.024075 3.1946471 474 0 0 0 23.67631
-0.22187825 11.069687 3.2498052 486.25 0 0 0 24.390701
0.32493776 11.123404 3.2691014 484.75 0 0 0 25.175739
0.73930049 11.162554 3.2881913 464.5 0 0 0 25.76325
1.1591067 11.200558 3.3117597 455 0 0 0 26.34469
1.6803132 11.241702 3.2985713 497 0 0 0 27.066084
2.3138418 11.30542 3.2575743 444.5 0 0 0 27.905426
2.7681618 11.365191 3.1577425 409 0 0 0 28.49334
3.2385364 11.433022 3.0621703 375.5 0 0 0 29.079021
3.6977284 11.425737 3.0961866 581 0 0 0 29.66255
-17.064053 12.574917 3.2295947 192 0 0 0 9.7586603
-16.334057 12.663414 3.1517529 178 0 0 0 10.1471
-15.663715 12.767776 3.0843198 174 0 0 0 10.53307
-15.653563 13.411888 3.1478279 141 0 0 0 10.93218
-8.711628 13.603395 3.2894473 162 0 0 0 15.61167
-15.985243 14.392887 3.2858868 123 0 0 0 11.31364
-16.070692 15.200949 3.3808227 112 0 0 0 11.70004
-18.175858 16.379654 3.1307974 107 0 0 0 11.31364
-17.363098 16.43343 3.062216 138 0 0 0 11.70004
-16.167723 16.063564 3.4849014 77 0 0 0 12.09639
-15.196661 16.654076 3.4526381 90 0 0 0 12.87861
-15.314397 18.540779 3.093097 58 0 0 0 13.66033
-14.367146 19.241385 3.0941141 72 0 0 0 14.44328
-14.129359 19.925621 3.1496131 44 0 0 0 14.83678
14.256277 -15.771663 3.885581 23 0 0 0 62.851089
14.032031 -14.778893 3.7274954 50 0 0 0 62.457958
13.973943 -14.01302 3.6220405 216 0 0 0 62.071918
13.859201 -13.232663 3.5095644 266 0 0 0 61.678673
13.711864 -12.464491 3.8528235 107 0 0 0 61.291302
13.724607 -11.874377 3.7753522 316 0 0 0 60.89883
13.63813 -11.226629 3.6768465 286 0 0 0 60.504833
12.780503 -10.003222 3.7802584 317 0 0 0 60.115398
13.167109 -9.7936249 3.8228641 302 0 0 0 59.718361
13.740277 -9.7058821 3.7129488 309.5 0 0 0 59.330994
14.369966 -9.6313152 3.6058044 270 0 0 0 58.948608
16.537254 -9.3953543 3.9637341 142 0 0 0 57.771191
17.268436 -9.2561398 3.6000068 212 0 0 0 57.37822
18.164665 -9.1685171 3.7381275 209 0 0 0 56.9911
19.098614 -9.0573931 3.8827276 160 0 0 0 56.594048
21.180395 -8.7958498 3.6428373 145 0 0 0 55.819458
22.364342 -8.648756 3.8080146 153 0 0 0 55.425041
23.658375 -8.4862127 3.990768 120 0 0 0 55.04586
25.074381 -8.3036699 3.5382485 116 0 0 0 54.652912
26.68247 -8.1135483 3.7348249 87 0 0 0 54.255161
28.539127 -7.9166727 3.9649594 74 0 0 0 53.866489
-35.885536 -0.0093554435 3.8576083 18 0 0 0 99.592354
8.636467 6.3488941 3.7651632 216.33333 0 0 0 39.557083
11.25423 6.4132009 3.8460445 168 0 0 0 41.378529
7.6362195 6.9893184 3.9753036 174 0 0 0 37.862926
8.4655418 6.8331223 3.7742867 199 0 0 0 38.84758
6.828331 7.2511158 3.701334 90.5 0 0 0 36.687649
7.2203999 7.174912 3.8260911 190.33333 0 0 0 37.214397
11.029263 7.2194471 3.7507305 135 0 0 0 40.402744
11.799919 7.3115892 3.7738533 91 0 0 0 40.794964
12.822261 7.2999845 3.8253393 64 0 0 0 41.378529
9.0217342 7.8419394 3.9948995 129 0 0 0 38.252918
11.424129 7.6765766 3.5704041 192 0 0 0 40.20816
13.302414 7.5713973 3.5894146 40 0 0 0 41.378529
17.207727 7.6514621 3.9446664 66 0 0 0 42.949322
18.340759 7.6180649 3.6676419 88 0 0 0 43.332287
7.7300467 8.398344 3.5303564 206.5 0 0 0 36.493752
8.0022802 8.4796944 3.894974 219 0 0 0 36.687649
33.696232 8.4414196 3.8042099 38 0 0 0 45.674721
32.63512 9.0340872 3.7094724 86 0 0 0 45.287781
7.6062245 9.8431606 3.8396842 82 0 0 0 35.120541
31.861649 9.669589 3.6481879 64 0 0 0 44.895679
-10.156055 10.045086 3.7672248 295.5 0 0 0 12.09639
-9.7145424 10.088341 3.6959379 284.5 0 0 0 12.48507
31.16386 10.301354 3.5967605 63 0 0 0 44.5023
-3.6302795 10.691351 3.8469763 403 0 0 0 19.518841
-3.2097406 10.732353 3.8199208 388.5 0 0 0 20.102516
-2.6593778 10.794664 3.79496 370 0 0 0 20.878399
-2.2494116 10.833835 3.7796023 360 0 0 0 21.467211
-1.8398987 10.853827 3.7633262 389.75 0 0 0 22.044016
-1.3003869 10.896698 3.7548604 425.75 0 0 0 22.831156
-0.76269919 10.979849 3.6348948 411.5 0 0 0 23.61001
-0.22220135 11.015551 3.6419039 412 0 0 0 24.390701
0.18494725 11.034902 3.6501236 528 0 0 0 24.98308
0.73243535 11.078582 3.674958 5 0 0 0 25.76325
1.2057445 11.634311 3.8722773 223.5 0 0 0 26.34469
1.6418514 11.633441 3.8915782 311 0 0 0 26.93854
2.7095652 11.758023 3.7030437 291 0 0 0 28.298599
3.685848 11.881453 3.5148761 301.5 0 0 0 29.468704
-17.015863 12.53699 3.7409079 122 0 0 0 9.7586603
-16.282969 12.62133 3.6491785 155 0 0 0 10.1471
-15.60894 12.720571 3.5693474 162 0 0 0 10.53307
-15.575632 13.342294 3.6372635 118 0 0 0 10.93218
-15.877994 14.293129 3.7901485 118 0 0 0 11.31364
-15.999881 15.130759 3.9084895 80 0 0 0 11.70004
-12.513058 15.120431 3.9785328 16 0 0 0 13.66033
10.846425 15.499073 3.9453897 78 0 0 0 34.346889
-15.902319 16.594114 3.516645 80 0 0 0 12.48507
-15.155209 16.605108 3.9972477 77 0 0 0 12.87861
-15.11413 17.403528 3.5319319 51 0 0 0 13.27166
-15.219577 18.421539 3.6630774 67 0 0 0 13.66033
-15.005026 19.097994 3.725497 83 0 0 0 14.05331
-14.326058 19.181885 3.6755393 90 0 0 0 14.44328
14.354886 -15.881416 4.4395041 27 0 0 0 62.851089
14.300822 -15.062214 4.309751 7 0 0 0 62.457958
14.281281 -14.321313 4.1990466 11 0 0 0 62.071918
13.963352 -13.332566 4.0112777 31 0 0 0 61.678673
13.999051 -12.721132 4.3957067 29 0 0 0 61.291302
13.93975 -12.056414 4.2851181 25 0 0 0 60.89883
13.904708 -11.442016 4.1888361 17 0 0 0 60.504833
48.432293 -10.905878 4.1930408 11 0 0 0 53.08728
12.840486 -10.050501 4.1989164 293 0 0 0 60.115398
13.181495 -9.8047209 4.2311349 236 0 0 0 59.718361
13.795385 -9.743516 4.3498816 260 0 0 0 59.330994
14.42686 -9.6662846 4.259325 237 0 0 0 58.948608
-9.7052736 -9.2496767 4.2563677 182.5 0 0 0 87.488708
17.336552 -9.2928734 4.0989203 185 0 0 0 57.37822
18.211308 -9.1922865 4.2504926 179 0 0 0 56.9911
19.187674 -9.0997982 4.4241395 166 0 0 0 56.594048
20.071848 -8.9208803 4.034205 162 0 0 0 56.20446
21.237556 -8.8197556 4.2228146 114 0 0 0 55.819458
22.448374 -8.6813869 4.419024 121 0 0 0 55.425041
25.136389 -8.3243151 4.20328 88 0 0 0 54.652912
26.750395 -8.1342869 4.4373169 76 0 0 0 54.255161
30.581993 -7.6785517 4.2198787 50 0 0 0 53.481541
-52.38216 -1.2998376 4.341783 20 0 0 0 99.200111
12.870914 6.3168387 4.4311914 144 0 0 0 42.355759
8.3712807 6.591382 4.091959 193 0 0 0 39.045071
10.227259 6.8814158 4.2704635 129.5 0 0 0 40.20816
10.549683 6.7228084 4.1816578 132 0 0 0 40.597328
12.90484 6.9324756 4.1639543 118 0 0 0 41.772129
8.7391634 7.2338948 4.0738502 174 0 0 0 38.650089
9.0035057 7.4522877 4.4832726 163 0 0 0 38.650089
10.002606 7.0921764 4.0988822 170 0 0 0 39.821659
8.2468853 7.9246435 4.1047621 116 0 0 0 37.477768
8.7547693 7.7456307 4.2915435 172.66667 0 0 0 38.122921
9.7475948 7.6607156 4.142746 110 0 0 0 39.045071
11.921112 7.5945125 4.3674202 99 0 0 0 40.597328
-10.10321 9.9860344 4.269022 247 0 0 0 12.09639
31.950466 9.7037849 4.4811482 72 0 0 0 44.895679
-9.6791496 10.044836 4.1943474 240 0 0 0 12.48507
-9.261425 10.093178 4.2894192 259.5 0 0 0 12.87861
31.169371 10.310443 4.4065027 67 0 0 0 44.5023
-4.1729078 10.548218 4.2764015 424 0 0 0 18.732401
-3.8004544 10.606486 4.1582456 360.33334 0 0 0 19.253759
-3.1879091 10.644066 4.1964235 279 0 0 0 20.102516
30.411711 10.896758 4.3365345 62 0 0 0 44.113781
-1.7742146 11.303081 4.3307252 215 0 0 0 22.23918
-1.350678 11.308672 4.3141251 290 0 0 0 22.831154
-0.9338057 11.3656 4.3221459 145 0 0 0 23.41111
-0.092340894 11.467335 4.0707326 285 0 0 0 24.58674
0.19019459 11.483859 4.0786533 305 0 0 0 24.98308
0.4739643 11.502859 4.0898924 231 0 0 0 25.368401
-16.990396 12.515924 4.251657 164 0 0 0 9.7586603
-16.274551 12.612532 4.1510639 157 0 0 0 10.1471
-15.599269 12.710369 4.0594583 207 0 0 0 10.53307
-15.112387 12.933882 4.499794 124 0 0 0 10.93218
-15.455768 13.23661 4.1073298 133 0 0 0 10.93218
-14.496046 13.032581 4.4123931 156 0 0 0 11.31364
-13.870642 13.096257 4.3207664 165 0 0 0 11.70004
-15.826288 14.243706 4.2990007 108 0 0 0 11.31364
4.0058823 14.773044 4.3126049 243 0 0 0 28.883181
5.2549305 14.909352 4.0647097 186 0 0 0 30.053631
-15.906094 15.038766 4.4215374 90 0 0 0 11.70004
-13.447564 15.467046 4.1510687 17 0 0 0 13.27166
-16.06546 15.95836 4.0209017 91 0 0 0 12.09639
-15.341147 15.999049 4.4820838 20 0 0 0 12.48507
-14.26328 15.619025 4.2806458 15 0 0 0 12.87861
-15.858535 16.54497 4.0717421 85 0 0 0 12.48507
-14.976713 17.2409 4.0627947 69 0 0 0 13.27166
-15.103498 18.276472 4.2196846 60 0 0 0 13.66033
-14.983149 19.065973 4.3178773 64 0 0 0 14.05331
14.115525 -19.083012 4.9120078 120 0 0 0 64.421753
14.740342 -18.937019 4.9673381 192 0 0 0 64.019897
14.741576 -18.009745 4.8201528 18 0 0 0 63.63158
14.379388 -15.14032 4.8441749 7 0 0 0 62.457958
14.306446 -14.342241 4.7021718 7 0 0 0 62.071918
14.014879 -13.377665 4.500175 35 0 0 0 61.678673
14.001133 -12.723648 4.8616333 10 0 0 0 61.291302
14.055459 -12.156845 4.7773905 34 0 0 0 60.89883
13.945293 -11.475867 4.645153 16 0 0 0 60.504833
12.913981 -10.108339 4.6309338 285 0 0 0 60.115398
13.223289 -9.8361616 4.6546788 253 0 0 0 59.718361
13.80725 -9.752284 4.774415 245 0 0 0 59.330994
14.45812 -9.6877623 4.915473 235 0 0 0 58.948608
-9.6529617 -9.2046137 4.7266455 118 0 0 0 87.488708
17.39819 -9.3222303 4.5970526 178 0 0 0 57.37822
18.254702 -9.2104206 4.761622 175 0 0 0 56.9911
19.194225 -9.099041 4.9462538 128 0 0 0 56.594048
20.168278 -8.9638844 4.5974641 151 0 0 0 56.20446
21.27 -8.8334141 4.7969699 130 0 0 0 55.819458
23.747065 -8.5181408 4.6311989 95 0 0 0 55.04586
25.235558 -8.3572483 4.8789215 80 0 0 0 54.652912
28.666414 -7.9520149 4.7198915 69 0 0 0 53.866489
-46.402294 -2.2919471 4.9813323 42 0 0 0 98.809891
-35.118942 -0.01509598 4.639935 28 0 0 0 99.592354
10.264268 6.9100637 4.7457199 165 0 0 0 40.20816
12.926201 6.9476142 4.533659 157 0 0 0 41.772129
9.6354942 7.2034187 4.6145315 128 0 0 0 39.424793
11.426247 7.2851348 4.8595366 93 0 0 0 40.597328
12.309332 7.4189892 4.797523 62 0 0 0 40.992599
12.861533 7.3247952 4.9396234 98 0 0 0 41.378529
12.89648 7.7735677 4.6500773 101 0 0 0 40.992599
18.319744 7.614861 4.6405749 62 0 0 0 43.332287
33.647873 8.4366617 4.6536198 55 0 0 0 45.674721
11.714383 8.7426186 4.5133767 57 0 0 0 39.424793
12.094764 8.5699139 4.5768824 68 0 0 0 39.821659
18.427374 8.7464943 4.7694845 68 0 0 0 42.54887
19.117908 8.5034113 4.8915353 88 0 0 0 42.949322
8.1212139 9.0489206 4.6574564 131 0 0 0 36.299858
32.726959 9.0667686 4.5566645 64 0 0 0 45.287781
-10.076818 9.9568958 4.7775989 200.5 0 0 0 12.09639
-9.6615448 10.023514 4.697413 214 0 0 0 12.48507
-9.2273788 10.047493 4.7717004 159 0 0 0 12.87861
-16.967852 12.492485 4.7582173 120 0 0 0 9.7586603
-16.244492 12.582358 4.6428499 141 0 0 0 10.1471
-15.535434 12.651293 4.5298352 138 0 0 0 10.53307
-15.088378 12.910877 4.9773178 159 0 0 0 10.93218
-14.455483 12.993507 4.8744431 168 0 0 0 11.31364
-13.853765 13.077793 4.7804861 159 0 0 0 11.70004
10.304396 13.997519 4.9171162 133 0 0 0 34.730713
0.62463391 14.540799 4.8044562 107 0 0 0 25.368401
2.4674015 14.728615 4.5687981 125 0 0 0 27.321171
2.8462129 14.747715 4.7830176 95 0 0 0 27.706989
4.2044563 14.793754 4.7129784 214 0 0 0 29.079021
4.8199763 14.850858 4.7864199 187 0 0 0 29.66255
5.2413073 14.88829 4.8400383 164 0 0 0 30.053631
5.6687636 14.91748 4.8948245 170 0 0 0 30.442671
-15.969235 15.859244 4.5479584 82 0 0 0 12.09639
-43.818077 16.861376 4.7688279 16 0 0 0 5.4675102
14.8361 -18.119629 5.4236588 91 0 0 0 63.63158
14.66562 -16.219717 5.0697355 6 0 0 0 62.851089
14.575415 -15.347127 5.430069 8 0 0 0 62.457958
14.111162 -13.470056 5.0105405 43 0 0 0 61.678673
14.130952 -12.842004 5.3815112 35 0 0 0 61.291302
14.07306 -12.172626 5.2464199 26 0 0 0 60.89883
13.98587 -11.509723 5.109375 19 0 0 0 60.504833
48.92004 -11.015619 5.4543362 13 0 0 0 53.08728
12.977085 -10.154411 5.0588331 221 0 0 0 60.115398
13.243278 -9.847827 5.0678215 202 0 0 0 59.718361
13.862793 -9.7882013 5.211153 199 0 0 0 59.330994
14.504655 -9.7155895 5.3609152 175 0 0 0 58.948608
15.165132 -9.6294289 5.073575 163 0 0 0 58.547871
15.903345 -9.5573559 5.2400503 183 0 0 0 58.160839
16.635979 -9.4484529 5.4030452 171 0 0 0 57.771191
17.407692 -9.3276138 5.0854831 189 0 0 0 57.37822
18.276339 -9.221591 5.2709284 155 0 0 0 56.9911
19.236591 -9.1193361 5.4809208 109 0 0 0 56.594048
20.213717 -8.9800377 5.1498694 111 0 0 0 56.20446
21.341042 -8.8586998 5.3792405 120 0 0 0 55.819458
22.557833 -8.723834 5.0366044 129 0 0 0 55.425041
23.858019 -8.5580416 5.277492 102 0 0 0 55.04586
26.885021 -8.1752787 5.1562819 72 0 0 0 54.255161
28.801594 -7.9895439 5.4831429 55 0 0 0 53.866489
30.764893 -7.7244596 5.031146 48 0 0 0 53.481541
-52.396557 1.288249 5.2868352 9 0 0 0 0
12.247882 6.9839654 5.4019799 97 0 0 0 41.378529
12.681789 6.8215628 5.3377504 74 0 0 0 41.772129
11.038301 7.0397267 5.0188894 92 0 0 0 40.597328
12.271826 7.4031863 5.1371665 114 0 0 0 40.992599
12.524119 7.1400118 5.1675467 98 0 0 0 41.378529
10.672998 7.5724216 5.0157914 67 0 0 0 39.821659
18.550394 8.8057327 5.3069205 67 0 0 0 42.54887
32.770363 9.0799198 5.4058981 50 0 0 0 45.287781
-10.010594 9.8846331 5.2584367 204 0 0 0 12.09639
-9.5876207 9.9397774 5.1643381 213 0 0 0 12.48507
-9.1844006 9.9982948 5.0792966 255 0 0 0 12.87861
18.938875 9.5676756 5.4818668 30 0 0 0 42.162647
32.016228 9.7249212 5.3200526 56 0 0 0 44.895679
31.221455 10.328886 5.2293262 59 0 0 0 44.5023
30.505053 10.93144 5.1533332 50 0 0 0 44.113781
29.754219 11.495926 5.0732584 44 0 0 0 43.717178
-16.182173 12.531595 5.1245728 55 0 0 0 10.1471
-15.529053 12.643808 5.0166907 139 0 0 0 10.53307
-15.255953 12.730885 5.4704103 154 0 0 0 10.732625
-14.422491 12.961266 5.3420563 160 0 0 0 11.31364
-13.82043 13.043673 5.2381663 131 0 0 0 11.70004
4.32617 13.37068 5.3504753 150 0 0 0 29.66255
4.6914697 13.365038 5.3943782 211 0 0 0 30.053631
5.2908168 13.450837 5.3280864 193 0 0 0 30.638895
5.8961935 13.501808 5.2527604 223 0 0 0 31.229389
6.3050146 13.518189 5.3192191 117 0 0 0 31.61064
9.7301378 13.932545 5.2262168 112 0 0 0 34.346889
10.260793 13.94601 5.3252668 118 0 0 0 34.730713
-3.6207414 14.029764 5.4676375 198 0 0 0 20.68144
-3.2628498 14.060016 5.4489536 226 0 0 0 21.075359
-2.717648 14.036299 5.401361 186 0 0 0 21.658031
-1.1490448 14.231368 5.053967 239 0 0 0 23.41111
-0.80065906 14.275337 5.2379236 212 0 0 0 23.80891
-0.33269048 14.327563 5.3121452 217.66667 0 0 0 24.325354
0.25555128 14.411971 5.4630852 244 0 0 0 24.98308
0.61145329 14.433746 5.477313 253 0 0 0 25.368401
5.1774387 14.17572 5.3755503 94 0 0 0 30.24815
6.2784138 14.350585 5.1970515 85 0 0 0 31.229389
10.852424 14.004408 5.0126367 71 0 0 0 35.120541
2.2640967 14.653433 5.2667232 163 0 0 0 27.129856
2.8410997 14.753773 5.3390751 9 0 0 0 27.706989
3.2186387 14.748329 5.3660097 11 0 0 0 28.103861
3.6228633 14.806314 5.0459466 156 0 0 0 28.49334
4.1982999 14.781472 5.278162 143.5 0 0 0 29.079021
4.7674417 14.698193 5.3084679 135.5 0 0 0 29.66255
5.2329183 14.861012 5.221848 179 0 0 0 30.053631
5.6572332 14.88389 5.278707 169 0 0 0 30.442671
6.0126057 14.717459 5.2724361 84 0 0 0 30.835119
15.717107 -22.370876 5.6504083 153 0 0 0 64.805496
14.249081 -19.257406 5.5439367 90 0 0 0 64.421753
14.781425 -18.984024 5.5695481 151 0 0 0 64.019897
14.721727 -17.107735 5.7847495 106 0 0 0 63.248581
14.563268 -16.107641 5.5685844 136 0 0 0 62.851089
14.509999 -15.279224 5.9301996 132 0 0 0 62.457958
14.297871 -14.335175 5.7010565 164 0 0 0 62.071918
14.204022 -13.559208 5.5318975 35 0 0 0 61.678673
14.067041 -12.780201 5.8248377 143 0 0 0 61.291302
14.095499 -12.188274 5.7131157 17 0 0 0 60.89883
14.12798 -11.62281 5.6109529 25 0 0 0 60.504833
13.936305 -11.47009 5.9837241 145 0 0 0 60.504833
13.071342 -10.232123 5.5075493 83 0 0 0 60.115398
13.30398 -9.8934946 5.705739 181.5 0 0 0 59.718361
13.908116 -9.8241758 5.650949 167 0 0 0 59.330994
14.541584 -9.7443371 5.809176 137 0 0 0 58.948608
15.19653 -9.6480141 5.7509928 163 0 0 0 58.547871
15.899609 -9.5516825 5.6955242 133 0 0 0 58.160839
16.717865 -9.4913235 5.9028125 121 0 0 0 57.771191
17.470211 -9.3613482 5.5971045 138 0 0 0 57.37822
18.332218 -9.2500076 5.7982001 120 0 0 0 56.9911
20.311378 -9.023572 5.7214489 107 0 0 0 56.20446
21.445322 -8.9021196 5.9766893 93 0 0 0 55.819458
22.595844 -8.7341614 5.6388583 99 0 0 0 55.425041
23.976059 -8.5957537 5.927783 82 0 0 0 55.04586
-14.486961 -8.2259331 5.9027615 60 0 0 0 91.398659
25.364765 -8.4001131 5.5623856 80 0 0 0 54.652912
27.036652 -8.2214336 5.8817754 85 0 0 0 54.255161
30.830154 -7.7408705 5.8299732 39 0 0 0 53.481541
-53.145046 -1.3185035 5.6962838 8 0 0 0 99.200111
-35.894093 -0.015221165 5.63025 14 0 0 0 99.592354
-58.018505 4.2762046 5.8679352 15 0 0 0 0.78534001
12.41359 7.4892159 5.5529008 78 0 0 0 40.992599
14.677058 7.8826275 5.5542922 75 0 0 0 41.772129
33.725517 8.4572077 5.5264435 48 0 0 0 45.674721
18.920835 8.9821472 5.9341216 31 0 0 0 42.54887
19.30615 8.588398 5.7206726 30.5 0 0 0 42.949322
18.294338 9.2439795 5.8080235 36 0 0 0 42.162647
30.540028 10.945245 5.964077 58 0 0 0 44.113781
29.821054 11.52305 5.8777456 59 0 0 0 43.717178
-15.240913 12.711649 5.949214 138 0 0 0 10.732625
-14.409037 12.942194 5.8094873 143 0 0 0 11.31364
-13.781387 12.999629 5.6854258 157 0 0 0 11.70004
5.4816356 13.451862 5.5345144 178 0 0 0 30.835119
5.8903127 13.491793 5.610249 173 0 0 0 31.229389
3.67644 14.307092 5.6176081 95 0 0 0 28.688259
4.1549568 14.001554 5.5570989 79 0 0 0 29.27486
0.97408515 14.522346 5.520083 68 0 0 0 25.76325
2.2603407 14.639693 5.6249752 6.5 0 0 0 27.129856
2.8249078 14.679374 5.678854 176 0 0 0 27.706989
3.198669 14.665543 5.7041698 139 0 0 0 28.103861
14.259944 -22.569382 6.1685905 129 0 0 0 65.589691
14.998256 -22.495417 6.2485433 120 0 0 0 65.195702
15.758272 -22.422508 6.3352418 131 0 0 0 64.805496
14.814718 -19.027864 6.1748605 135 0 0 0 64.019897
14.918838 -18.221561 6.0326557 100 0 0 0 63.63158
14.821326 -17.224253 6.3889475 116 0 0 0 63.248581
14.675712 -16.232677 6.155726 104 0 0 0 62.851089
14.486836 -14.519935 6.2801561 123 0 0 0 62.071918
14.309547 -13.655652 6.0591016 124 0 0 0 61.678673
14.273289 -12.972363 6.3886509 140 0 0 0 61.291302
14.13586 -12.228 6.1935768 126 0 0 0 60.89883
-12.981675 -11.216908 6.4925284 41 0 0 0 88.263695
14.041689 -10.98241 6.3495708 108 0 0 0 60.115398
13.344165 -9.9203281 6.3348894 176 0 0 0 59.718361
13.915726 -9.8226614 6.0713134 140 0 0 0 59.330994
14.588588 -9.7687674 6.2580323 138 0 0 0 58.948608
15.268511 -9.68855 6.4454679 159 0 0 0 58.547871
15.945778 -9.583497 6.173933 127 0 0 0 58.160839
16.742361 -9.5093975 6.3895292 116 0 0 0 57.771191
17.501909 -9.3746653 6.0961328 138 0 0 0 57.37822
18.42157 -9.2912445 6.3343911 115 0 0 0 56.9911
19.374716 -9.1849442 6.0538692 125 0 0 0 56.594048
20.442223 -9.0818253 6.3150277 82 0 0 0 56.20446
-13.697523 -8.6925497 6.1449542 52 0 0 0 90.62027
22.697973 -8.7737608 6.2629695 84 0 0 0 55.425041
-14.207956 -8.0675859 6.1900258 53 0 0 0 91.398659
25.478018 -8.4327641 6.2449598 72 0 0 0 54.652912
28.897282 -8.0161343 6.2404981 69 0 0 0 53.866489
-14.626211 -7.8369989 6.2868156 61 0 0 0 91.778755
-32.167488 2.3576069 6.4335833 8 0 0 0 0.78534001
-35.098019 2.5741301 6.1565657 10 0 0 0 0.78534001
14.358055 7.2700157 6.1598415 51 0 0 0 42.162647
15.188429 7.6881428 6.093883 77 0 0 0 42.162647
19.016722 8.4654102 6.4119139 19 0 0 0 42.949322
33.714157 8.4554653 6.3868494 47 0 0 0 45.674721
32.854023 9.1042166 6.2653413 47 0 0 0 45.287781
32.09668 9.7505178 6.1655154 49 0 0 0 44.895679
31.295069 10.354444 6.0593543 44 0 0 0 44.5023
-15.422169 12.549495 6.4475722 109 0 0 0 10.53307
-14.98765 12.817169 6.3976231 135 0 0 0 10.93218
-14.377833 12.916134 6.2727981 120 0 0 0 11.31364
-13.775053 12.995723 6.1491585 140 0 0 0 11.70004
14.729818 -24.628202 6.6260495 42 0 0 0 65.987
14.289676 -22.617926 6.8390174 134 0 0 0 65.589691
15.015707 -22.523056 6.9212003 125 0 0 0 65.195702
14.871211 -19.101465 6.8004832 125 0 0 0 64.019897
15.028801 -18.35672 6.6670327 80 0 0 0 63.63158
14.845871 -17.247627 6.9587574 81 0 0 0 63.248581
14.758401 -16.319149 6.7310138 105 0 0 0 62.851089
14.63268 -15.403599 6.5022917 126 0 0 0 62.457958
14.541369 -14.580337 6.8151379 107 0 0 0 62.071918
14.426476 -13.772518 6.6036615 121 0 0 0 61.678673
14.36614 -13.048059 6.9047585 120 0 0 0 61.291302
14.235209 -12.305652 6.6973095 128 0 0 0 60.89883
-13.103669 -11.895672 6.6958055 43 0 0 0 87.879585
14.109595 -11.604666 6.5047956 133 0 0 0 60.504833
14.119955 -11.043978 6.8250217 114 0 0 0 60.115398
-13.714088 -10.722067 6.5886779 24 0 0 0 89.055023
-13.326084 -10.955576 6.5289569 34 0 0 0 88.656387
50.40712 -10.046865 6.8571353 9 0 0 0 52.692379
13.952316 -9.8488359 6.5067101 148 0 0 0 59.330994
14.581138 -9.7641773 6.6859818 155 0 0 0 58.948608
15.313523 -9.7174158 6.9099212 126 0 0 0 58.547871
16.016132 -9.6184196 6.6589508 103 0 0 0 58.160839
16.817606 -9.5446024 6.8921638 113 0 0 0 57.771191
17.626661 -9.4456205 6.6358442 90 0 0 0 57.37822
18.481085 -9.3255348 6.8687143 110 0 0 0 56.9911
19.404335 -9.1950598 6.5919476 104 0 0 0 56.594048
20.435038 -9.0745945 6.8635931 107 0 0 0 56.20446
21.505127 -8.9271145 6.5730453 92 0 0 0 55.819458
22.78244 -8.8065491 6.89434 70 0 0 0 55.425041
24.042402 -8.619668 6.5725703 76 0 0 0 55.04586
25.574387 -8.464756 6.9313254 88 0 0 0 54.652912
27.155325 -8.2523985 6.6032186 67 0 0 0 54.255161
28.990383 -8.0365534 6.9980335 41 0 0 0 53.866489
30.924618 -7.7646046 6.633718 41 0 0 0 53.481541
-55.186478 1.3468184 6.9202805 7 0 0 0 0
32.098049 9.7521229 6.9931579 54 0 0 0 44.895679
31.35751 10.376312 6.8860054 50 0 0 0 44.5023
30.583887 10.962226 6.7739177 67 0 0 0 44.113781
29.931372 11.56695 6.6908035 56 0 0 0 43.717178
-15.387958 12.510358 6.9142828 129 0 0 0 10.53307
-14.943788 12.768121 6.8555641 98 0 0 0 10.93218
-14.346308 12.87626 6.7264419 105 0 0 0 11.31364
-13.728647 12.940222 6.5857592 111 0 0 0 11.70004
15.789125 -22.467793 7.0226383 110 0 0 0 64.805496
16.532412 -22.338858 7.1085634 63 0 0 0 64.421753
14.866388 -19.089579 7.3927584 133 0 0 0 64.019897
15.423746 -18.832636 7.43924 8 0 0 0 63.63158
15.002834 -16.59565 7.3975301 13 0 0 0 62.851089
14.660415 -15.43897 7.0434179 110 0 0 0 62.457958
14.490827 -13.824862 7.1228065 122 0 0 0 61.678673
14.50459 -13.174185 7.452055 17 0 0 0 61.291302
14.340573 -12.397125 7.2120967 112 0 0 0 60.89883
14.213278 -11.690289 7.0042639 126 0 0 0 60.504833
