# .PCD v0.7 - Point Cloud Data file format
VERSION 0.7
FIELDS x y z intensity normal_x normal_y normal_z curvature
SIZE 4 4 4 4 4 4 4 4
TYPE F F F F F F F F
COUNT 1 1 1 1 1 1 1 1
WIDTH 955
HEIGHT 1
VIEWPOINT 0 0 0 1 0 0 0
POINTS 955
DATA ascii
2.2352965 7.0035634 2.6063263 382 0 0 0 29.623461
2.8231363 7.2522125 2.5665321 400 0 0 0 30.605825
4.6291013 7.4277787 2.881871 50 0 0 0 33.532928
-2.9376307 7.9623766 2.8943045 322 0 0 0 19.102381
-2.0868537 7.7231445 2.7001536 431.33334 0 0 0 20.529016
-1.8362005 7.7938576 2.7329881 223 0 0 0 21.054211
-0.27099624 7.6588631 2.7138364 356.66666 0 0 0 24.170809
0.49761492 7.855711 2.9789476 328 0 0 0 25.729839
0.87627143 7.7457128 2.5692554 490 0 0 0 26.511379
1.2566751 7.6924686 2.616931 357 0 0 0 27.294987
1.6293259 7.6078439 2.7565868 328.66666 0 0 0 28.068018
2.644964 7.6048503 2.6537268 330 0 0 0 30.017559
3.0857253 7.6390152 2.9167593 185 0 0 0 30.79767
4.2063656 7.8566966 2.859628 307 0 0 0 32.492065
9.9884787 7.8558192 2.5971 274 0 0 0 39.015034
-2.3056145 8.01194 2.9462967 459 0 0 0 20.27285
-1.0914805 8.1650257 2.8129377 171 0 0 0 22.61055
-0.89272571 8.2235785 2.7230115 163 0 0 0 23.001101
0.328275 8.371232 2.9634843 382 0 0 0 25.345739
0.72564417 8.2224588 2.9212608 348.33334 0 0 0 26.119791
1.9556891 8.1170664 2.7501221 163 0 0 0 28.465
3.9255168 8.1154528 2.892864 340.66666 0 0 0 31.84771
5.2840962 8.4647942 2.7872496 327 0 0 0 33.532928
5.8057957 8.3516741 2.8402104 203 0 0 0 34.313847
8.2661304 8.3445396 2.8354235 206 0 0 0 37.05732
9.1768475 8.1827278 2.6659555 167.5 0 0 0 38.038609
-4.0236869 8.870491 2.9599972 103 0 0 0 17.93269
-3.7339778 8.7948437 2.9040656 229 0 0 0 18.320709
-3.3876741 8.7602091 2.7025321 248 0 0 0 18.843801
-2.9640176 8.7054176 2.5711577 427 0 0 0 19.488079
1.890028 8.7712173 2.6206636 328.5 0 0 0 28.06802
4.7187433 8.7120647 2.7680817 305 0 0 0 32.558266
5.076335 8.5967188 2.788655 174 0 0 0 33.140289
8.0911827 8.7959728 2.7387271 245 0 0 0 36.464203
9.654314 8.8234177 2.9926448 244 0 0 0 37.842808
-0.53595263 9.1910429 2.800766 255 0 0 0 23.78117
6.9092107 9.4210587 2.9656696 212 0 0 0 34.706848
7.2149634 9.3454838 2.7062297 282 0 0 0 35.096031
8.1720715 9.3299046 2.5367501 268.5 0 0 0 36.077553
9.4912481 9.1102114 2.6876707 293 0 0 0 37.448559
0.15190095 9.5400629 2.6674724 158 0 0 0 24.945391
7.8949752 9.7165108 2.8671453 142 0 0 0 35.483433
8.1607122 9.5524044 2.8769388 187 0 0 0 35.885342
9.5241508 9.6019459 2.761939 176 0 0 0 37.05732
-14.100124 10.375404 2.7310643 278 0 0 0 9.7383404
-13.512009 10.459602 2.6659756 238 0 0 0 10.12661
2.5118504 10.346369 2.9723372 227 0 0 0 28.465
8.442708 10.381849 2.7338605 188 0 0 0 35.483433
23.506596 10.465048 2.6786091 81 0 0 0 42.922321
24.587242 10.228465 2.7713513 75 0 0 0 43.309887
-12.972712 10.557705 2.6097796 309 0 0 0 10.52036
-12.433826 10.633743 2.7542601 258 0 0 0 10.91588
-11.928606 10.715971 2.6996269 297.5 0 0 0 11.30127
-11.43705 10.790145 2.8412814 284 0 0 0 11.68453
-10.96165 10.858744 2.7883162 292 0 0 0 12.07239
7.7280025 10.524146 2.6688719 250 0 0 0 34.706848
9.0712547 10.606899 2.5057147 115 0 0 0 35.885342
22.85396 10.856062 2.6341131 105 0 0 0 42.524479
22.309362 11.278364 2.6026285 112 0 0 0 42.130009
-5.2849317 11.711955 2.9514523 529 0 0 0 17.93269
21.725554 11.663202 2.5674114 136 0 0 0 41.739361
20.65806 12.436752 2.5108798 121 0 0 0 40.954529
21.197939 12.061152 2.5394845 159 0 0 0 41.355911
18.673052 13.918426 2.9990063 159 0 0 0 39.399799
-6.2436805 -24.936806 3.3840206 60 0 0 0 78.463913
-11.90139 -18.802273 3.4886987 74 0 0 0 83.540367
5.1412549 -18.613029 3.0192776 270 0 0 0 70.259827
5.6087842 -18.52223 3.0253897 252 0 0 0 69.868118
5.9904442 -18.162464 3.4629445 334 0 0 0 69.472305
6.4509673 -18.056602 3.471313 406 0 0 0 69.083298
6.0759664 -15.783573 3.0653653 113 0 0 0 68.684517
5.7153993 -13.83241 3.0843167 154 0 0 0 68.298164
-10.273508 -13.167393 3.2447557 155.5 0 0 0 85.109795
4.2733464 -9.0681772 3.1875429 1001 0 0 0 67.513962
4.5234909 -9.0177956 3.2075622 910.5 0 0 0 67.128174
-9.2317524 -8.7946463 3.2660139 284 0 0 0 87.463326
4.7795267 -8.9712944 3.2316532 956.5 0 0 0 66.736877
5.1784291 -8.9108829 3.2764392 868.75 0 0 0 66.149475
5.7235551 -8.820158 3.3418679 817 0 0 0 65.364693
6.3305392 -8.7028131 3.1977069 884.33331 0 0 0 64.516708
6.7253032 -8.637125 3.2072763 817 0 0 0 64.001877
7.1869044 -8.5571833 3.273397 822.75 0 0 0 63.40797
38.977898 -8.7328253 3.2063549 9 0 0 0 53.061981
7.7713866 -8.4488192 3.3137772 761.66669 0 0 0 62.68692
8.3358116 -8.3507395 3.1614368 740.5 0 0 0 62.036839
8.6882687 -8.2855301 3.2159529 693.5 0 0 0 61.640419
9.2441845 -8.1837063 3.3059664 640.75 0 0 0 61.060631
9.8405275 -8.085866 3.250149 548 0 0 0 60.477219
10.252248 -8.0095482 3.3188272 545 0 0 0 60.080448
10.686672 -7.9333754 3.2303746 467.5 0 0 0 59.69138
11.130829 -7.8454494 3.3042965 505 0 0 0 59.306561
11.593499 -7.7517414 3.2109334 459 0 0 0 58.91996
12.107266 -7.6706023 3.2983572 378 0 0 0 58.52227
12.623377 -7.5703421 3.2057004 414 0 0 0 58.127289
38.752846 -7.6878343 3.1698451 13 0 0 0 52.66338
13.186792 -7.4729228 3.299428 319 0 0 0 57.737621
13.771719 -7.3642578 3.2061636 428 0 0 0 57.355
14.416507 -7.2582741 3.3118205 337 0 0 0 56.952599
15.079933 -7.13273 3.2157736 333.5 0 0 0 56.56295
15.779451 -6.9938183 3.1124229 323 0 0 0 56.183258
16.563902 -6.8585815 3.2306671 239 0 0 0 55.790379
17.428997 -6.7189207 3.3637376 238 0 0 0 55.400311
18.283201 -6.5367651 3.0130675 215 0 0 0 55.016312
39.672195 -6.8616123 3.2276378 13 0 0 0 52.276939
-9.4116716 -6.2940383 3.1844831 207 0 0 0 90.19799
19.314749 -6.3737226 3.1535649 177 0 0 0 54.627602
20.376255 -6.1720929 3.2983553 163 0 0 0 54.23737
21.62005 -5.9719229 3.4717951 140 0 0 0 53.84687
-55.312355 -5.4464793 3.1764817 19 0 0 0 98.006081
39.526798 -3.868165 3.1785753 13 0 0 0 51.108887
-11.387244 -2.8588631 3.0087721 19 0 0 0 95.660416
40.866234 -1.9795911 3.2693429 9 0 0 0 50.325939
-60.637661 -1.4854958 3.4595811 18 0 0 0 99.173187
-60.852249 0.0036451889 3.469399 13 0 0 0 99.553482
-53.624439 1.3195289 3.0624423 16 0 0 0 0
5.018887 6.871141 3.2207985 168 0 0 0 34.706848
4.8539762 7.2523808 3.2309744 271.66666 0 0 0 34.056301
-3.2401388 7.9693909 3.1786814 327.66666 0 0 0 18.583242
-2.949944 7.9943328 3.2178278 293 0 0 0 19.102381
3.2149718 7.6754351 3.1499715 289.5 0 0 0 30.99325
4.3145604 7.7559791 3.2493341 277.83334 0 0 0 32.752274
4.7081733 7.5578489 3.3682435 189 0 0 0 33.532928
-1.1923926 8.1581535 3.1169057 355 0 0 0 22.41729
-0.083336122 8.3845949 3.170651 155 0 0 0 24.556669
0.74827224 8.4294205 3.2005696 345 0 0 0 26.11816
2.6029277 8.1188059 3.2256615 176 0 0 0 29.623461
3.886863 8.2115231 3.3613598 225.33333 0 0 0 31.715729
-4.0330343 8.889924 3.4449737 257 0 0 0 17.93269
-3.8640501 8.8051929 3.1593747 74 0 0 0 18.126699
0.12740913 8.5752439 3.2425158 245 0 0 0 24.945391
0.97202039 8.5434933 3.2517059 223 0 0 0 26.511379
3.3351405 8.8532352 3.3436511 281 0 0 0 30.41398
4.831069 8.6659384 3.0158336 230 0 0 0 32.75687
5.16081 8.5787859 3.1254613 253.33333 0 0 0 33.271168
7.7843704 8.8172741 3.1794083 200.66667 0 0 0 36.141624
8.8051405 8.8842812 3.4827919 220 0 0 0 37.05732
9.0383091 8.6808023 3.4891593 73 0 0 0 37.448559
9.8152027 8.5364628 3.2964034 223 0 0 0 38.234409
7.8416491 9.4115505 3.2592354 132 0 0 0 35.684387
8.8806829 9.4114141 3.2797372 166 0 0 0 36.658638
9.8156128 9.4226398 3.1117892 167 0 0 0 37.448559
10.031821 9.1661053 3.4417875 273 0 0 0 37.842808
6.9886603 9.5279646 3.2928827 151 0 0 0 34.706848
7.7437525 9.5315609 3.1150892 210 0 0 0 35.483433
-14.65778 10.245546 3.2303419 133 0 0 0 9.3561897
-14.043354 10.334431 3.1497288 231 0 0 0 9.7383404
-13.474988 10.432373 3.2869949 249 0 0 0 10.12661
2.4753342 10.205965 3.190475 237 0 0 0 28.465
23.543325 10.486668 3.317409 104 0 0 0 42.922321
24.52223 10.206936 3.4181814 55 0 0 0 43.309887
-12.927501 10.522272 3.2153664 278 0 0 0 10.52036
-12.394995 10.60192 3.3463795 268 0 0 0 10.91588
-11.89689 10.688902 3.2814701 259 0 0 0 11.30127
-11.413424 10.768779 3.2197695 313 0 0 0 11.68453
-10.731131 10.891829 3.1378417 300.5 0 0 0 12.27012
-10.275527 10.948494 3.4473891 263.5 0 0 0 12.661554
7.4671478 10.715299 3.3107738 215 0 0 0 34.313847
22.876947 10.872184 3.2604825 122 0 0 0 42.524479
-27.694548 11.417619 3.1893976 79 0 0 0 5.84656
22.304409 11.281044 3.2176094 122 0 0 0 42.130009
21.76952 11.691884 3.1810892 123 0 0 0 41.739361
-5.7969685 12.059054 3.399919 335 0 0 0 17.53706
-5.3028269 12.153314 3.369633 296.5 0 0 0 18.126699
-4.8111153 12.234465 3.3405735 195 0 0 0 18.71451
20.701122 12.46768 3.1111994 89 0 0 0 40.954529
21.238441 12.089242 3.146126 111 0 0 0 41.355911
20.185013 12.844138 3.0803518 112 0 0 0 40.566486
19.671301 13.208389 3.0508056 129 0 0 0 40.186993
19.164965 13.564414 3.0233111 114 0 0 0 39.7924
1.5134377 16.225241 3.3305259 210 0 0 0 26.11816
-10.689955 -27.732849 3.910569 8 0 0 0 80.413673
2.7432649 -27.856073 3.6740119 40 0 0 0 72.982368
-8.1434183 -26.862919 3.693409 16 0 0 0 79.240463
-7.3505926 -26.578308 3.6283815 17 0 0 0 78.849236
-10.554792 -25.496712 3.6335235 28 0 0 0 80.812271
5.4440079 -21.758938 3.5022597 174 0 0 0 70.651031
6.2372332 -18.154984 3.948065 387.5 0 0 0 69.277802
-11.97336 -16.150831 3.6529078 24 0 0 0 84.709167
6.1775665 -16.044456 3.5384917 95 0 0 0 68.684517
-17.596115 -14.45094 3.5704713 77 0 0 0 88.624641
5.8338103 -14.109058 3.5192771 149 0 0 0 68.298164
5.7380552 -13.877284 3.8306696 162 0 0 0 68.298164
-10.22508 -13.110653 3.8416159 97 0 0 0 85.109795
5.5770798 -12.607529 3.8615656 188 0 0 0 67.915054
4.2882156 -9.0916491 3.6901555 748.5 0 0 0 67.513962
4.6310015 -9.0376101 3.7693603 751.33331 0 0 0 66.997742
-9.1949854 -8.7614651 3.7242386 83 0 0 0 87.463326
4.7972074 -8.9974089 3.6175547 728 0 0 0 66.736877
5.1986461 -8.9384565 3.7952547 690.75 0 0 0 66.149467
5.6973357 -8.8526688 3.8200977 643.66669 0 0 0 65.430077
6.3048296 -8.739831 3.6896617 705.75 0 0 0 64.583023
6.747014 -8.6618919 3.7581344 723.5 0 0 0 64.001877
7.150331 -8.5832253 3.7771549 661 0 0 0 63.474075
7.6780958 -8.4872837 3.7752078 662 0 0 0 62.815182
8.178916 -8.3931255 3.7198856 626.5 0 0 0 62.233616
8.7149506 -8.3080339 3.8205032 575.5 0 0 0 61.640419
9.2559309 -8.1903009 3.7672648 618.5 0 0 0 61.060631
9.8517065 -8.0925274 3.7273819 491 0 0 0 60.477219
10.283943 -8.0317097 3.8137946 460.5 0 0 0 60.080448
10.699345 -7.9416847 3.7291451 440 0 0 0 59.69138
11.158113 -7.8635383 3.8190467 432 0 0 0 59.306561
11.633569 -7.7773585 3.739933 393.5 0 0 0 58.91996
12.132096 -7.6855531 3.6579356 353 0 0 0 58.52227
12.680539 -7.6019015 3.764045 364 0 0 0 58.127289
13.24889 -7.5053535 3.874989 326 0 0 0 57.737621
13.827764 -7.3898907 3.7957952 312.5 0 0 0 57.355
14.462417 -7.2773814 3.7185726 339 0 0 0 56.952599
15.15062 -7.1616473 3.8470314 253 0 0 0 56.56295
15.849811 -7.022048 3.7655606 270.5 0 0 0 56.183258
-10.723004 -6.7970181 3.5672212 127 0 0 0 90.59391
16.645212 -6.8913298 3.690002 273 0 0 0 55.790379
17.458551 -6.7294374 3.8301601 219 0 0 0 55.400311
18.357784 -6.5620546 3.7485948 224.5 0 0 0 55.016312
19.339979 -6.3811307 3.6622236 192 0 0 0 54.627602
20.448961 -6.1931357 3.8393517 129 0 0 0 54.23737
-61.583549 -4.540657 3.5239992 14 0 0 0 98.391441
8.1439657 8.2245407 3.5109193 169 0 0 0 37.05732
3.3597212 8.9161997 3.6007299 264 0 0 0 30.41398
5.7393355 8.9405947 3.6193676 166.5 0 0 0 33.730228
6.1408229 8.8273869 3.5314155 165 0 0 0 34.313847
7.6865692 8.7105131 3.619621 130 0 0 0 36.141628
3.2052784 9.1818638 3.6743486 131 0 0 0 30.017559
7.6084986 9.3672733 3.8085022 137 0 0 0 35.483433
8.9221439 9.4547968 3.6180823 182 0 0 0 36.658638
10.357858 9.0053873 3.8172212 63 0 0 0 38.234409
10.276573 9.8621807 3.6056643 137 0 0 0 37.448559
-14.617571 10.218336 3.6583333 187 0 0 0 9.3561897
-14.042469 10.334861 3.5765665 231 0 0 0 9.7383404
-13.993743 10.29607 3.9870443 184 0 0 0 9.7383404
-13.440525 10.403375 3.9007001 224 0 0 0 10.12661
-12.883043 10.483707 3.8121443 214 0 0 0 10.52036
7.9520788 10.292603 3.7809882 112.5 0 0 0 35.096031
23.551994 10.490901 3.9572608 79 0 0 0 42.922321
-27.82749 10.679338 3.9045703 81 0 0 0 5.45399
-12.356419 10.566024 3.7316272 243 0 0 0 10.91588
-11.869761 10.661685 3.6622562 202 0 0 0 11.30127
-11.387342 10.741312 3.5933392 241 0 0 0 11.68453
-10.919269 10.814852 3.5280004 249 0 0 0 12.07239
4.9030352 10.536373 3.5260239 164 0 0 0 31.58375
22.911907 10.889093 3.8937757 114 0 0 0 42.524479
22.362053 11.310413 3.8465602 86 0 0 0 42.130009
7.8694987 11.898255 3.6127286 139 0 0 0 33.927528
21.812485 11.71514 3.8005905 108 0 0 0 41.739361
20.719101 12.47863 3.7129798 126 0 0 0 40.954529
21.24984 12.095908 3.7534626 122 0 0 0 41.355911
20.198423 12.852752 3.6753924 129 0 0 0 40.566486
19.700781 13.228181 3.643101 121 0 0 0 40.186993
18.682041 13.925068 3.5775707 132 0 0 0 39.399799
19.173567 13.570492 3.6064887 121 0 0 0 39.7924
-15.779162 -29.544935 4.4055028 33 0 0 0 82.375328
-10.502239 -29.376211 4.1025004 26 0 0 0 80.032677
-5.4623132 -27.485889 4.3780007 9 0 0 0 77.67672
-10.517744 -25.408796 4.3012824 8 0 0 0 80.812271
5.4667549 -21.846136 4.0735087 14 0 0 0 70.651031
5.9908762 -21.668772 4.0661058 266 0 0 0 70.259827
6.5419984 -21.585251 4.078639 253 0 0 0 69.868118
-11.898886 -18.799133 4.0384302 79 0 0 0 83.540367
6.2454739 -18.166313 4.4209318 316 0 0 0 69.277802
6.9585524 -18.051563 4.4510241 73 0 0 0 68.684517
-19.166822 -17.384676 4.0533557 70 0 0 0 87.849907
-11.885383 -16.032619 4.1170363 47 0 0 0 84.709167
6.0557065 -14.639865 4.433095 64 0 0 0 68.298164
-17.586668 -14.443519 4.1315856 55 0 0 0 88.624641
-10.192241 -13.068953 4.2360101 78 0 0 0 85.109795
5.8821058 -8.8192577 4.019619 683 0 0 0 65.168549
6.3176661 -8.7531471 4.0928655 599 0 0 0 64.583023
6.7679935 -8.6845064 4.1734576 561 0 0 0 64.001877
7.27351 -8.5818596 4.1712823 510.33334 0 0 0 63.341869
7.7027178 -8.5073738 4.2077971 529.5 0 0 0 62.815182
39.47187 -8.8417072 4.2296715 11 0 0 0 53.061981
8.2077332 -8.416748 4.3096876 509.75 0 0 0 62.233616
8.7369051 -8.3234749 4.2739873 541 0 0 0 61.640419
9.2940941 -8.2227478 4.2419748 463 0 0 0 61.060631
9.8793449 -8.1155338 4.2116804 433 0 0 0 60.477219
10.304855 -8.0483723 4.3060894 425 0 0 0 60.080448
10.744533 -7.9725857 4.2396641 369 0 0 0 59.69138
11.189318 -7.881815 4.1659489 392 0 0 0 59.306561
11.677172 -7.8023725 4.2732992 352 0 0 0 58.91996
12.173906 -7.7093558 4.2060328 337 0 0 0 58.52227
12.694961 -7.6097717 4.1362524 340 0 0 0 58.127289
13.258646 -7.5101061 4.2566514 304 0 0 0 57.737621
39.796726 -7.8930182 4.2403617 11 0 0 0 52.66338
13.852971 -7.4021711 4.3857989 268 0 0 0 57.355
14.497668 -7.2942896 4.1263447 231 0 0 0 56.952599
15.17731 -7.1734357 4.266253 294 0 0 0 56.56295
15.906511 -7.044229 4.4190407 202 0 0 0 56.183258
16.659569 -6.8930283 4.134553 203 0 0 0 55.790379
17.528019 -6.7517843 4.3051167 223 0 0 0 55.400311
18.431351 -6.5833526 4.4833512 146 0 0 0 55.016312
19.384266 -6.3948112 4.1731753 162 0 0 0 54.627602
20.51368 -6.2117643 4.3791752 168 0 0 0 54.23737
21.668985 -5.984447 4.036509 116 0 0 0 53.84687
22.923916 -5.7277536 4.2396741 9 0 0 0 53.452679
40.289505 -3.9411783 4.2231674 15 0 0 0 51.108887
41.675705 -0.99181598 4.3416524 10 0 0 0 49.940529
8.8308096 8.4882975 4.3169756 113 0 0 0 37.448559
7.6506348 8.5318975 4.0417633 167 0 0 0 36.269768
8.8900108 8.7544689 4.0906267 103 0 0 0 37.252937
8.7118683 9.2330513 4.1609225 106 0 0 0 36.658638
9.7574921 9.3699245 4.0961633 186 0 0 0 37.448559
8.4263382 9.8596344 4.2504172 127 0 0 0 35.885342
9.2614613 9.8150234 4.086421 100 0 0 0 36.658638
7.7842917 10.249257 4.3225484 97.666664 0 0 0 34.966305
24.452728 10.178502 4.0646634 64 0 0 0 43.309887
-12.779561 10.931805 4.2704816 108 0 0 0 10.91588
22.401819 11.330765 4.4752512 92 0 0 0 42.130009
21.834583 11.727224 4.4184027 89 0 0 0 41.739361
20.750177 12.497446 4.3185725 95 0 0 0 40.954529
21.283854 12.115417 4.3661208 85 0 0 0 41.355911
20.208254 12.859095 4.270545 101 0 0 0 40.566486
19.712807 13.236295 4.2335153 109 0 0 0 40.186993
18.719574 13.952919 4.1630378 108 0 0 0 39.399799
19.220791 13.603826 4.1986055 138 0 0 0 39.7924
4.0994124 15.112986 4.3549466 146 0 0 0 28.849461
0.0078564296 -46.103905 4.9006357 13 0 0 0 74.55159
-15.95535 -31.726194 4.6684699 33 0 0 0 81.989166
-7.30725 -29.20175 4.701798 13 0 0 0 78.463913
-4.9348526 -28.472145 4.512722 15 0 0 0 77.290718
-15.144485 -26.75444 4.8071795 42 0 0 0 82.769043
6.0007906 -21.701494 4.6261206 231 0 0 0 70.259827
6.5512013 -21.612728 4.6394019 243 0 0 0 69.868118
-23.459768 -20.253485 4.8485208 25 0 0 0 88.241798
-11.954857 -18.888493 4.6070843 59 0 0 0 83.540367
6.4947286 -18.162422 4.9118924 321 0 0 0 69.083298
6.9616156 -18.057541 4.927671 18 0 0 0 68.684517
-19.11854 -17.341312 4.6818786 47 0 0 0 87.849907
-11.810095 -15.937345 4.577354 73 0 0 0 84.709167
6.1549306 -14.869686 4.8983469 81 0 0 0 68.298164
-17.527637 -14.395351 4.6756034 26 0 0 0 88.624641
-10.150674 -13.01605 4.6286449 19 0 0 0 85.109795
-15.196691 -11.872464 4.924818 60 0 0 0 89.015839
-13.268916 -8.8792162 4.8709054 135 0 0 0 90.19799
8.7582903 -8.34307 4.5807652 421 0 0 0 61.640419
9.1317682 -8.2797194 4.6671309 395 0 0 0 61.255447
9.7806883 -8.160984 4.7169652 390.33334 0 0 0 60.60675
10.335924 -8.0656891 4.7999849 354.5 0 0 0 60.080448
10.764743 -7.9820948 4.740972 342 0 0 0 59.69138
11.221689 -7.9034557 4.6861801 290 0 0 0 59.306561
11.697465 -7.8147974 4.801518 283 0 0 0 58.91996
12.212714 -7.7342424 4.754981 272 0 0 0 58.52227
12.744404 -7.6366854 4.7015476 278.5 0 0 0 58.127289
13.310183 -7.5353823 4.6490326 278 0 0 0 57.737621
13.905005 -7.4260015 4.7896581 231 0 0 0 57.355
14.493597 -7.2914629 4.5285678 272 0 0 0 56.952599
14.552652 -7.3171206 4.9473233 190 0 0 0 56.952599
15.19452 -7.1807446 4.6888676 234 0 0 0 56.56295
15.976057 -7.074121 4.8725634 196 0 0 0 56.183258
16.676752 -6.8992934 4.5822563 163 0 0 0 55.790379
17.574974 -6.7689753 4.7793207 198 0 0 0 55.400311
18.513906 -6.6118937 4.9863067 158 0 0 0 55.016312
19.460697 -6.4153023 4.6911626 151 0 0 0 54.627602
20.605379 -6.2346134 4.9256549 123 0 0 0 54.23737
21.763355 -6.0094905 4.6098671 120 0 0 0 53.84687
22.944466 -5.7318859 4.8257618 15 0 0 0 53.452679
-43.614834 -2.1485889 4.6490593 7 0 0 0 98.783676
8.773284 8.4332256 4.5876536 145 0 0 0 37.448559
8.8933525 9.4301071 4.8837123 49 0 0 0 36.658638
9.9487171 9.0964174 4.7464976 41 0 0 0 37.842808
-29.494394 9.6955328 4.8328981 56 0 0 0 4.6676202
-27.943529 9.9479227 4.6176481 60 0 0 0 5.06532
8.3544083 9.7825184 4.6896114 101 0 0 0 35.885342
8.7154589 9.7093401 4.9155006 82 0 0 0 36.269768
9.2488403 9.5651951 4.6859355 90.5 0 0 0 36.857979
8.5157423 10.479893 4.7549682 55 0 0 0 35.483433
23.549553 10.490196 4.5955205 82 0 0 0 42.922321
24.474957 10.188168 4.7250652 72 0 0 0 43.309887
-14.45785 10.641061 4.5580354 107 0 0 0 9.7383404
22.957266 10.910932 4.5311003 70 0 0 0 42.524479
21.320488 12.136412 4.9775953 101 0 0 0 41.355911
20.259972 12.892018 4.8726139 131 0 0 0 40.566486
20.788176 12.520421 4.9239001 109 0 0 0 40.954529
19.738436 13.253511 4.8243275 108 0 0 0 40.186993
-13.895105 13.789241 4.9683323 80 0 0 0 12.07239
-12.613676 13.802485 4.7457857 65 0 0 0 12.85526
-12.142228 13.956803 4.6953588 136 0 0 0 13.24479
18.757612 13.981143 4.747385 112 0 0 0 39.399799
19.246735 13.622143 4.7847528 110 0 0 0 39.7924
-10.631145 14.200419 4.9416428 141 0 0 0 14.42323
-10.167015 14.295913 4.8869443 134 0 0 0 14.80793
-7.9558969 14.705806 4.6579251 26 0 0 0 16.760839
-6.7253556 14.961018 4.5693588 5 0 0 0 17.93269
17.777117 14.664272 4.6768909 125 0 0 0 38.62426
7.2981424 15.606209 4.7850986 183 0 0 0 31.58375
-15.482981 -30.787655 5.383853 21 0 0 0 81.989166
-10.125628 -30.68178 5.0462956 17 0 0 0 79.636757
-9.3485765 -30.850773 5.0342607 19 0 0 0 79.240463
-17.812618 -29.744646 5.4176111 27 0 0 0 83.156509
-8.6909399 -28.678776 5.4235911 16 0 0 0 79.240463
-8.0097666 -28.974234 5.4399209 15 0 0 0 78.849236
-9.4040089 -28.493576 5.4311371 44 0 0 0 79.636757
-18.331419 -22.35401 5.2394238 30 0 0 0 85.502243
6.014358 -21.732681 5.1848173 198 0 0 0 70.259827
6.5660219 -21.645115 5.2001429 186 0 0 0 69.868118
-21.756973 -18.783266 5.2101026 26 0 0 0 88.241798
6.5009646 -18.177708 5.3955989 290 0 0 0 69.083298
6.6524968 -17.257368 5.1701446 25 0 0 0 68.684517
-11.701357 -15.791321 5.2610474 77 0 0 0 84.709167
5.9826865 -13.502645 5.2250242 23 0 0 0 67.915054
-15.131905 -11.822089 5.3807507 56 0 0 0 89.015839
-13.241314 -8.8575678 5.2541428 111 0 0 0 90.19799
39.547707 -8.8497505 5.2346535 9 0 0 0 53.061981
10.78982 -7.9999127 5.0811582 277 0 0 0 59.69138
11.256309 -7.9237456 5.206008 278 0 0 0 59.306561
11.734001 -7.8350797 5.3346796 173 0 0 0 58.91996
12.242323 -7.7458477 5.2986031 209 0 0 0 58.52227
12.776945 -7.6504602 5.2623549 227 0 0 0 58.127289
13.32997 -7.5454082 5.2232938 212 0 0 0 57.737621
39.733311 -7.8716006 5.2301221 9 0 0 0 52.66338
13.94111 -7.4475808 5.1937108 239 0 0 0 57.355
14.604654 -7.3455954 5.3699865 196 0 0 0 56.952599
15.273339 -7.2138267 5.1282845 193 0 0 0 56.56295
16.00182 -7.0813427 5.3106246 196 0 0 0 56.183258
40.632755 -7.0169473 5.3215485 14 0 0 0 52.276939
16.744247 -6.9263029 5.0511236 173 0 0 0 55.790379
17.648558 -6.7963786 5.2693176 175 0 0 0 55.400311
18.521673 -6.6137767 5.4773064 161 0 0 0 55.016312
19.540966 -6.4407997 5.2158904 128 0 0 0 54.627602
20.664074 -6.2514019 5.4700098 114 0 0 0 54.23737
21.793737 -6.0128074 5.169775 100 0 0 0 53.84687
23.055906 -5.7543974 5.4308133 11 0 0 0 53.452679
-64.598785 -4.7743173 5.3075194 9 0 0 0 98.391441
40.785931 -4.9952064 5.2991672 12 0 0 0 51.493713
-13.126925 -3.994977 5.2005272 69 0 0 0 94.8871
41.103661 -1.9808873 5.3008628 17 0 0 0 50.325939
9.938921 9.0873709 5.0720663 108 0 0 0 37.842808
9.6431208 9.7297401 5.1586437 86 0 0 0 37.05732
24.457418 10.181312 5.3739657 54 0 0 0 43.309887
8.5862885 10.565683 5.1274657 83 0 0 0 35.483433
23.008345 10.935482 5.1683187 85 0 0 0 42.524479
23.588961 10.508088 5.2389545 89 0 0 0 42.922321
22.421177 11.34082 5.0977292 96 0 0 0 42.130009
21.862759 11.742558 5.0350757 79 0 0 0 41.739361
20.303186 12.92452 5.4728699 99 0 0 0 40.566486
-16.967802 13.154826 5.448894 114 0 0 0 10.12661
-16.322462 13.305051 5.344418 151 0 0 0 10.52036
19.791605 13.294173 5.4216437 89 0 0 0 40.186993
-15.006284 13.50314 5.1234722 14 0 0 0 11.30127
-13.838962 13.734577 5.4310689 64 0 0 0 12.07239
-13.353864 13.917262 5.3725948 11 0 0 0 12.46785
-12.629317 13.821187 5.2153296 76 0 0 0 12.85526
-12.118546 13.930858 5.1434841 125 0 0 0 13.24479
-11.577311 13.982323 5.2792468 101.5 0 0 0 13.63054
-4.2572494 13.730237 5.4160757 198 0 0 0 19.8883
18.771191 13.996292 5.3247991 87 0 0 0 39.399799
19.280605 13.651103 5.3722124 85 0 0 0 39.7924
-11.105953 14.100885 5.2198334 102.5 0 0 0 14.02621
-10.600878 14.156042 5.3601341 116 0 0 0 14.42323
-10.143532 14.258916 5.3036399 94 0 0 0 14.80793
-9.7215891 14.398902 5.2656684 23 0 0 0 15.19903
-9.2501812 14.450046 5.2002187 64 0 0 0 15.59295
18.295002 14.354838 5.2884288 86 0 0 0 39.015034
-7.946413 14.687824 5.2672815 84.5 0 0 0 16.760839
-5.8449607 14.917702 5.2513824 159 0 0 0 18.71451
17.814726 14.700274 5.2529407 104 0 0 0 38.62426
-8.7557697 -44.115437 5.8943315 15 0 0 0 77.67672
-17.118443 -32.056816 5.6762776 12 0 0 0 82.375328
-5.2610087 -30.367361 5.5735726 24 0 0 0 77.290718
-13.997565 -29.623192 5.930439 9 0 0 0 81.592308
-11.990307 -28.974163 5.6761479 19 0 0 0 80.812271
-8.3623838 -27.594782 5.9289551 11 0 0 0 79.240463
-7.5499768 -27.309752 5.8261089 15 0 0 0 78.849236
-15.076677 -26.63583 5.5432982 23 0 0 0 82.769043
-25.175955 -25.197996 5.5675259 32 0 0 0 87.078033
-9.8001957 -23.688932 5.9038668 41 0 0 0 80.812271
6.0214682 -21.755287 5.7443857 162 0 0 0 70.259827
6.5775394 -21.680166 5.7647691 157 0 0 0 69.868118
7.1405702 -21.611954 5.7907729 106 0 0 0 69.472305
-22.015314 -20.977962 5.5103335 22 0 0 0 87.463326
-11.477472 -19.167885 5.69909 28 0 0 0 83.156509
6.508266 -18.186016 5.8734345 249 0 0 0 69.083298
6.6773334 -17.310682 5.6426992 115 0 0 0 68.684517
-19.036379 -15.641066 5.6790752 48 0 0 0 88.624641
6.343318 -15.320251 5.6575007 114 0 0 0 68.298164
6.1961956 -13.980638 5.7837253 36 0 0 0 67.915054
-9.6798601 -13.071316 5.7616801 76 0 0 0 84.709167
-13.147213 -8.8014755 5.7991982 116.5 0 0 0 90.19799
12.849983 -7.6933031 5.6593251 162 0 0 0 58.127289
13.396014 -7.5784593 5.8141952 158 0 0 0 57.737621
13.948792 -7.4446492 5.5834675 183 0 0 0 57.355
14.610465 -7.3413386 5.7722993 172 0 0 0 56.952599
15.314404 -7.2319584 5.7693181 168.5 0 0 0 56.56295
16.045591 -7.103189 5.75984 170 0 0 0 56.183258
16.85342 -6.9683628 5.7584276 159.5 0 0 0 55.790379
17.701765 -6.8124099 5.7514949 147 0 0 0 55.400311
18.634737 -6.6494999 5.9970345 130 0 0 0 55.016312
19.587442 -6.4551687 5.7408843 108 0 0 0 54.627602
21.922834 -6.0473795 5.7588916 90 0 0 0 53.84687
23.032534 10.952213 5.798737 77 0 0 0 42.524479
23.644003 10.537874 5.8854423 61 0 0 0 42.922321
22.443077 11.357075 5.7191248 81 0 0 0 42.130009
21.88652 11.760452 5.6494637 70 0 0 0 41.739361
21.35696 12.162251 5.5884328 65 0 0 0 41.355911
-18.334066 12.831901 5.6795111 77 0 0 0 9.3561897
-9.1788816 12.89031 5.9601951 178 0 0 0 14.80793
-8.7741241 12.982107 5.9018874 130 0 0 0 15.19903
20.822681 12.546248 5.5278783 90 0 0 0 40.954529
-16.92198 13.120474 5.9643626 101 0 0 0 10.12661
-8.3538485 13.035813 5.8319712 130 0 0 0 15.59295
-7.7565489 13.138894 5.7478614 157.5 0 0 0 16.17556
-7.1718478 13.236146 5.6711464 159 0 0 0 16.760839
-6.7854767 13.289298 5.6212301 185 0 0 0 17.146641
-6.2319102 13.396202 5.566587 185.5 0 0 0 17.734875
-13.816845 13.70911 5.8986325 74 0 0 0 12.07239
-12.636909 13.826155 5.6767316 99 0 0 0 12.85526
-12.086432 13.890227 5.5802736 93 0 0 0 13.24479
-11.536795 13.937716 5.9295402 106 0 0 0 13.63054
19.31999 13.678916 5.9645591 91 0 0 0 39.7924
-11.0617 14.049043 5.860198 105 0 0 0 14.02621
-10.589812 14.147858 5.7917933 107 0 0 0 14.42323
-10.120871 14.233649 5.7240057 107 0 0 0 14.80793
-9.1250734 14.250564 5.9597368 41 0 0 0 15.59295
-8.6892853 14.329923 5.9023972 47 0 0 0 15.98675
-8.2160149 14.327653 5.817205 49 0 0 0 16.36437
-7.8398104 14.482276 5.8003139 77 0 0 0 16.760839
-7.3495655 14.40646 5.6965141 42 0 0 0 17.146641
-6.9171586 14.419467 5.6331558 43 0 0 0 17.53706
-6.0644107 14.40925 5.5067997 50 0 0 0 18.320709
18.304068 14.361843 5.8624864 121 0 0 0 39.015034
18.810055 14.025142 5.9120479 94 0 0 0 39.399799
-8.3559761 14.584412 5.5091543 6 0 0 0 16.36437
17.834803 14.716649 5.8267379 106 0 0 0 38.62426
-21.625973 -32.396038 6.083447 14 0 0 0 83.938797
-11.491791 -32.154106 6.1769948 34 0 0 0 80.032677
-15.715983 -31.253195 6.3304043 25 0 0 0 81.989166
-16.322033 -30.565617 6.271174 35 0 0 0 82.375328
-25.796066 -29.932211 6.1723652 18 0 0 0 85.899315
-24.558401 -29.951693 6.0507016 23 0 0 0 85.502243
-19.684635 -29.487171 6.4174571 29 0 0 0 83.938797
-17.417919 -29.086334 6.1373329 26 0 0 0 83.156509
-26.848103 -28.225109 6.0857382 20 0 0 0 86.685806
-10.567391 -27.420368 6.0435848 24 0 0 0 80.413673
-11.939086 -26.957951 6.0644836 33 0 0 0 81.19809
-8.1010208 -26.749683 6.4318647 19 0 0 0 79.240463
-24.229761 -25.47205 6.3652678 11 0 0 0 86.685806
-24.777206 -24.799431 6.3474431 19 0 0 0 87.078033
-21.567457 -22.672586 6.4388962 16 0 0 0 86.685806
-12.508369 -22.105936 6.4748759 13 0 0 0 82.769043
-11.839584 -22.176012 6.4083714 21 0 0 0 82.375328
6.0372534 -21.809044 6.3206606 147 0 0 0 70.259827
6.5857964 -21.704472 6.3346725 213 0 0 0 69.868118
7.1410375 -21.610756 6.3558941 171 0 0 0 69.472305
-23.213497 -21.058147 6.449255 23 0 0 0 87.849907
-11.384281 -19.012926 6.203474 33 0 0 0 83.156509
6.7486687 -18.159725 6.3703766 155.5 0 0 0 68.883911
6.5771585 -15.871954 6.4942908 61 0 0 0 68.298164
-17.64867 -14.500989 6.3951154 35 0 0 0 88.624641
-9.6509771 -13.03274 6.141777 29 0 0 0 84.709167
-9.9774561 -12.804668 6.1479006 32 0 0 0 85.109795
40.275757 -9.010747 6.3520823 17 0 0 0 53.061981
40.044346 -7.9314733 6.2814279 17 0 0 0 52.66338
14.025809 -7.484859 6.0037775 185 0 0 0 57.355
14.666274 -7.3685145 6.1965394 174 0 0 0 56.952599
15.399128 -7.2673702 6.4264493 135 0 0 0 56.56295
16.108032 -7.1232114 6.2132626 121 0 0 0 56.183258
16.895613 -6.9793234 6.446537 112 0 0 0 55.790379
17.737761 -6.8289213 6.233994 124 0 0 0 55.400311
18.665688 -6.6633048 6.497901 99 0 0 0 55.016312
19.667297 -6.4767079 6.2733202 111 0 0 0 54.627602
20.711452 -6.2647576 6.0203424 106 0 0 0 54.23737
22.007452 -6.0696898 6.3484235 93 0 0 0 53.84687
23.088354 -5.7614841 6.0230289 9 0 0 0 53.452679
-41.128899 0.99760246 6.4100461 6 0 0 0 0
24.480299 10.196259 6.0287857 64 0 0 0 43.309887
23.084972 10.977421 6.4397678 79 0 0 0 42.524479
22.51915 11.395762 6.3583364 56 0 0 0 42.130009
21.938347 11.788469 6.2745223 67 0 0 0 41.739361
-13.631873 12.254974 6.4551678 59 0 0 0 11.30127
-13.192072 12.455636 6.3891921 51 0 0 0 11.68453
-11.954613 12.445174 6.4984889 123 0 0 0 12.46785
21.384092 12.177855 6.199976 69 0 0 0 41.355911
-19.300009 12.819811 6.4537468 28 0 0 0 8.9568901
-18.334013 12.83324 6.2336173 66 0 0 0 9.3561897
-11.452861 12.520627 6.3901496 125 0 0 0 12.85526
-10.739028 12.63773 6.2461462 130.5 0 0 0 13.437665
-10.055761 12.754406 6.1169491 138 0 0 0 14.02621
-9.614995 12.827744 6.037869 122 0 0 0 14.42323
20.332766 12.943399 6.0728445 82 0 0 0 40.566486
20.87649 12.57873 6.140758 66 0 0 0 40.954529
-17.644823 13.004033 6.1054096 93 0 0 0 9.7383404
-16.908276 13.106436 6.4831538 94 0 0 0 10.12661
-16.297762 13.282833 6.3715611 98 0 0 0 10.52036
-15.712088 13.457314 6.2692485 28 0 0 0 10.91588
-12.779919 13.309736 6.4978423 39 0 0 0 12.46785
-12.300181 13.453112 6.4192438 43 0 0 0 12.85526
19.817741 13.311736 6.0151658 66 0 0 0 40.186993
-14.368063 13.582088 6.4791512 7 0 0 0 11.68453
-13.768643 13.667141 6.3575106 28 0 0 0 12.07239
-13.245905 13.806828 6.2701011 7 0 0 0 12.46785
-12.573992 13.763075 6.1092987 99 0 0 0 12.85526
-12.057656 13.863257 6.0212827 108 0 0 0 13.24479
-11.827307 13.588215 6.3439693 34 0 0 0 13.24479
-11.386984 13.746963 6.2862787 41 0 0 0 13.63054
-10.911724 13.848517 6.2090254 38 0 0 0 14.02621
-10.254543 14.042562 6.1241622 43.5 0 0 0 14.61558
-9.6145601 14.236794 6.0502396 48 0 0 0 15.19903
18.339947 14.389814 6.4531465 88 0 0 0 39.015034
17.843122 14.723351 6.4042645 66 0 0 0 38.62426
16.905846 15.408407 6.3334694 89 0 0 0 37.842808
-11.694169 -42.330479 6.845902 15 0 0 0 78.849236
-10.49176 -31.798767 6.8810329 19 0 0 0 79.636757
-12.88726 -31.146921 6.9284806 19 0 0 0 80.812271
-10.868552 -30.409878 6.6379585 16 0 0 0 80.032677
-16.718344 -29.540586 6.9791813 25 0 0 0 82.769043
-17.377813 -29.020632 6.9555292 23 0 0 0 83.156509
-7.0949244 -28.381855 6.7297063 7 0 0 0 78.463913
-12.24431 -27.66291 6.9619322 20 0 0 0 81.19809
-9.5564337 -26.749208 6.5373154 16 0 0 0 80.032677
-9.7363138 -25.277018 6.900795 31 0 0 0 80.413673
-23.127224 -23.147881 6.7316966 17 0 0 0 87.078033
-14.088166 -22.2738 6.7180448 18 0 0 0 83.540367
-11.239341 -22.356163 6.9999475 31 0 0 0 81.989166
6.0497627 -21.836288 6.8860784 187 0 0 0 70.259827
6.6019611 -21.74115 6.9044728 166 0 0 0 69.868118
7.1582637 -21.647455 6.9277687 193 0 0 0 69.472305
-23.969358 -20.694639 6.5158324 15 0 0 0 88.241798
-7.6122994 -19.756836 6.9701209 36 0 0 0 80.413673
-7.0812888 -19.813959 6.9267063 68 0 0 0 80.032677
-15.79673 -19.270422 6.9730353 24 0 0 0 85.502243
-11.414857 -19.072487 6.7685137 44 0 0 0 83.156509
6.5304275 -18.233549 6.8431573 244 0 0 0 69.083298
7.0124702 -18.162247 6.8783307 195 0 0 0 68.684517
-16.5944 -17.449551 6.7400603 9 0 0 0 86.685806
-19.078655 -14.167209 6.6518736 63 0 0 0 89.418884
-14.861527 -12.219263 6.8114228 28 0 0 0 88.624641
16.127001 -7.1307602 6.6527853 135 0 0 0 56.183258
16.964504 -7.0068679 6.9225745 87 0 0 0 55.790379
17.762173 -6.8303175 6.7085009 101 0 0 0 55.400311
-22.463722 -6.2301335 6.5228238 18 0 0 0 95.269325
19.727636 -6.4994349 6.8069305 99 0 0 0 54.627602
20.835064 -6.2971511 6.5912876 98 0 0 0 54.23737
22.076403 -6.0835433 6.9313264 68 0 0 0 53.84687
23.20376 -5.7892089 6.6473594 19 0 0 0 53.452679
25.10693 9.7402515 6.7836413 6 0 0 0 43.692822
24.459711 10.188131 6.6746316 59 0 0 0 43.309887
23.683563 10.555846 6.5321698 58 0 0 0 42.922321
22.538561 11.405853 6.991549 78 0 0 0 42.130009
-15.974285 11.761139 6.9853506 147 0 0 0 9.7383404
-15.333132 11.876619 6.8297095 116 0 0 0 10.12661
-14.715045 11.983445 6.6827216 110 0 0 0 10.52036
21.983116 11.812712 6.9074364 68 0 0 0 41.739361
-14.105833 12.07198 6.76437 115.5 0 0 0 10.91588
-13.520215 12.155133 6.8460999 108 0 0 0 11.30127
-13.001233 12.275407 6.7331505 146 0 0 0 11.68453
-12.458733 12.351872 6.6064782 117 0 0 0 12.07239
21.427336 12.202617 6.8252244 51 0 0 0 41.355911
-19.189058 12.742291 6.9805813 75 0 0 0 8.9568901
-18.341906 12.835402 6.7843375 60 0 0 0 9.3561897
-17.594303 12.963227 6.6228681 78 0 0 0 9.7383404
20.370066 12.967183 6.6839867 74 0 0 0 40.566486
20.884827 12.583894 6.7491484 77 0 0 0 40.954529
-16.860022 13.074888 6.9916549 85 0 0 0 10.12661
-16.317757 13.305343 6.8995323 33 0 0 0 10.52036
-15.616056 13.380663 6.7389674 44 0 0 0 10.91588
-13.213173 13.10418 6.5532069 45 0 0 0 12.07239
19.850826 13.333956 6.6193957 71 0 0 0 40.186993
19.332281 13.687604 6.5569596 86 0 0 0 39.7924
18.848713 14.053839 6.5083485 77 0 0 0 39.399799
17.886419 14.764064 6.9910493 73 0 0 0 38.62426
16.925724 15.431614 6.9051852 66 0 0 0 37.842808
17.406111 15.102563 6.9469533 92 0 0 0 38.234409
11.242703 16.094814 6.8945251 62 0 0 0 34.313847
12.503513 17.884333 6.5838714 47 0 0 0 34.313847
13.206753 17.93272 6.7181697 49 0 0 0 34.706848
2.8208606 -56.877903 7.4433889 13 0 0 0 73.766808
1.3635267 -54.537411 7.1331625 13 0 0 0 74.157639
-11.343302 -29.454624 7.2614527 14 0 0 0 80.413673
-22.029751 -26.867943 7.1454792 21 0 0 0 85.502243
-23.115572 -25.527334 7.0830045 26 0 0 0 86.295509
-22.374207 -25.961468 7.0489554 12 0 0 0 85.899315
-10.017306 -24.217966 7.3290415 17 0 0 0 80.812271
-9.7720518 -22.084181 7.3497958 31 0 0 0 81.19809
6.0532665 -21.860634 7.4545908 133 0 0 0 70.259827
6.6106453 -21.780449 7.4796886 146 0 0 0 69.868118
7.1608467 -21.665268 7.4976139 139 0 0 0 69.472305
-7.0602179 -21.401384 7.4163337 51 0 0 0 79.636757
9.4175844 -21.228619 7.0534396 25 0 0 0 67.915054
-8.2763596 -20.004314 7.1266241 35 0 0 0 80.812271
-8.7342968 -19.726717 7.1023889 27 0 0 0 81.19809
-12.023575 -19.008678 7.4053035 42 0 0 0 83.540367
-7.8629842 -19.023125 7.28197 33 0 0 0 80.812271
-7.3865013 -19.19079 7.2742748 17 0 0 0 80.413673
-21.895687 -18.911139 7.3738341 33 0 0 0 88.241798
-15.953279 -18.522409 7.4426613 13 0 0 0 85.899315
-15.186108 -18.532141 7.2950802 32 0 0 0 85.502243
-8.2206564 -18.583046 7.1892538 41 0 0 0 81.19809
-7.5515552 -18.269211 7.4786377 48 0 0 0 80.812271
-7.0803142 -18.394672 7.4564004 59 0 0 0 80.413673
6.5427222 -18.265671 7.330605 226 0 0 0 69.083298
7.0293345 -18.203793 7.3721991 195 0 0 0 68.684517
-21.367023 -17.557384 7.0497389 15 0 0 0 88.624641
-16.886747 -17.763908 7.462307 34 0 0 0 86.685806
-16.078737 -17.766945 7.2961869 29 0 0 0 86.295509
-16.627331 -16.652552 7.1660094 20 0 0 0 87.078033
-22.144997 -16.444849 7.0313196 39 0 0 0 89.418884
-20.65074 -14.562587 7.0713654 28 0 0 0 89.807358
-19.731012 -14.6575 7.4836531 32 0 0 0 89.418884
-20.080755 -14.166016 7.482079 35 0 0 0 89.807358
-18.308624 -14.310909 7.0768189 36 0 0 0 89.015839
-17.449444 -14.337885 7.4371696 34 0 0 0 88.624641
-19.748678 -12.527135 7.1215692 38 0 0 0 90.59391
-86.494301 -10.682001 7.1325951 9 0 0 0 97.61171
-86.905807 -8.5726156 7.1451368 15 0 0 0 98.006081
17.840263 -6.8594112 7.2063251 106 0 0 0 55.400311
18.741491 -6.6820388 7.011373 98 0 0 0 55.016312
19.737238 -6.4940438 7.3191104 69 0 0 0 54.627602
20.884243 -6.3150139 7.147131 78 0 0 0 54.23737
22.072468 -6.0856299 7.497128 57 0 0 0 53.84687
23.383329 -5.8285689 7.2911201 13 0 0 0 53.452679
41.548412 -5.0852098 7.4703226 12 0 0 0 51.493713
-40.571186 -2.0057969 7.3364573 5 0 0 0 98.783676
-88.506813 -0.0099894805 7.2337046 13 0 0 0 99.553482
24.477121 10.195801 7.3383131 62 0 0 0 43.309887
23.093241 10.981679 7.0775628 51 0 0 0 42.524479
23.724224 10.57431 7.1888175 59 0 0 0 42.922321
-17.334705 11.502671 7.3258948 85 0 0 0 8.9568901
-16.642639 11.638028 7.1513066 103 0 0 0 9.3561897
-15.974686 11.762668 7.4699101 84 0 0 0 9.7383404
-15.303771 11.854962 7.2892694 101 0 0 0 10.12661
-14.690218 11.964328 7.1340194 119 0 0 0 10.52036
21.469704 12.231837 7.4471464 54 0 0 0 41.355911
-18.209354 12.74823 7.2842469 32 0 0 0 9.3561897
-17.574675 12.954776 7.1547461 83 0 0 0 9.7383404
20.383125 12.980578 7.2834239 55 0 0 0 40.566486
20.930513 12.616476 7.3656945 69 0 0 0 40.954529
19.882378 13.360178 7.2198477 73 0 0 0 40.186993
19.370689 13.719798 7.1545825 66 0 0 0 39.7924
18.362902 14.412857 7.0362167 78 0 0 0 39.015034
18.862684 14.069305 7.0927982 80 0 0 0 39.399799
16.963932 15.460662 7.4873538 67 0 0 0 37.842808
11.93501 16.218889 7.0702057 57 0 0 0 34.706848
-4.9371705 -50.375584 7.8782754 5 0 0 0 76.11573
-3.6872811 -50.310677 7.8507924 12 0 0 0 75.725349
-14.834442 -29.51438 7.6002178 21 0 0 0 81.989166
-18.051266 -28.54493 7.7717209 8 0 0 0 83.540367
-17.175301 -28.694822 7.6953721 21 0 0 0 83.156509
-15.395524 -28.843967 7.5233936 27 0 0 0 82.375328
-16.076117 -28.417686 7.5133238 30 0 0 0 82.769043
-12.541358 -28.336739 7.8913693 26 0 0 0 81.19809
-11.492286 -27.788294 7.6581998 16 0 0 0 80.812271
-9.399168 -26.312336 7.81073 22 0 0 0 80.032677
-20.865088 -25.456583 7.5762219 16 0 0 0 85.502243
-9.7792492 -25.390562 7.6073499 46 0 0 0 80.413673
-22.612413 -23.78068 7.5538473 16 0 0 0 86.685806
-21.464169 -22.573158 7.9364552 11 0 0 0 86.685806
-10.666341 -22.59185 7.602921 27 0 0 0 81.592308
-24.662485 -22.381603 7.6661696 17 0 0 0 87.849907
-11.892714 -22.28734 7.6881108 16 0 0 0 82.375328
-11.173646 -22.236195 7.5737071 35 0 0 0 81.989166
-24.937296 -21.538805 7.5852318 14 0 0 0 88.241798
-21.884871 -21.912701 7.8910136 7 0 0 0 87.078033
-18.353872 -21.303555 7.8655763 24 0 0 0 85.899315
9.4256945 -21.254719 7.6368804 27 0 0 0 67.915054
-10.394731 -20.675972 7.6172905 11 0 0 0 81.989166
-10.27252 -19.257029 7.7208357 22 0 0 0 82.375328
-9.7069407 -19.323606 7.6497011 20 0 0 0 81.989166
-8.8034277 -18.651585 7.8021111 47 0 0 0 81.592308
-6.6680346 -18.67816 7.5022149 30 0 0 0 80.032677
-8.0722799 -18.248075 7.5488362 45 0 0 0 81.19809
-20.711113 -17.88802 7.6562061 16 0 0 0 88.241798
-15.328219 -17.790428 7.7315149 23 0 0 0 85.899315
-10.170979 -17.988953 7.8181849 21 0 0 0 82.769043
-18.465376 -16.762465 7.5927477 18 0 0 0 87.849907
-19.555889 -16.074984 7.7067595 17 0 0 0 88.624641
-18.739323 -16.190298 7.5398979 10 0 0 0 88.241798
-13.998497 -16.257854 7.5916877 13 0 0 0 85.899315
-14.829027 -15.604194 7.6174736 36 0 0 0 86.685806
-14.353253 -15.865412 7.5708346 18 0 0 0 86.295509
-16.63842 -15.109154 7.9521279 38 0 0 0 87.849907
-14.564166 -15.325722 7.9998364 8 0 0 0 86.685806
-18.754101 -14.654348 7.8361187 31 0 0 0 89.015839
-15.210247 -14.508758 7.9540505 19 0 0 0 87.463326
-19.29484 -14.328428 7.912385 37 0 0 0 89.418884
-17.536633 -13.712729 7.8768554 56 0 0 0 89.015839
-18.908405 -13.333976 7.6183143 44 0 0 0 89.807358
-18.071344 -13.429518 7.9662118 31 0 0 0 89.418884
-18.398439 -12.984076 7.9674315 56 0 0 0 89.807358
-18.966152 -12.035659 7.9475155 12 0 0 0 90.59391
42.156853 -9.4292784 7.7165561 11 0 0 0 53.061981
42.042645 -7.2566791 7.6175313 7 0 0 0 52.276939
18.826273 -6.7113066 7.5328035 96 0 0 0 55.016312
19.809977 -6.5170093 7.8570857 78 0 0 0 54.627602
20.972271 -6.3326368 7.7136607 61 0 0 0 54.23737
23.408163 -5.8380704 7.8962245 11 0 0 0 53.452679
24.46888 10.19782 7.9885015 47 0 0 0 43.309887
25.972628 10.075879 7.7082887 10 0 0 0 43.692822
23.73498 10.58444 7.8319178 69 0 0 0 42.922321
22.58128 11.432658 7.6279621 63 0 0 0 42.130009
23.150301 11.01404 7.7261858 76 0 0 0 42.524479
-17.330399 11.50103 7.8319411 87 0 0 0 8.9568901
-16.619371 11.622892 7.6364784 71 0 0 0 9.3561897
22.035404 11.845936 7.5398283 38 0 0 0 41.739361
20.946468 12.621238 7.9755964 60 0 0 0 40.954529
19.904861 13.370262 7.820394 48 0 0 0 40.186993
20.430296 13.005629 7.898592 59 0 0 0 40.566486
19.3965 13.732954 7.7511749 57 0 0 0 39.7924
18.396965 14.434233 7.6267295 68 0 0 0 39.015034
18.898483 14.090757 7.6884708 61 0 0 0 39.399799
17.904606 14.773637 7.5713797 82 0 0 0 38.62426
17.422686 15.111376 7.5230274 58 0 0 0 38.234409
12.602474 16.269621 7.7285175 57 0 0 0 35.096031
1.3677384 -54.633705 8.4981318 21 0 0 0 74.157639
-2.555717 -52.542343 8.1843815 15 0 0 0 75.340302
-1.2700499 -52.76963 8.2112961 19 0 0 0 74.950592
-1.1347827 -47.104408 8.4994755 13 0 0 0 74.950592
-3.4417553 -46.959412 8.4954176 16 0 0 0 75.725349
-2.2779047 -46.808155 8.4546528 12 0 0 0 75.340302
-9.0228949 -45.478153 8.370141 10 0 0 0 77.67672
-18.503775 -34.657078 8.0727301 19 0 0 0 82.375328
-22.119156 -33.138069 8.1880903 7 0 0 0 83.938797
-20.142437 -30.18734 8.349 17 0 0 0 83.938797
-14.250033 -28.351921 8.0809908 15 0 0 0 81.989166
-13.456185 -28.493969 8.0246811 9 0 0 0 81.592308
-18.208225 -27.287594 8.3552713 21 0 0 0 83.938797
-12.043445 -27.211903 8.3183966 20 0 0 0 81.19809
-9.3515749 -26.195353 8.4595041 37 0 0 0 80.032677
-10.229 -24.744572 8.1454792 27 0 0 0 80.812271
-12.007846 -22.495104 8.3908453 16 0 0 0 82.375328
-7.8150506 -21.898321 8.221159 21 0 0 0 80.032677
6.0708318 -21.891226 8.0227165 29 0 0 0 70.259827
6.6288252 -21.810045 8.0495424 131 0 0 0 69.868118
7.1817274 -21.700279 8.0710373 132 0 0 0 69.472305
-9.9787846 -21.145317 8.2687168 16 0 0 0 81.592308
-20.726339 -20.752701 8.203351 19 0 0 0 87.078033
-21.386372 -19.408249 8.0780172 23 0 0 0 87.849907
-9.7310829 -18.793806 8.0063248 19.5 0 0 0 82.182251
-17.180523 -18.067377 8.2071028 13 0 0 0 86.685806
-16.430603 -18.150238 8.0595617 24 0 0 0 86.295509
-17.664236 -17.686062 8.2283669 21 0 0 0 87.078033
-18.327599 -16.631927 8.1473608 15 0 0 0 87.849907
-17.779924 -16.948877 8.0865602 15 0 0 0 87.463326
-18.500816 -15.978889 8.0478954 31 0 0 0 88.241798
-18.175413 -15.709152 8.4981642 19 0 0 0 88.241798
-16.169613 -14.683553 8.2638979 17 0 0 0 87.849907
-16.54056 -14.295723 8.2716446 25 0 0 0 88.241798
-16.725183 -13.078184 8.0337086 22 0 0 0 89.015839
-17.716452 -12.502825 8.2043018 15 0 0 0 89.807358
-17.298525 -12.855206 8.1546526 32 0 0 0 89.418884
20.966303 -6.3298974 8.2482758 65 0 0 0 54.23737
22.205223 -6.1128325 8.1061115 62 0 0 0 53.84687
25.857035 10.036814 8.3569899 31 0 0 0 43.692822
23.797958 10.607865 8.4966726 49 0 0 0 42.922321
22.637941 11.4566 8.2741041 52 0 0 0 42.130009
23.1814 11.024175 8.3710203 56 0 0 0 42.524479
22.05135 11.849771 8.1639681 42 0 0 0 41.739361
21.494871 12.24137 8.0671415 43 0 0 0 41.355911
19.931168 13.398034 8.4212971 57 0 0 0 40.186993
20.439768 13.02177 8.4981813 58 0 0 0 40.566486
19.409584 13.752371 8.3414831 56 0 0 0 39.7924
18.430775 14.470975 8.2172003 61 0 0 0 39.015034
18.921391 14.118015 8.2784996 50 0 0 0 39.399799
17.934895 14.808922 8.1564531 43 0 0 0 38.62426
17.430136 15.128278 8.0942707 50 0 0 0 38.234409
-4.6392188 -47.336288 8.5821505 8 0 0 0 76.11573
-13.047362 -27.628828 8.5408258 23 0 0 0 81.592308
-14.598339 -27.351698 8.6668034 16 0 0 0 82.375328
-8.9735661 -27.23044 8.7185535 4 0 0 0 79.636757
-15.202065 -26.873755 8.6315136 15 0 0 0 82.769043
-10.121263 -26.295815 8.5697098 22 0 0 0 80.413673
-13.70107 -22.889488 8.7776747 7 0 0 0 83.156509
-7.3005314 -22.161636 8.8212423 28 0 0 0 79.636757
-12.192634 -21.569017 8.7614794 17 0 0 0 82.769043
6.637516 -21.835752 8.6182489 120 0 0 0 69.868118
7.1968083 -21.743076 8.6481495 161 0 0 0 69.472305
-15.572528 -19.012154 8.6922874 9 0 0 0 85.502243
-15.155696 -17.603579 8.7865772 26 0 0 0 85.899315
-16.413815 -16.445704 8.7893009 15 0 0 0 87.078033
42.749874 -9.5599537 8.9025774 7 0 0 0 53.061981
42.385933 -7.3141394 8.7379351 9 0 0 0 52.276939
22.304539 -6.139133 8.7091541 64 0 0 0 53.84687
23.542017 -5.86164 8.5354433 12 0 0 0 53.452679
43.037113 -5.2654972 8.8035965 7 0 0 0 51.493713
41.945583 -4.0891347 8.5562468 7 0 0 0 51.108887
25.698605 9.9707737 8.9875574 33 0 0 0 43.692822
24.525545 10.21679 8.6637154 42 0 0 0 43.309887
22.662981 11.479468 8.9075584 43 0 0 0 42.130009
-24.610001 11.583332 8.912632 55 0 0 0 6.62533
22.088093 11.879644 8.7939548 33 0 0 0 41.739361
21.523006 12.267496 8.6866522 52 0 0 0 41.355911
20.967718 12.644133 8.5856457 45 0 0 0 40.954529
19.43648 13.771379 8.9365253 47 0 0 0 39.7924
18.447868 14.484265 8.7993231 40 0 0 0 39.015034
18.94445 14.135131 8.8675556 43 0 0 0 39.399799
17.957071 14.827033 8.736908 45 0 0 0 38.62426
17.48057 15.171705 8.6844959 51 0 0 0 38.234409
-23.066082 -28.144516 9.2661381 12 0 0 0 85.502243
-18.685446 -15.365681 9.1502905 25 0 0 0 88.624641
-20.85033 -12.52491 9.1992197 8 0 0 0 90.990944
-20.471203 -12.991353 9.1701336 14 0 0 0 90.59391
-86.251228 -10.652048 9.2238426 11 0 0 0 97.61171
-86.55188 -8.5377512 9.2289639 8 0 0 0 98.006081
23.577225 -5.8693752 9.1436033 8 0 0 0 53.452679
24.576933 10.248649 9.3359261 41 0 0 0 43.309887
23.859015 10.645384 9.1602621 41 0 0 0 42.922321
23.234793 11.059784 9.0225248 47 0 0 0 42.524479
-23.870913 11.947486 9.3992033 55 0 0 0 7.0150599
22.099035 11.885756 9.4130592 24 0 0 0 41.739361
21.570105 12.294467 9.3138275 40 0 0 0 41.355911
21.021715 12.676756 9.2090387 40 0 0 0 40.954529
19.96636 13.421678 9.0254622 50 0 0 0 40.186993
20.485922 13.051195 9.1123343 43 0 0 0 40.566486
-49.264523 16.221365 9.3438683 16 0 0 0 4.6676202
-49.399086 17.618591 9.4476109 14 0 0 0 5.06532
-7.118937 -48.169426 9.9848757 24 0 0 0 76.902443
-11.802211 -47.225388 9.986146 16 0 0 0 78.463913
-10.63557 -47.482494 9.9811687 8 0 0 0 78.069672
-8.1320696 -47.015148 9.7853966 19 0 0 0 77.290718
11.825988 -47.12014 9.9449368 19 0 0 0 70.651031
-19.690271 -25.27442 9.7455015 15 0 0 0 85.109795
43.034721 -8.5098543 9.9869995 8 0 0 0 52.66338
42.201584 -4.10502 9.6460428 9 0 0 0 51.108887
43.229313 -3.1351581 9.8572855 10 0 0 0 50.718769
25.65835 9.9659824 9.6496592 30 0 0 0 43.692822
24.550369 10.238026 9.9775934 33 0 0 0 43.309887
23.900513 10.664236 9.8173294 44 0 0 0 42.922321
22.701052 11.498994 9.5459051 52 0 0 0 42.130009
23.295538 11.088965 9.6780968 40 0 0 0 42.524479
-24.541897 11.54214 9.5495281 46 0 0 0 6.62533
-49.4907 19.030691 9.5505762 12 0 0 0 5.45399
-4.7596083 -48.585823 10.008935 15 0 0 0 76.11573
-9.4989872 -47.890507 10.013606 12 0 0 0 77.67672
-17.177326 -20.97373 10.250174 9 0 0 0 85.502243
43.571495 -9.7336559 10.165417 13 0 0 0 53.061981
43.381516 -7.4761767 10.019554 14 0 0 0 52.276939
-50.737438 1.2307521 10.404767 6 0 0 0 0
25.616253 9.9501486 10.307186 30 0 0 0 43.692822
-24.486509 11.517406 10.189077 38 0 0 0 6.62533
-23.818314 11.922473 10.029231 45 0 0 0 7.0150599
-49.060555 16.156618 10.574055 14 0 0 0 4.6676202
-49.141693 17.529209 10.680158 10 0 0 0 5.06532
-49.245934 18.939051 10.799615 20 0 0 0 5.45399
11.844096 -47.150417 11.141785 30 0 0 0 70.651031
44.099823 -4.287734 11.166009 9 0 0 0 51.108887
-48.959564 16.116383 11.811344 13 0 0 0 4.6676202
-48.997047 17.47048 11.919387 11 0 0 0 5.06532
-34.249626 -72.530159 12.488029 7 0 0 0 81.592308
11.874521 -47.264282 12.365338 37 0 0 0 70.651031
-49.227379 18.924725 12.083828 16 0 0 0 5.45399
-32.823589 -74.173126 12.626698 8 0 0 0 81.19809
-48.722874 16.040836 13.011825 18 0 0 0 4.6676202
-48.844677 17.418631 13.153739 16 0 0 0 5.06532
-49.134079 18.891451 13.351612 14 0 0 0 5.45399
11.884267 -47.295933 13.5853 24 0 0 0 70.651031
-68.60408 -10.200822 14.215714 12 0 0 0 97.220436
-48.505299 15.971606 14.220523 16 0 0 0 4.6676202
-48.602932 17.334846 14.368769 13 0 0 0 5.06532
11.921712 -47.402679 14.818832 23 0 0 0 70.651031
-48.911537 18.808392 14.591232 17 0 0 0 5.45399
-48.913101 20.198328 14.734298 6 0 0 0 5.84656
-48.385532 15.925268 15.435609 23 0 0 0 4.6676202
-48.477463 17.283062 15.594811 17 0 0 0 5.06532
-48.686951 18.714754 15.804401 12 0 0 0 5.45399
-49.224667 21.74675 16.304382 11 0 0 0 6.2381101
-48.129848 15.852748 16.606829 16 0 0 0 4.6676202
-48.258564 17.216915 16.791281 13 0 0 0 5.06532
-48.535164 18.66865 17.041063 7 0 0 0 5.45399
