# .PCD v0.7 - Point Cloud Data file format
VERSION 0.7
FIELDS x y z intensity normal_x normal_y normal_z curvature
SIZE 4 4 4 4 4 4 4 4
TYPE F F F F F F F F
COUNT 1 1 1 1 1 1 1 1
WIDTH 926
HEIGHT 1
VIEWPOINT 0 0 0 1 0 0 0
POINTS 926
DATA ascii
-7.8677559 9.4629354 0.08873257 343 0 0 0 13.64943
-2.5854278 9.017952 0.075694919 226 0 0 0 20.294781
-2.2435939 9.2424288 0.15716268 439.66666 0 0 0 20.934824
-1.8222107 9.1134806 0.15285572 432.66666 0 0 0 21.587532
-7.7939987 9.6947031 0.2960397 361.66666 0 0 0 13.910045
-2.4895873 9.5870819 0.32454127 381 0 0 0 20.675631
-29.091562 10.344965 0.20704308 78 0 0 0 5.0658798
-0.35045183 10.773636 0.22009745 308.5 0 0 0 24.185949
-3.5398111 11.364697 0.085899428 144 0 0 0 19.89221
-0.7475633 13.440504 0.43296391 141 0 0 0 23.79685
-0.75459146 13.540982 0.097855054 215 0 0 0 23.79685
-1.2582513 14.25151 0.21915829 434.33334 0 0 0 23.275864
-61.855373 17.029655 0.40765822 10 0 0 0 3.89662
-51.09565 -53.689953 0.55636352 18 0 0 0 86.662704
-24.707134 -15.643882 0.9718262 63 0 0 0 90.573273
-22.809452 -12.919846 0.87475747 81 0 0 0 91.344391
20.030968 -12.01705 0.79075307 256 0 0 0 58.132793
19.91148 -11.289824 0.77641958 267 0 0 0 57.742008
-8.1687384 -9.0034513 0.7212131 821 0 0 0 86.276176
-7.7065067 -8.9252834 0.84705937 875 0 0 0 85.885315
-7.1861901 -8.8936605 0.86940426 643.66669 0 0 0 85.353172
-6.7022991 -8.8702574 0.75420165 201.66667 0 0 0 84.82843
-6.2171726 -8.8144703 0.77822733 215.5 0 0 0 84.31337
-5.7333298 -8.7191114 0.79569983 297.33334 0 0 0 83.785736
-5.2961946 -8.6551828 0.69089323 273.66666 0 0 0 83.275558
-4.8075738 -8.6301203 0.75501347 138.66667 0 0 0 82.627121
-4.5529943 -8.4944725 0.57739663 613 0 0 0 82.365356
-4.2263288 -8.3722506 0.6791904 1480.5 0 0 0 81.979103
-3.7937176 -8.3069515 0.72879761 1634.2 0 0 0 81.353012
-3.3067122 -8.2331772 0.75253946 1679.5 0 0 0 80.607399
-2.9410698 -8.1807203 0.73773003 1643.3334 0 0 0 80.020813
17.610502 -8.3377953 0.66876745 435 0 0 0 56.567902
17.533411 -7.7797136 0.65969545 452 0 0 0 56.184673
-2.230669 -7.2998557 0.74573088 573.16669 0 0 0 79.236946
-1.712335 -7.2220001 0.77996027 546.59998 0 0 0 78.2202
-1.2581131 -7.1502433 0.79936463 613.88892 0 0 0 77.288216
-0.7160632 -7.082057 0.78429466 1413 0 0 0 76.115707
-0.36421275 -7.0303726 0.77580422 1805 0 0 0 75.329773
17.456348 -7.2373681 0.6511746 426 0 0 0 55.796112
-0.10529845 -6.9786553 0.76952672 782.5 0 0 0 74.74807
0.31919158 -6.9217863 0.76441008 816.66669 0 0 0 73.764435
0.82163095 -6.8404484 0.76046443 563.11108 0 0 0 72.593826
1.321074 -6.7574472 0.76029801 649.44446 0 0 0 71.427299
1.8241667 -6.6785183 0.76454479 601 0 0 0 70.256554
2.2483141 -6.6084466 0.77078241 581.83331 0 0 0 69.273941
2.6842115 -6.5418067 0.78087568 544.22223 0 0 0 68.299713
3.0504272 -6.5048847 0.96868449 559 0 0 0 67.517288
7.1900115 -6.5444412 0.70748132 1539.5 0 0 0 61.261887
7.5125327 -6.5056973 0.84658766 1482 0 0 0 60.876141
17.376472 -6.7085695 0.64306617 503 0 0 0 55.411034
3.245043 -6.4501171 0.7752614 565.375 0 0 0 67.083115
3.7600346 -6.3689432 0.76437026 631.14288 0 0 0 66.015236
4.2855339 -6.2879753 0.7463392 628.75 0 0 0 64.985565
4.7072859 -6.2246728 0.76512802 635 0 0 0 64.199821
5.2245255 -6.1497021 0.77071017 606.79999 0 0 0 63.296516
5.7497964 -6.0699911 0.71371341 567.79999 0 0 0 62.434479
6.1019158 -6.0315394 0.87474966 564 0 0 0 61.915619
7.4941354 -6.4919424 0.59747732 1480 0 0 0 60.876141
7.8356476 -6.4555769 0.73797095 1414.5 0 0 0 60.48024
8.1765823 -6.404737 0.75437713 1360.5 0 0 0 60.088921
8.6940985 -6.3038707 0.77957034 1211.25 0 0 0 59.505196
9.254425 -6.2032757 0.80805683 952.5 0 0 0 58.925598
9.6938896 -6.1568899 0.83215642 875 0 0 0 58.529678
17.280384 -6.1877527 0.63489866 537 0 0 0 55.015991
6.2570834 -5.9870715 0.63399255 555 0 0 0 61.654659
17.196918 -5.6848087 0.6276291 545 0 0 0 54.628712
17.086906 -5.1859522 0.61989909 602 0 0 0 54.242168
17.022675 -4.7124405 0.61415434 493 0 0 0 53.85675
-21.242237 -4.2246161 0.72799534 128 0 0 0 96.41024
16.888414 -4.2309194 0.60646176 258 0 0 0 53.459248
16.656103 -3.7398472 0.59588516 365 0 0 0 53.065121
-14.489386 -3.2532661 0.51042432 5522 0 0 0 96.020203
16.569897 -3.2944396 0.59059596 584 0 0 0 52.675301
16.520262 -2.8638632 0.58687264 429 0 0 0 52.292759
17.898172 -2.6501594 0.63080794 179 0 0 0 51.892529
19.415665 -2.387676 0.67942512 192 0 0 0 51.504089
15.52893 -1.52373 0.54992235 615 0 0 0 51.122887
15.412683 -1.1299608 0.54535264 550 0 0 0 50.72871
25.912376 -1.2576987 0.8903724 82 0 0 0 50.336601
28.946512 -0.69183177 0.98986131 55 0 0 0 49.950752
3.3479767 3.337657 0.71555859 513.75 0 0 0 37.265671
3.6944363 3.3426678 0.72599202 403.14285 0 0 0 38.026272
-3.1621795 3.9331098 0.54828256 731 0 0 0 14.04035
-2.7208564 3.8553641 0.61957127 651.36365 0 0 0 15.071896
-2.3514855 3.9452426 0.65890276 458.60001 0 0 0 16.306614
0.33511284 3.9499302 0.83541876 158.85715 0 0 0 26.249071
0.78017813 3.9022973 0.76020187 95.333336 0 0 0 28.024004
1.0672185 3.9511292 0.71482104 122 0 0 0 29.061695
-10.176235 4.168406 0.63363123 719 0 0 0 5.8547702
-6.1491723 4.4853377 0.63098705 1095 0 0 0 9.7445097
-3.1981139 4.0787973 0.7503134 376 0 0 0 14.2349
-2.6643803 4.0599046 0.88403469 780.66669 0 0 0 15.60329
-2.198761 4.1896024 0.74878478 482.88889 0 0 0 17.166349
-1.9646981 4.2330117 0.51050979 25 0 0 0 17.947001
-0.11044022 4.3871121 0.70365274 324.5 0 0 0 24.475351
0.098901972 4.2829127 0.68786293 191.57143 0 0 0 25.246225
1.3680547 4.3008752 0.72675335 248 0 0 0 29.723988
1.5234731 4.474288 0.53009254 199 0 0 0 30.035999
4.2092857 4.499671 0.6905629 882 0 0 0 36.678127
7.6147518 4.2330217 0.53640735 874 0 0 0 41.557404
10.867781 4.3785992 0.71003473 621.5 0 0 0 43.511642
11.47378 4.1362777 0.73795342 100 0 0 0 44.093609
14.650446 4.4736204 0.54154932 234 0 0 0 44.879181
15.136615 4.2169003 0.55480742 140 0 0 0 45.264286
-6.0707364 4.6589713 0.63397413 1023 0 0 0 10.13439
-2.0966778 4.6326671 0.84224802 509.16666 0 0 0 18.076164
-1.9726017 4.8829279 0.89506173 688 0 0 0 18.72949
-0.19493735 4.5496149 0.61607391 217 0 0 0 24.185949
0.33876729 4.6485252 0.67044926 150 0 0 0 26.004595
0.64707398 4.6479239 0.59935838 157.66667 0 0 0 27.047403
1.2572213 4.7031531 0.7817831 257 0 0 0 28.995934
4.1886711 4.7074475 0.65456742 868.33331 0 0 0 36.287258
7.5832257 4.5901885 0.54448134 774 0 0 0 40.971287
10.68359 4.7720428 0.7085554 85 0 0 0 42.932919
14.410579 4.7917452 0.53690535 396 0 0 0 44.483994
14.641859 4.6683831 0.92031622 181 0 0 0 44.681587
0.79744124 5.0683851 0.69431388 304 0 0 0 27.313946
1.1788306 5.0268126 0.7001639 107 0 0 0 28.477711
4.1342545 5.2640138 0.90985292 762 0 0 0 35.309086
7.4796195 5.3231125 0.790654 969 0 0 0 39.804569
7.525557 5.0809298 0.78293157 835 0 0 0 40.194439
11.103247 5.2903733 0.74238795 627 0 0 0 42.537312
14.316446 5.1554961 0.5375464 419 0 0 0 44.093609
3.9350066 5.8497863 0.60828733 1000.5 0 0 0 34.137817
4.0606799 5.679215 0.83364719 510.33334 0 0 0 34.592907
7.4347334 5.7161465 0.68829656 324.5 0 0 0 39.219616
9.3043461 5.6262503 0.93076056 150 0 0 0 40.971287
3.9442496 6.3516445 0.73315024 427.5 0 0 0 33.55407
9.2131453 6.2081504 0.6715343 122 0 0 0 40.194439
3.8540423 6.7506437 0.75866115 794.75 0 0 0 32.970009
13.238317 6.7069039 0.88721788 67 0 0 0 42.141354
-2.7945242 7.1848416 0.7603879 618.33331 0 0 0 18.8603
3.8279433 7.3102465 0.80224872 819 0 0 0 32.381298
9.9433079 7.2463226 0.73865402 208.5 0 0 0 39.610985
11.056811 7.0530243 0.78637612 135 0 0 0 40.577301
-9.3062124 7.7451601 0.83410466 326.5 0 0 0 10.727381
-8.3151369 7.8212042 0.64745897 461 0 0 0 11.70075
-2.7631714 7.7669544 0.77851635 593.5 0 0 0 19.313004
-2.4026265 7.8587303 0.74405783 217.66667 0 0 0 20.0264
0.84261954 7.5046391 0.81768513 430 0 0 0 26.529631
1.2293036 7.5505772 0.73652869 825.25 0 0 0 27.313946
1.7222289 7.5942497 0.65630615 448 0 0 0 28.28224
2.8431642 7.767076 0.76637977 885.33331 0 0 0 30.2948
3.2754085 7.8250794 0.71561718 849.16669 0 0 0 31.015802
3.7112501 7.7685471 0.72753817 802.16669 0 0 0 31.793356
7.0573444 7.8754535 0.89824617 815 0 0 0 36.292961
-8.9698668 8.0378466 0.68180615 323 0 0 0 11.30407
-8.4255733 8.3255405 0.6702022 413 0 0 0 12.08454
-7.7507668 8.2335072 0.64077544 400 0 0 0 12.672205
-3.5536954 8.3580122 0.96424043 466 0 0 0 18.335871
-2.7393689 8.0196142 0.69821525 560 0 0 0 19.504089
-2.2230902 8.0923882 0.89564073 671.5 0 0 0 20.485207
7.0579567 8.2760563 0.92185402 580 0 0 0 35.890678
-8.6056442 8.5030422 0.9829725 350 0 0 0 12.08454
-8.3624201 8.6762733 0.97886616 5 0 0 0 12.47474
-7.8391094 8.5378609 0.94239628 92 0 0 0 12.86967
-1.6131767 8.7986584 0.51582867 314 0 0 0 21.850519
-1.2874444 8.8338165 0.51556468 562 0 0 0 22.429306
-0.76314783 8.6029148 0.75650722 489 0 0 0 23.326975
-8.3008423 9.7463894 0.72043586 205 0 0 0 13.452511
-7.801188 9.8710737 0.70805782 425 0 0 0 14.04035
-2.1943402 9.9428806 0.83428681 242.5 0 0 0 21.260231
-29.024303 10.328698 0.97312438 74 0 0 0 5.0658798
-2.1450355 10.34187 0.60223609 497 0 0 0 21.456039
-1.6622318 10.603551 0.87890095 310 0 0 0 22.23772
-3.2613904 11.460152 0.67348427 317 0 0 0 20.294781
-3.3420184 12.980634 0.7538045 169 0 0 0 20.675631
-3.2244298 13.954869 0.80364311 303 0 0 0 21.064421
-28.754292 -30.199059 1.3693591 19 0 0 0 86.662704
-29.05695 -29.054527 1.350499 6 0 0 0 87.0532
-31.22694 -28.300615 1.3850366 9 0 0 0 87.830147
-32.606907 -26.758398 1.3862553 18 0 0 0 88.602928
-27.99284 -26.648754 1.272886 11 0 0 0 87.44902
-35.816612 -25.224123 1.4382631 17 0 0 0 89.784233
-24.758566 -18.359903 1.0225129 42 0 0 0 89.394882
-27.397915 -16.420313 1.058172 31 0 0 0 90.968208
20.152048 -12.089937 1.3711901 22 0 0 0 58.132793
19.958277 -11.316685 1.3404244 45 0 0 0 57.742008
19.792967 -9.9714689 1.2978805 11 0 0 0 56.963551
-8.1955166 -9.0362883 1.1747711 773 0 0 0 86.276176
19.81645 -9.3799896 1.2852179 15 0 0 0 56.567902
-7.7243843 -8.9477139 1.2824347 945 0 0 0 85.885315
-7.1542454 -8.929491 1.2422426 458 0 0 0 85.287254
-6.6599774 -8.9714909 1.3508079 22.5 0 0 0 84.697891
-6.3053055 -8.9431801 1.3232024 32.5 0 0 0 84.31337
-5.7039547 -8.7551823 1.2650176 173 0 0 0 83.721466
-5.2551832 -8.7536469 1.2363441 45.5 0 0 0 83.149002
-4.801887 -8.7059622 1.2048123 45 0 0 0 82.561676
-4.2378221 -8.3996582 1.2573696 1531 0 0 0 81.979103
-3.8574634 -8.3431988 1.2740282 1551.4 0 0 0 81.431046
-3.312233 -8.2529659 1.2991748 1578.75 0 0 0 80.607391
-2.8633916 -8.1771631 1.3016324 1419 0 0 0 79.888161
-2.2772801 -7.8060255 1.2907012 456.5 0 0 0 79.043991
-1.7489861 -7.7196832 1.2571853 554.33331 0 0 0 78.065338
-1.2487335 -7.6632285 1.2335837 108.5 0 0 0 77.093094
-0.88150483 -7.8031936 1.247264 639.5 0 0 0 76.309822
17.672998 -7.8417645 1.1386459 99 0 0 0 56.184673
-2.2584147 -7.3976874 1.2316406 372 0 0 0 79.236961
-1.8049971 -7.4078536 1.2772219 331.66666 0 0 0 78.323051
-1.3124269 -7.4738297 1.3939155 253 0 0 0 77.288216
-0.6677599 -7.3155236 1.3506387 355.20001 0 0 0 75.960411
-0.2168846 -7.2070231 1.3485684 448.125 0 0 0 74.99102
0.24706553 -7.2328086 1.4183531 213.25 0 0 0 73.958054
0.68592912 -7.1726699 1.4127431 204.16667 0 0 0 72.983971
1.2311097 -7.2196693 1.3474277 226.66667 0 0 0 71.818573
1.7652874 -7.138413 1.3531661 278.66666 0 0 0 70.644386
2.2168398 -7.0733223 1.3640273 258 0 0 0 69.6698
17.452848 -7.236167 1.1142689 300 0 0 0 55.796112
-0.018913897 -6.9670138 1.1104065 851 0 0 0 74.549606
0.3202416 -6.9267402 1.1056632 695 0 0 0 73.764435
0.82549077 -6.8649373 1.102863 705 0 0 0 72.593826
1.258029 -6.8799777 1.2897462 428.5 0 0 0 71.622932
1.7227228 -6.8292418 1.3336837 367.79999 0 0 0 70.566673
2.2346661 -6.7545047 1.3117831 406 0 0 0 69.416054
2.7230804 -6.7299194 1.2320495 515.59998 0 0 0 68.378571
3.207674 -6.8372364 1.3904735 254.66667 0 0 0 67.519554
3.7888145 -6.7342172 1.4228444 443.66666 0 0 0 66.349968
4.2749681 -6.720273 1.3468982 275.79999 0 0 0 65.49321
4.7387128 -6.6493344 1.3665735 563 0 0 0 64.657692
5.272192 -6.622035 1.3479321 309.5 0 0 0 63.805595
5.7459636 -6.5287447 1.3848052 326 0 0 0 63.02536
7.2216058 -6.5711241 1.1897632 1317.5 0 0 0 61.261887
7.5322275 -6.5218 1.2139857 1317.5 0 0 0 60.876141
17.354574 -6.7003641 1.0984315 499 0 0 0 55.411034
3.2341626 -6.4754844 1.1552712 717.33331 0 0 0 67.131355
3.8115489 -6.4032345 1.0660319 493.33334 0 0 0 65.959801
4.3043642 -6.3132844 1.0300692 599 0 0 0 64.985565
4.805151 -6.3515701 1.2731 457.25 0 0 0 64.199821
5.1776648 -6.186038 1.0869026 595 0 0 0 63.412643
5.6541448 -6.1160469 1.121807 580 0 0 0 62.631714
6.1826706 -6.2124844 1.2896121 436.5 0 0 0 62.044575
7.8554726 -6.4699125 1.2396536 1281 0 0 0 60.48024
8.1833858 -6.408123 1.2656684 1269 0 0 0 60.088921
8.7214546 -6.3217053 1.3112031 1108 0 0 0 59.505199
9.287961 -6.2237039 1.3599758 896 0 0 0 58.925598
9.7262573 -6.1764712 1.2587929 995 0 0 0 58.529678
17.278309 -6.1872177 1.0848441 514 0 0 0 55.015991
17.180847 -5.6796989 1.0708127 566 0 0 0 54.628712
17.10824 -5.1925817 1.0590811 564 0 0 0 54.242168
17.066057 -4.7230396 1.2712624 321 0 0 0 53.85675
16.952156 -4.2469797 1.0372369 676 0 0 0 53.459248
17.049294 -4.2682214 1.4813726 110 0 0 0 53.459248
16.894764 -3.7919102 1.2449628 369.5 0 0 0 53.065121
16.835506 -3.3457198 1.2352624 359.5 0 0 0 52.675301
16.784815 -2.9082065 1.2268319 321 0 0 0 52.292759
17.978199 -2.66205 1.0792495 216 0 0 0 51.892529
19.462639 -2.3934963 1.16192 178 0 0 0 51.504089
21.237024 -2.0822139 1.2614967 128 0 0 0 51.122887
23.357321 -1.7107428 1.3812736 26 0 0 0 50.72871
34.324421 0.023931531 1.1669679 14 0 0 0 49.559326
0.40275496 3.9379478 1.2241871 157.85715 0 0 0 26.529842
0.72064757 3.9289386 1.2581316 128 0 0 0 27.776899
-2.6288805 4.3536348 1.0484664 956.5 0 0 0 16.18936
-2.4339242 4.3842349 1.0345216 742 0 0 0 16.775629
0.20162347 4.1441207 1.2408093 208.6875 0 0 0 25.673784
0.7271964 4.1473322 1.2097567 96.285713 0 0 0 27.644424
1.0903434 4.164042 1.2059885 178.66667 0 0 0 28.933418
-2.7180202 4.5421319 1.1749045 753 0 0 0 16.252632
-2.2713811 4.7000289 1.1321155 722.57141 0 0 0 17.668234
-0.08437115 4.5834317 1.1824431 235 0 0 0 24.571819
0.15257716 4.7862229 1.1183109 151.33333 0 0 0 25.35704
14.610878 4.861568 1.3062774 341 0 0 0 44.483994
15.00649 4.5853896 1.3306937 336 0 0 0 44.879181
9.0630779 5.4817133 1.1659555 127 0 0 0 40.971287
14.179365 5.3081093 1.2845972 316.5 0 0 0 43.901489
10.720737 5.776835 1.3355631 117 0 0 0 41.749592
11.730772 5.9496145 1.119264 120 0 0 0 42.141354
13.252476 5.916307 1.2318861 133 0 0 0 42.932919
-8.2229481 6.3349047 1.352367 326 0 0 0 10.13439
3.9793797 6.4113674 1.2043608 544 0 0 0 33.55407
4.0574656 6.1924143 1.1831609 372 0 0 0 33.944351
7.391921 6.131784 1.0578164 771 0 0 0 38.632832
9.2128191 6.2112093 1.2200177 293 0 0 0 40.194439
10.658186 6.0865669 1.1936662 133 0 0 0 41.365219
11.991959 6.4575105 1.1570443 162 0 0 0 41.749592
12.661608 6.0320363 1.1913211 92 0 0 0 42.537312
-8.2565527 6.6896906 1.3835332 433 0 0 0 10.53028
3.9472435 6.7209415 1.2418455 577 0 0 0 33.165169
10.265385 6.554492 1.3340577 346 0 0 0 40.577301
10.947048 6.9866138 1.1033572 173 0 0 0 40.577301
-8.3440542 7.2252254 1.3454437 341.66666 0 0 0 11.05101
-7.4854531 7.0289011 1.3369504 401 0 0 0 11.70075
-2.695996 7.2797055 1.2100616 494 0 0 0 19.12192
3.9144318 7.0542097 1.2830935 603 0 0 0 32.774849
-10.645703 7.8158283 1.3918387 342 0 0 0 9.7445097
-10.16639 7.8511257 1.3539506 306 0 0 0 10.13439
-8.3306227 7.8343663 1.2068964 167 0 0 0 11.70075
-7.761641 7.6597815 1.2826046 350.5 0 0 0 12.08454
-2.5976336 7.5870667 1.2483343 521.66669 0 0 0 19.504089
-2.3955212 7.5977559 1.0459752 706 0 0 0 19.89221
2.8951626 7.7201595 1.1006619 386 0 0 0 30.4242
3.3144891 7.8333268 1.2078382 809.33331 0 0 0 31.079775
3.8201966 7.6358938 1.1954954 578 0 0 0 32.087326
7.2136688 7.6652594 1.4111786 598 0 0 0 36.678127
10.57158 7.5058923 1.4161829 79 0 0 0 39.804569
33.981937 7.6700249 1.1848698 80 0 0 0 46.044647
-10.255034 8.3292847 1.3912865 130 0 0 0 10.53028
-9.3753052 8.1987677 1.1631224 311 0 0 0 11.114275
-7.8635845 8.1513557 1.4715033 365 0 0 0 12.47474
-7.2506542 8.2880259 1.4310569 294 0 0 0 13.25559
-3.1366189 8.1862068 1.1468186 301 0 0 0 18.925705
-2.3989818 8.3393517 1.2456049 477.5 0 0 0 20.294781
-1.9136581 8.120677 1.0954612 462 0 0 0 21.064421
-0.63240451 8.3215418 1.3732133 503.66666 0 0 0 23.538004
-0.49290684 8.2412806 1.4959583 301 0 0 0 23.79685
7.1872993 8.0233536 1.442261 515 0 0 0 36.292961
10.979191 8.2072058 1.4942226 155 0 0 0 39.4174
-9.6615219 8.661622 1.0529727 197 0 0 0 11.30407
-9.2224741 8.6816473 1.0281117 171 0 0 0 11.70075
-8.3681011 8.6828098 1.2704825 221 0 0 0 12.47474
-7.3572555 8.8413343 1.4933909 370 0 0 0 13.64943
-2.720022 8.6635141 1.41144 536 0 0 0 19.89221
-2.272537 8.708477 1.2888401 393.5 0 0 0 20.675631
35.224438 8.8652487 1.2333255 34 0 0 0 45.656681
-8.1307888 9.7848644 1.1843824 188.5 0 0 0 13.64943
-2.0429959 9.8155317 1.1876807 458.5 0 0 0 21.456039
-1.6648808 9.7884178 1.1768602 475.5 0 0 0 22.044121
-1.2971978 9.7847567 1.2926131 403 0 0 0 22.62089
8.0377827 9.8958178 1.0727276 29 0 0 0 35.50098
11.943951 9.8747025 1.3049068 206 0 0 0 38.632832
12.436634 9.7752962 1.3320444 192 0 0 0 39.021832
-30.706631 10.089326 1.0219769 68 0 0 0 4.6765099
-9.5688629 10.444158 1.4870311 139 0 0 0 12.86967
-1.1448514 10.710625 1.275882 320.5 0 0 0 23.010429
-0.34832773 10.614249 1.1306148 390 0 0 0 24.185949
-2.5656791 11.019949 1.1968895 325 0 0 0 21.064421
9.0299053 11.681057 1.2349298 240 0 0 0 35.117191
-11.12537 12.775055 1.3627814 84 0 0 0 13.25559
-3.3565688 13.028431 1.0904698 140 0 0 0 20.675631
-0.75117189 13.452419 1.0974989 205 0 0 0 23.79685
-2.5273669 14.031343 1.1554856 422 0 0 0 21.850519
-1.8295983 14.087315 1.3248426 416.5 0 0 0 22.62089
-37.102356 -28.954332 1.5425889 30 0 0 0 88.999748
-23.67556 -24.863373 1.9737122 18 0 0 0 86.662704
-24.904985 -18.468615 1.7869256 28 0 0 0 89.394882
-24.6703 -15.620625 1.6848079 54 0 0 0 90.573273
-22.782196 -12.904455 1.5142845 35 0 0 0 91.344391
23.086779 -12.34749 1.5252686 15 0 0 0 57.358406
19.858982 -10.620233 1.8786556 5 0 0 0 57.358406
21.042063 -10.59516 1.9645349 8 0 0 0 56.963551
-8.21702 -9.0633564 1.7779117 743 0 0 0 86.276176
-6.6909022 -9.0150127 1.7720112 19 0 0 0 84.697891
-7.7475624 -8.9778881 1.7242173 795.5 0 0 0 85.885315
-7.156765 -8.9358921 1.665524 484.25 0 0 0 85.287254
-6.3099351 -8.9515667 1.7292646 23 0 0 0 84.31337
-5.7114162 -8.7683029 1.7829342 108 0 0 0 83.721466
-5.2598734 -8.7634373 1.7417598 39.5 0 0 0 83.149002
-4.7948189 -8.6947756 1.6928378 49.25 0 0 0 82.561676
-4.2525358 -8.4304562 1.8435757 1319 0 0 0 81.979103
-3.8354425 -8.3499966 1.7948868 1482.25 0 0 0 81.392029
-3.3171988 -8.2655277 1.7403749 1435.5 0 0 0 80.607391
-2.9495184 -8.2109795 1.5981306 1575 0 0 0 80.020813
17.637951 -8.3475628 1.6346121 8 0 0 0 56.567902
-2.550061 -7.0923109 1.5698602 153 0 0 0 80.020813
-2.2707217 -7.1249762 1.5578501 122.5 0 0 0 79.429276
-1.8011198 -7.1289291 1.5323137 98.333336 0 0 0 78.456612
-1.2588686 -7.1642289 1.5161047 184.66667 0 0 0 77.288216
-0.81171477 -7.1679945 1.5037078 228 0 0 0 76.309822
17.505024 -7.2544127 1.5899427 96 0 0 0 55.796112
-1.683545 -6.6707745 1.6037434 71.666664 0 0 0 78.456612
-1.1849893 -6.7445445 1.596362 74 0 0 0 77.288216
-0.68437153 -6.7863612 1.5903072 139 0 0 0 76.115707
-0.18449666 -6.7956028 1.5853385 113 0 0 0 74.941963
0.31396112 -6.7708702 1.5810843 109.66666 0 0 0 73.764435
0.80828065 -6.7173386 1.5786595 84.333336 0 0 0 72.593826
1.3060961 -6.6717744 1.5865988 119.33334 0 0 0 71.427307
1.7943522 -6.5653939 1.5889467 96 0 0 0 70.256546
2.128021 -6.5122175 1.5993199 114 0 0 0 69.470177
2.7475033 -6.6928277 1.5109736 225.33333 0 0 0 68.299721
3.2794449 -6.5670781 1.5334301 376.66666 0 0 0 67.131355
6.8894577 -6.5857224 1.5154432 337 0 0 0 61.654659
7.2408323 -6.5877542 1.6772205 1411 0 0 0 61.261887
7.5433254 -6.5305958 1.7094495 1308 0 0 0 60.876141
17.457848 -6.7368617 1.5713454 133 0 0 0 55.411034
-2.302876 -6.3990803 1.5859143 218.66667 0 0 0 80.017914
-1.9346689 -6.3361173 1.5452576 255 0 0 0 79.23568
-0.77719879 -6.1659408 1.6039804 301 0 0 0 76.506905
-0.24268305 -6.0849371 1.5729177 264.5 0 0 0 75.138351
0.28728727 -6.2055593 1.6040335 60.666668 0 0 0 73.764435
0.76514769 -6.3657327 1.6549091 56 0 0 0 72.593819
1.234948 -6.3166394 1.6616921 64.333336 0 0 0 71.427307
1.6962053 -6.211329 1.6629634 32.333332 0 0 0 70.256546
2.2230916 -6.272646 1.6342751 73 0 0 0 69.078369
2.7802086 -6.3266225 1.6142212 84 0 0 0 67.909523
3.2700183 -6.1653175 1.6309012 108.33334 0 0 0 66.741554
3.7578957 -6.3135843 1.5790784 123.25 0 0 0 65.960136
4.2693706 -6.2638636 1.5843698 155 0 0 0 64.985565
4.7375565 -6.1064162 1.6158987 102.66666 0 0 0 64.002068
5.2937851 -6.3247843 1.5192084 181.5 0 0 0 63.412643
5.6333094 -6.2469769 1.5492108 172 0 0 0 62.832001
6.1892262 -6.0664587 1.5962422 240.5 0 0 0 61.85038
7.8679218 -6.4793539 1.7459681 1196.5 0 0 0 60.48024
8.2131596 -6.4305639 1.7863591 1072 0 0 0 60.088921
8.6799803 -6.3455906 1.7958912 1061.3334 0 0 0 59.571533
9.3110876 -6.238256 1.779106 906 0 0 0 58.925598
9.7589331 -6.1950464 1.6911755 809 0 0 0 58.529678
17.328369 -6.2019968 1.7708476 16 0 0 0 55.015991
-28.511684 -5.6702757 1.6762425 47 0 0 0 96.41024
2.3493769 -5.7338119 1.6028967 193.33333 0 0 0 68.299721
2.7998447 -5.6125121 1.6230646 176.66667 0 0 0 67.131355
3.2073741 -5.5483112 1.658411 189.5 0 0 0 66.15451
3.8477707 -5.9555311 1.6576028 79.5 0 0 0 65.376236
4.2417684 -5.7551064 1.6723729 109.33334 0 0 0 64.396233
5.2079878 -5.9223351 1.6490438 123 0 0 0 63.02536
5.694263 -5.7226796 1.6885182 70 0 0 0 62.044064
6.0776668 -5.5353112 1.7192907 57 0 0 0 61.261887
17.229565 -5.6927085 1.7471063 31.5 0 0 0 54.628712
4.3859572 -5.3786654 1.6250926 167 0 0 0 63.606567
4.6877184 -5.3324656 1.6624308 161 0 0 0 63.02536
6.0998826 -5.2875605 1.6895211 137 0 0 0 60.876141
17.189259 -5.2141709 1.9491062 117 0 0 0 54.242168
16.901825 -3.7921188 1.8828057 23 0 0 0 53.065121
16.855715 -3.3483481 1.8687828 8 0 0 0 52.675301
16.868675 -2.921309 1.8623443 25 0 0 0 52.292759
18.169903 -2.6872253 1.7720959 39 0 0 0 51.892529
19.646029 -2.4125683 1.666266 29 0 0 0 51.504089
21.527975 -2.1069221 1.8177867 49 0 0 0 51.122887
26.164009 -1.2698883 1.5408853 36 0 0 0 50.336601
29.408628 -0.70282799 1.726204 34 0 0 0 49.950752
46.977146 1.1875006 1.5843428 64 0 0 0 49.17271
0.3403396 4.307303 1.5980726 212 0 0 0 26.13726
0.73522735 4.1166892 1.5822281 194.60001 0 0 0 27.699732
14.889934 4.9543767 1.712728 311 0 0 0 44.483994
13.176088 5.4976335 1.5607861 66 0 0 0 43.313919
14.580939 5.2542934 1.6917173 371 0 0 0 44.093609
9.8896837 5.6533141 1.6726797 110.5 0 0 0 41.365219
14.615976 5.6773467 1.7106037 256 0 0 0 43.70937
-8.144413 6.2742939 1.5917954 458 0 0 0 10.13439
9.8041706 6.2646489 1.5632993 166 0 0 0 40.577301
11.655143 6.2805767 1.7750612 95 0 0 0 41.749592
12.278383 6.2279096 1.6723382 128.5 0 0 0 42.141354
12.71979 6.0600414 1.5399046 99 0 0 0 42.537312
-8.2691212 6.7005725 1.6467682 516 0 0 0 10.53028
-7.3513098 6.7354927 1.6652377 463.5 0 0 0 11.502411
9.9292946 6.6945429 1.9045713 37 0 0 0 40.194439
10.304806 6.763381 1.806136 61.5 0 0 0 40.385872
11.139173 6.7321029 1.7445464 61 0 0 0 40.971287
15.400257 6.8713131 1.8356603 50 0 0 0 42.932919
-9.815999 7.1994276 1.5820712 386 0 0 0 9.7445097
-8.3094301 7.0779223 1.6880059 470 0 0 0 10.92448
-7.5911531 7.4893017 1.779774 386.5 0 0 0 12.08454
-2.5809093 7.2383208 1.7147317 477.5 0 0 0 19.313004
-2.3062332 7.30405 1.5710799 608 0 0 0 19.89221
9.4729996 7.0908508 1.5872942 176 0 0 0 39.4174
10.217604 7.2595658 1.8335505 100.5 0 0 0 39.804569
2.8565755 7.9091959 1.5380816 611 0 0 0 30.230099
3.3286908 7.958931 1.5789587 775.5 0 0 0 31.015804
3.7682085 7.89361 1.6023962 580.5 0 0 0 31.793354
18.600794 7.7503819 1.6955928 87 0 0 0 43.313919
-7.8580599 8.3486958 1.7709396 353 0 0 0 12.672205
-7.1881666 8.4226704 1.8465562 429.5 0 0 0 13.452511
-6.8193798 8.3937607 1.8031104 375 0 0 0 13.844891
-2.604049 8.2769356 1.9871989 416 0 0 0 19.89221
-2.2499642 8.2689133 1.7115965 525.59998 0 0 0 20.523291
-7.8282609 8.5240068 1.5028168 358 0 0 0 12.86967
-6.852509 8.6526089 1.7052861 390 0 0 0 14.04035
-2.7225668 8.671711 1.636571 531 0 0 0 19.89221
7.439321 8.7237053 1.5314498 713 0 0 0 35.890678
-2.1451256 9.1453218 1.8074772 385 0 0 0 21.064421
-1.931901 9.2536211 1.8178782 269 0 0 0 21.456039
-3.6001558 9.798892 1.8741341 304 0 0 0 19.12192
-2.0440898 9.8155279 1.5577399 477 0 0 0 21.456039
-1.6366715 9.8616495 1.6369678 472.33334 0 0 0 22.108652
-1.2194167 9.8130283 1.7025633 396 0 0 0 22.750734
12.458202 9.7929277 1.7201668 221 0 0 0 39.021832
-29.772085 10.597739 1.7683461 38 0 0 0 5.0658798
-28.279339 10.851793 1.6937661 68 0 0 0 5.4583802
-2.455708 10.522473 1.6756526 498 0 0 0 21.064421
9.3020582 11.440534 1.5934749 354 0 0 0 35.50098
8.7264528 11.883418 1.5907063 385 0 0 0 34.723713
9.0206232 11.670223 1.592732 369 0 0 0 35.117191
8.2915773 12.214966 1.7726886 241.5 0 0 0 34.137817
7.2592826 12.975115 1.9630572 253 0 0 0 32.774849
7.7060785 12.654169 1.9586191 350.5 0 0 0 33.359619
-11.474826 13.180351 1.8274307 100 0 0 0 13.25559
-1.1725999 14.610314 1.9052001 350 0 0 0 23.408581
-0.81374514 14.638598 1.9066412 336 0 0 0 23.79685
-30.688532 -30.686781 2.4863389 12 0 0 0 87.0532
-30.172745 -28.724911 2.3886678 18 0 0 0 87.44902
-31.187939 -28.265444 2.4133129 30 0 0 0 87.830147
-35.738937 -21.420481 2.3891518 21 0 0 0 90.968208
-24.629671 -15.600984 2.4077625 21 0 0 0 90.573273
-8.2300272 -9.0778399 2.2346859 589 0 0 0 86.276176
-7.7756248 -9.0106602 2.4636636 720 0 0 0 85.885315
-7.0405493 -9.0162182 2.2283564 18.5 0 0 0 85.089508
-6.688046 -9.011301 2.1863594 19.5 0 0 0 84.697891
-7.7641883 -8.9973059 2.1681566 731 0 0 0 85.885315
-7.3408985 -8.9404087 2.2532516 734.5 0 0 0 85.485001
-6.3143888 -8.9580479 2.1357841 17.5 0 0 0 84.31337
-5.7175846 -8.7793617 2.2997284 69 0 0 0 83.721466
-5.2492189 -8.7475872 2.2395377 39.5 0 0 0 83.149002
-4.7804079 -8.6703138 2.1742148 53 0 0 0 82.561676
-4.2534962 -8.4362717 2.3071005 1183 0 0 0 81.979103
-3.8436007 -8.372098 2.2503262 1217.25 0 0 0 81.392029
-3.3234267 -8.2858715 2.2905924 1235 0 0 0 80.607391
-2.8352709 -8.210268 2.337055 1332.25 0 0 0 79.821838
-2.2600222 -8.1202011 2.2689216 1364 0 0 0 78.846535
-1.7143922 -8.0367222 2.2122884 1391 0 0 0 77.8722
17.630287 -8.3442278 2.108459 26 0 0 0 56.567902
19.48428 -8.0728788 2.278394 19 0 0 0 55.796112
-1.3171617 -7.9783602 2.316807 1372 0 0 0 77.131493
-0.79209495 -7.8899689 2.3319309 1489.5 0 0 0 76.115707
-0.2077204 -7.7916741 2.2930708 1464.8334 0 0 0 74.941971
0.26646879 -7.7008438 2.2673492 1498.75 0 0 0 73.958054
0.73315167 -7.6301789 2.2562838 1297 0 0 0 72.983971
1.2882712 -7.5366673 2.2511804 1416.1666 0 0 0 71.818573
17.63381 -7.8212667 2.0864899 5 0 0 0 56.184673
1.7521696 -7.4641585 2.2576528 1461 0 0 0 70.83844
2.2214708 -7.3925037 2.2736866 1464.5 0 0 0 69.865295
2.7966573 -7.3070297 2.3049283 1284.6666 0 0 0 68.690453
3.2855663 -7.2237735 2.337985 1348.75 0 0 0 67.71138
3.6936314 -7.1645975 2.3750834 1316.75 0 0 0 66.938385
4.2692571 -7.0641885 2.2796607 1256.5 0 0 0 65.86245
4.6569963 -7.0083423 2.2716608 1346 0 0 0 65.182083
4.8861647 -6.9747248 2.2992024 1354 0 0 0 64.78904
5.2366962 -6.9160137 2.3423738 1286 0 0 0 64.199821
5.7247505 -6.8336458 2.2962019 1278.5 0 0 0 63.412643
6.2878685 -6.7404027 2.2984428 992.66669 0 0 0 62.564953
6.8074121 -6.6660924 2.3364699 1228.5 0 0 0 61.85038
7.2584591 -6.6018705 2.2850904 1004 0 0 0 61.261887
7.5670443 -6.5491977 2.3304942 1019 0 0 0 60.876141
17.414494 -6.7203984 2.02176 9 0 0 0 55.411034
7.8775406 -6.4864693 2.2512231 627.5 0 0 0 60.48024
8.2270069 -6.4405866 2.304574 987 0 0 0 60.088921
8.7546568 -6.3447189 2.2500658 930.25 0 0 0 59.505199
9.3231268 -6.2465887 2.1983347 765.5 0 0 0 58.925598
9.7728081 -6.2042246 2.2667015 785 0 0 0 58.529678
16.945919 -4.239532 2.3282712 16 0 0 0 53.459248
16.876995 -3.7835824 2.3063064 21 0 0 0 53.065121
16.840096 -2.9134247 2.2804573 13 0 0 0 52.292759
19.740524 -2.4242032 2.1582067 16 0 0 0 51.504089
21.539394 -2.108079 2.3454723 27 0 0 0 51.122887
23.781397 -1.7375861 2.0003455 23 0 0 0 50.72871
26.377773 -1.2756217 2.2117245 22 0 0 0 50.336601
29.559114 -0.70121551 2.4720964 40 0 0 0 49.950752
34.717834 0.02428038 2.0308588 30 0 0 0 49.559326
10.185433 5.4934978 2.1317 146 0 0 0 41.749592
10.641723 5.4043527 2.492455 81 0 0 0 42.141354
10.396705 5.6071725 2.4667029 68 0 0 0 41.749592
10.936863 5.552999 2.2573559 41 0 0 0 42.141354
12.340247 5.8835411 2.1720273 27 0 0 0 42.537312
13.566411 5.6633267 2.3334703 26 0 0 0 43.313919
-7.1146684 6.3552485 2.175755 209 0 0 0 11.30407
9.5979939 6.4733019 2.2732539 104.5 0 0 0 40.194439
10.643533 6.0822625 2.2550077 83 0 0 0 41.365219
11.143224 6.0065832 2.0133622 106 0 0 0 41.749592
15.523918 6.4764872 2.2463796 48 0 0 0 43.313919
10.347213 6.6104541 2.2573402 42 0 0 0 40.577301
11.07334 6.6932764 2.21595 70.5 0 0 0 40.971287
14.174305 6.7532682 2.0985494 71 0 0 0 42.537312
15.194108 6.7833424 2.2221022 26 0 0 0 42.932919
-9.1800976 7.4476504 2.1167939 389 0 0 0 10.53028
-3.7356267 7.234736 2.2588983 424.79999 0 0 0 17.167301
10.05332 7.3329768 2.2855113 105.5 0 0 0 39.610985
-2.2379749 7.9020386 2.3264151 458.79999 0 0 0 20.362263
-1.8555278 7.8541775 2.2488506 415 0 0 0 21.064421
10.380948 7.7665963 2.0569859 96 0 0 0 39.4174
-9.3852825 8.005146 2.2076623 308 0 0 0 10.92448
-8.3044853 8.4052076 2.2597699 298.5 0 0 0 12.27964
-7.8001814 8.4941721 2.0643406 379 0 0 0 12.86967
-7.3805742 8.4394054 2.0074532 296 0 0 0 13.25559
-3.2123499 8.2836647 2.3943856 409.66666 0 0 0 18.8603
-2.7255678 8.3053226 2.3237281 401 0 0 0 19.698151
-2.3318439 8.0910892 2.2385802 475.5 0 0 0 20.294781
-1.9049575 8.073432 2.1057301 557 0 0 0 21.064421
36.596329 8.2596579 2.1926506 22 0 0 0 46.044647
-8.5241947 8.8458328 2.497788 148 0 0 0 12.47474
-8.0836277 8.8069725 2.4311023 276 0 0 0 12.86967
-7.740541 8.8565683 2.3923297 283 0 0 0 13.25559
-2.9349213 8.5993061 2.3008182 341 0 0 0 19.504089
-2.458173 8.5457916 2.0365701 295 0 0 0 20.294781
-1.7249331 8.7686329 2.3785329 430 0 0 0 21.653278
-1.3944159 8.7792597 2.4770174 367 0 0 0 22.23772
34.833942 8.7676992 2.100534 53 0 0 0 45.656681
-2.1294227 9.0676661 2.1334136 456 0 0 0 21.064421
-1.7848885 9.0821877 2.2335894 435.5 0 0 0 21.653278
33.905605 9.4264832 2.0581577 91 0 0 0 45.264286
-7.1984162 9.8201771 2.3270943 297 0 0 0 14.629826
-6.7542281 9.960248 2.4472139 296 0 0 0 15.21414
-4.108964 9.6865215 2.4012189 322 0 0 0 18.335871
-3.811265 9.63342 2.240644 143.5 0 0 0 18.72949
-1.0605428 9.8372946 2.1475024 364.5 0 0 0 23.010429
-0.81805795 9.8384209 2.2646682 391 0 0 0 23.408581
11.855427 9.8073502 2.24055 272.5 0 0 0 38.632832
12.407446 9.7578945 2.2984133 242 0 0 0 39.021832
-1.8943734 10.903666 2.1705716 314 0 0 0 21.979586
9.8610525 10.981896 2.3273027 392 0 0 0 36.292961
10.16187 10.770675 2.3360767 371 0 0 0 36.678127
9.287138 11.428494 2.3194861 410 0 0 0 35.50098
9.574728 11.206609 2.3229344 342 0 0 0 35.890678
8.7133837 11.872376 2.316834 384 0 0 0 34.723713
9.0005493 11.650837 2.3175616 372 0 0 0 35.117191
-37.484581 12.325939 2.2036269 32 0 0 0 4.6765099
8.424221 12.091705 2.3170106 322 0 0 0 34.331287
6.6664333 13.426836 2.3474052 634 0 0 0 31.99263
6.3670969 13.657103 2.357842 651 0 0 0 31.59408
5.4438949 14.353399 2.3967044 272 0 0 0 30.4242
5.757762 14.124028 2.383121 316 0 0 0 30.823891
-65.904976 16.436214 2.1283689 7 0 0 0 3.5092199
-61.552635 18.59691 2.0056326 18 0 0 0 4.29737
-35.279572 -27.531691 2.5636461 20 0 0 0 88.999748
-36.079868 -25.409691 2.5284753 14 0 0 0 89.784233
-23.720076 -24.91905 2.8338645 27 0 0 0 86.662704
-36.484005 -24.37727 2.5142572 13 0 0 0 90.175797
-28.578695 -21.201576 2.9312367 16 0 0 0 89.394882
-8.2547512 -9.1068611 2.6938252 547 0 0 0 86.276176
-7.7946477 -9.0360022 2.7617328 563 0 0 0 85.885315
-7.3528795 -8.9583797 2.825073 593.5 0 0 0 85.485001
-6.7696276 -8.8921814 2.7245831 391 0 0 0 84.8937
-6.216918 -8.8229408 2.6316652 364 0 0 0 84.31337
-5.7304406 -8.722023 2.7607758 580.33331 0 0 0 83.785736
-5.2894692 -8.6536188 2.7671978 661.66669 0 0 0 83.275558
-4.6980991 -8.5731068 2.6982837 560.40002 0 0 0 82.522415
-4.2713737 -8.4739475 2.7851253 938.5 0 0 0 81.979103
-3.8522646 -8.3931141 2.7112346 1104.5 0 0 0 81.392029
-3.3602099 -8.3208113 2.7895012 1030.6 0 0 0 80.646858
-2.8429246 -8.2350683 2.7734034 1120.5 0 0 0 79.821838
-2.2324884 -8.1355228 2.7306678 1178.5714 0 0 0 78.790115
-1.7172149 -8.0575514 2.7250426 1027.3334 0 0 0 77.8722
-1.4017434 -8.010664 2.7902002 1170.5 0 0 0 77.285118
-1.1951282 -7.9737673 2.76668 1245.5 0 0 0 76.90107
-0.7935378 -7.911449 2.7294295 1196 0 0 0 76.115707
-0.20697169 -7.8119192 2.7790809 1131.3334 0 0 0 74.941971
0.26877367 -7.7321973 2.7517688 1114.1666 0 0 0 73.958061
0.73679322 -7.6557431 2.7366056 1012 0 0 0 72.983971
1.2953668 -7.5710669 2.7337644 1063 0 0 0 71.818573
1.6670133 -7.5092463 2.7375648 1083.6666 0 0 0 71.032944
1.8532292 -7.4769802 2.7417958 1131.6666 0 0 0 70.643936
2.2313075 -7.4213562 2.7592452 1144.6666 0 0 0 69.865295
2.7806902 -7.3300481 2.7677743 1100.5 0 0 0 68.738533
3.297112 -7.2475076 2.7380617 1066 0 0 0 67.711388
3.7032886 -7.1819525 2.7792277 1114 0 0 0 66.938385
4.2287903 -7.0927358 2.7393141 1075.1111 0 0 0 65.959801
4.6691837 -7.0255713 2.6942158 1134 0 0 0 65.182083
4.9007592 -6.9944677 2.7277637 1152.5 0 0 0 64.78904
5.2506042 -6.9332685 2.7782118 1089.75 0 0 0 64.199821
5.7408943 -6.8522391 2.7455766 1102.8334 0 0 0 63.412643
6.264514 -6.7695179 2.7186792 1062 0 0 0 62.631714
6.8262024 -6.6837354 2.8157606 1014 0 0 0 61.85038
7.2626595 -6.605958 2.6500387 1017.5 0 0 0 61.261887
7.7470226 -6.5381942 2.7362173 932.25 0 0 0 60.678188
8.2480841 -6.4562411 2.8266907 817.5 0 0 0 60.088921
8.8495045 -6.3566146 2.7143698 740 0 0 0 59.438862
9.3621655 -6.2706637 2.7609878 690 0 0 0 58.925598
9.7958384 -6.2167892 2.8421178 621 0 0 0 58.529678
22.152452 -4.3937674 2.9997537 56 0 0 0 52.675301
10.449131 5.6380429 2.770864 25 0 0 0 41.749592
11.323266 5.7514129 2.9612999 20 0 0 0 42.141354
13.030369 5.8223424 2.9728484 19 0 0 0 42.932919
9.3141127 6.2861509 2.6224055 92 0 0 0 40.194439
10.174704 6.5013838 2.5186501 86 0 0 0 40.577301
10.849916 6.7460108 2.8206425 67 0 0 0 40.774292
11.609806 6.6317677 2.7856181 19 0 0 0 41.365219
18.255529 6.5771885 2.5860846 177 0 0 0 44.093609
-7.410533 7.3087597 2.8818159 335 0 0 0 12.08454
15.715205 7.015563 2.7239053 26 0 0 0 42.932919
18.092838 7.026566 2.5862479 153 0 0 0 43.70937
-9.6720419 7.8493385 2.8360791 192 0 0 0 10.53028
-9.0077686 7.6785512 2.6955354 263 0 0 0 10.92448
-8.8112078 7.8908906 2.9815903 333 0 0 0 11.30407
-8.0357494 7.9318399 2.5717356 269 0 0 0 12.08454
-7.6361012 7.5334253 2.705292 335 0 0 0 12.08454
-2.9543924 7.9951134 2.7873304 351 0 0 0 19.12192
-2.1561673 7.8202014 2.8043504 336.5 0 0 0 20.485207
-1.8275623 7.7231579 2.6972313 323 0 0 0 21.064421
15.293849 7.7524796 2.7127521 57 0 0 0 42.141354
-9.9646702 8.0912638 2.6101902 239 0 0 0 10.53028
-9.3116798 8.1423044 2.5157871 211.5 0 0 0 11.114275
-8.6426659 8.1287107 2.8462677 293.5 0 0 0 11.70075
-7.0595713 8.4786587 2.7821596 300 0 0 0 13.64943
-6.6267357 8.3628321 2.821774 341 0 0 0 14.04035
-6.2077889 8.2362328 2.8564987 171 0 0 0 14.42945
-3.8630924 8.4958572 2.8181102 406 0 0 0 17.947001
-3.1242766 8.1506529 2.7462358 302.5 0 0 0 18.925705
-2.830451 8.2793179 2.6464813 274 0 0 0 19.504089
-2.3100839 8.0070896 2.5234365 459 0 0 0 20.294781
-9.198576 8.6591396 2.5684295 160 0 0 0 11.70075
-8.5116854 8.8302269 2.7918096 212 0 0 0 12.47474
-8.1650467 8.8941202 2.7485535 278 0 0 0 12.86967
-7.5742636 8.6618385 2.7594802 279 0 0 0 13.25559
-7.2210655 8.6745853 2.5706859 270 0 0 0 13.64943
-4.8995976 8.9844627 2.8362839 310 0 0 0 16.775629
-3.724134 8.7584429 2.7574785 322 0 0 0 18.335871
-2.7185094 8.6520061 2.96611 142 0 0 0 19.89221
-1.7392275 8.8310919 2.7257297 356 0 0 0 21.653278
-1.4007103 8.8145323 2.8158784 287 0 0 0 22.23772
34.855087 8.7800684 2.9980304 41 0 0 0 45.656681
-5.2611799 9.1143732 2.9157724 244 0 0 0 16.382629
-3.5769169 9.0209227 2.9309311 298 0 0 0 18.72949
-8.009306 9.636116 2.5470035 276 0 0 0 13.64943
-7.7234459 9.7662277 2.6826348 247 0 0 0 14.04035
-5.7881708 9.7603359 2.8623552 275.5 0 0 0 16.18936
-5.4037671 9.9251041 2.8508899 262 0 0 0 16.775629
-4.3399191 9.5721369 2.6544433 194 0 0 0 17.947001
11.404646 9.9199677 2.7635164 350 0 0 0 38.247059
11.849403 9.8035841 2.8120291 297 0 0 0 38.632832
12.377401 9.735548 2.8793352 209 0 0 0 39.021832
-4.3618631 10.295257 2.8231049 248 0 0 0 18.335871
-7.9186039 10.537567 2.9988089 154 0 0 0 14.42945
-3.9448841 10.753431 2.6130548 139 0 0 0 19.12192
9.862936 10.984964 2.6940696 330 0 0 0 36.292961
10.1569 10.76639 2.7022626 284 0 0 0 36.678127
-2.0386734 11.199726 2.602782 198 0 0 0 21.850519
-1.7722719 11.305433 2.7577643 331 0 0 0 22.23772
9.2815037 11.422674 2.6832774 331 0 0 0 35.50098
9.5759611 11.209064 2.6890256 320 0 0 0 35.890678
8.2888212 11.901269 2.9979696 241 0 0 0 34.331287
8.8501072 11.753662 2.6804652 304.5 0 0 0 34.920452
8.2640209 12.180264 2.6786933 294.5 0 0 0 34.137817
7.251658 12.964455 2.6975882 316 0 0 0 32.774849
7.6871405 12.62599 2.6870184 266 0 0 0 33.359619
73.79834 12.870832 2.5057113 10 0 0 0 46.831287
-33.936306 13.025547 2.9288785 46 0 0 0 5.4583802
-32.234566 13.285144 2.8075926 22 0 0 0 5.8547702
6.956049 13.187302 2.7058439 551 0 0 0 32.381298
-30.176062 -28.738312 3.4264607 11 0 0 0 87.44902
-31.185081 -28.272955 3.4611375 17 0 0 0 87.830147
-32.834812 -26.955385 3.4927855 17 0 0 0 88.602928
-31.592575 -21.116468 3.1278334 26 0 0 0 90.175797
-24.377758 -21.033167 3.4372461 18 0 0 0 88.217186
-24.543171 -15.546253 3.1047974 11 0 0 0 90.573273
34.642822 -10.494308 3.0072873 39 0 0 0 54.242168
-8.2836723 -9.1405668 3.3094025 453.5 0 0 0 86.276176
-7.8134069 -9.0579052 3.2101893 483 0 0 0 85.885315
-7.3756599 -8.9863081 3.2643981 551 0 0 0 85.485001
-6.7667556 -8.8898926 3.275445 599.5 0 0 0 84.8937
-6.2022963 -8.8039751 3.1580043 652.5 0 0 0 84.31337
-5.6763396 -8.7181768 3.3076501 691 0 0 0 83.721466
-5.1801138 -8.6359596 3.2022953 753 0 0 0 83.149002
-4.720387 -8.5660944 3.2300286 800.5 0 0 0 82.561676
-4.285943 -8.5088081 3.3812771 765 0 0 0 81.979103
-4.1422749 -8.4705048 3.1161673 832.5 0 0 0 81.783112
-3.7990408 -8.4175644 3.2784734 866.75 0 0 0 81.294487
-3.3429117 -8.3435764 3.3013635 854.5 0 0 0 80.607391
-2.847894 -8.2567129 3.2085192 918 0 0 0 79.821838
-2.3119864 -8.1646967 3.1387391 973.40002 0 0 0 78.925522
-1.7171922 -8.0649738 3.1312499 1019.5 0 0 0 77.8722
-1.402284 -8.022481 3.0928705 1057 0 0 0 77.285118
-1.1967398 -7.9947257 3.0702536 918 0 0 0 76.90107
-0.79280758 -7.9187984 3.0238678 1094.6666 0 0 0 76.115707
3.2023251 -7.2701378 3.0241089 1019.6667 0 0 0 67.909523
3.7115364 -7.1949868 3.0821226 932 0 0 0 66.938385
4.2383747 -7.1062694 3.1510773 940.33331 0 0 0 65.959801
4.7531929 -7.0215569 3.1602185 956.66669 0 0 0 65.051064
4.9070053 -6.9996977 3.0458255 931 0 0 0 64.78904
5.2620969 -6.9448633 3.2119515 861.75 0 0 0 64.199821
5.7578759 -6.8688431 3.3041902 864.5 0 0 0 63.412643
6.2819672 -6.787508 3.1824522 888 0 0 0 62.631714
6.8447251 -6.7009826 3.2961388 847.75 0 0 0 61.85038
7.292058 -6.6317811 3.1481056 822.5 0 0 0 61.261887
7.7688117 -6.5557084 3.2466834 747 0 0 0 60.678192
8.2732029 -6.4750409 3.3548667 675.5 0 0 0 60.088921
8.7382174 -6.3857579 3.1433289 666 0 0 0 59.571533
9.270154 -6.3168321 3.3495452 604.66669 0 0 0 59.052464
9.8190966 -6.2317953 3.2813747 586 0 0 0 58.529678
28.728659 -2.0984025 3.1090984 48 0 0 0 50.72871
32.077442 -1.5508072 3.4623694 23 0 0 0 50.336601
41.852417 0.03658963 3.4834993 27 0 0 0 49.559326
-7.0894704 6.9892087 3.2436543 251 0 0 0 12.08454
9.7904291 6.6059823 3.0450497 35 0 0 0 40.194439
10.277146 6.5699506 3.1440642 19 0 0 0 40.577301
11.521413 6.5846868 3.0909901 16 0 0 0 41.365219
-7.26229 7.1587701 3.0722761 338 0 0 0 12.08454
-9.7723656 7.8001523 3.3564548 193.33333 0 0 0 10.398316
-8.1066532 7.6180182 3.3503928 227 0 0 0 11.70075
-2.9563382 7.9917388 3.2013969 268 0 0 0 19.12192
-2.2340431 7.7279482 3.0263727 328 0 0 0 20.294781
-9.6520996 8.2340889 3.1972139 152 0 0 0 10.92448
-7.701364 8.178483 3.245985 188 0 0 0 12.672205
-7.0727034 8.495122 3.0599556 302 0 0 0 13.64943
-4.0769978 8.1530981 3.307848 318.5 0 0 0 17.36194
-3.8550875 8.4780464 3.1546519 288.5 0 0 0 17.947001
-3.2017117 8.0479002 3.0421143 368 0 0 0 18.72949
-2.9625382 8.0090084 3.0004382 373 0 0 0 19.12192
35.467804 8.0123911 3.0328751 47 0 0 0 46.044647
-8.0375671 8.7545643 3.1414902 184 0 0 0 12.86967
-7.2447991 8.7028866 3.2733335 198 0 0 0 13.64797
-6.6795597 8.8683605 3.3446591 275 0 0 0 14.42945
-4.3532124 8.7180433 3.2989492 136.5 0 0 0 17.36194
-3.6885102 8.6749763 3.07863 317 0 0 0 18.335871
-2.2992327 8.7922306 3.1957197 313 0 0 0 20.675631
-1.3808851 8.6647062 3.1974142 295.5 0 0 0 22.23772
-8.941637 9.2816401 3.2470036 168 0 0 0 12.47474
-6.2854238 9.2605066 3.2351718 147 0 0 0 15.21492
-5.3567872 9.2792902 3.2299538 225 0 0 0 16.382629
-3.1751947 9.3180771 3.3350899 300.5 0 0 0 19.504089
-5.9660707 9.7880487 3.1738424 104 0 0 0 15.99609
11.390601 9.9086294 3.132669 343 0 0 0 38.247059
11.82809 9.7868319 3.1858463 282 0 0 0 38.632832
12.338141 9.7055922 3.257679 243 0 0 0 39.021832
13.142067 9.8214149 3.4037585 119 0 0 0 39.4174
35.399796 9.8485117 3.0633254 25 0 0 0 45.264286
-7.6802535 10.217343 3.2204716 99 0 0 0 14.42945
-4.7241249 10.43651 3.1742177 265 0 0 0 17.947001
10.728511 10.30724 3.2680414 319.5 0 0 0 37.462994
11.031757 10.08744 3.2844195 290.5 0 0 0 37.860687
-2.5177891 10.77669 3.3448579 302 0 0 0 21.064421
9.8498478 10.973867 3.2353134 279.5 0 0 0 36.292961
10.288559 10.643085 3.2499952 329.75 0 0 0 36.873241
7.1702776 11.47285 3.1282523 263 0 0 0 33.55407
7.5676718 11.468456 3.177881 215 0 0 0 33.944351
9.273242 11.416188 3.2242932 269 0 0 0 35.50098
9.5581608 11.191864 3.2278943 283.5 0 0 0 35.890678
-8.1690559 11.757171 3.255605 186.5 0 0 0 15.02217
6.2665768 11.900892 3.105751 347 0 0 0 32.381298
6.684104 11.629976 3.099998 440 0 0 0 32.970009
8.8372478 11.740567 3.2195163 273.25 0 0 0 34.920452
-37.348679 12.276547 3.1718047 41 0 0 0 4.6765099
5.8614912 12.204529 3.1240356 397.5 0 0 0 31.793354
7.7372088 12.365293 3.0119569 178 0 0 0 33.55407
8.1987076 12.08695 3.1983044 234 0 0 0 34.137817
-35.808094 12.748759 3.0643771 18 0 0 0 5.0658798
4.8934937 12.933103 3.1841364 433 0 0 0 30.4242
5.3150916 12.622658 3.1567073 427 0 0 0 31.015804
7.3167801 12.714426 3.0267935 187.5 0 0 0 32.970009
4.6381936 13.230405 3.2262127 255 0 0 0 30.035999
6.2781763 13.471703 3.0604105 174 0 0 0 31.59408
6.7307043 13.152817 3.0451584 176 0 0 0 32.186966
4.3913617 13.584022 3.2828884 200 0 0 0 29.646919
5.803071 13.756964 3.0720749 184.5 0 0 0 31.015804
4.818996 14.282238 3.096137 260.5 0 0 0 29.841459
5.3192253 14.032763 3.0849011 233 0 0 0 30.4242
-0.56664807 19.005604 3.4036665 25 0 0 0 24.185949
-33.903378 -33.914597 3.9372778 12 0 0 0 87.0532
-34.982353 -24.645857 3.5180035 18 0 0 0 89.784233
-22.752909 -23.902729 3.5209413 37 0 0 0 86.662704
-25.582649 -23.192316 3.6838574 21 0 0 0 87.830147
39.953506 -22.622066 3.7886305 13 0 0 0 57.742008
-25.969231 -21.317827 3.5853596 14 0 0 0 88.602928
-8.3122988 -9.1755266 3.7790408 379 0 0 0 86.276176
-7.8442822 -9.0955143 3.8153207 436.5 0 0 0 85.885315
-7.3972635 -9.0144024 3.7047598 473.5 0 0 0 85.485001
-6.7246151 -8.9107275 3.7757728 509 0 0 0 84.82843
-6.2149458 -8.8237972 3.695792 568 0 0 0 84.31337
-5.6267676 -8.7252378 3.767319 556.66669 0 0 0 83.657204
-5.1928182 -8.6625586 3.7067997 544 0 0 0 83.149002
-4.7742758 -8.5857506 3.6458943 640.33331 0 0 0 82.627113
-4.2876878 -8.5124073 3.6157541 735 0 0 0 81.979103
-4.0048308 -8.4598656 3.5511034 693 0 0 0 81.587112
6.2926512 -6.7970915 3.5283561 817.5 0 0 0 62.631714
6.7093024 -6.7316303 3.6200929 815 0 0 0 62.046101
7.2056499 -6.6576729 3.6562719 713.66669 0 0 0 61.392811
7.7859964 -6.5669818 3.7546785 605.25 0 0 0 60.678192
8.2868414 -6.4824619 3.748584 590 0 0 0 60.088921
8.6435909 -6.4267311 3.7051754 561 0 0 0 59.704201
9.1618052 -6.3540397 3.7886276 482.33334 0 0 0 59.179333
9.8360519 -6.2416134 3.7184842 495 0 0 0 58.529678
28.196035 -2.7532675 3.7556937 17 0 0 0 51.122887
28.682816 -2.0900457 3.8125727 42 0 0 0 50.72871
28.834911 -1.3891973 3.8275466 10 0 0 0 50.336601
35.340126 -0.83815336 3.8077488 50 0 0 0 49.950752
-9.0237751 6.9570379 3.987973 209 0 0 0 10.13439
-8.9180002 6.5330644 3.8694389 251 0 0 0 9.7445097
-8.8937006 7.7751451 3.8473263 142 0 0 0 11.114275
-10.345137 8.1926537 3.9730618 208 0 0 0 10.332335
-9.7823257 8.3458004 3.715981 192.5 0 0 0 10.92448
-9.8908319 8.8661041 3.998337 91 0 0 0 11.30407
-9.4031887 8.637949 3.5324597 126.5 0 0 0 11.50241
-8.2209253 8.9579592 3.9593287 183 0 0 0 12.86967
-7.7974687 8.9183407 3.5672481 257 0 0 0 13.25559
-7.4617677 8.9656858 3.512831 275 0 0 0 13.64943
-6.8170924 8.827877 3.6340446 240 0 0 0 14.2349
-6.2634068 8.7498322 3.6373887 241.5 0 0 0 14.8302
-5.9465647 8.746068 3.7044826 147 0 0 0 15.21414
-4.1888323 8.6464729 3.6034451 187 0 0 0 17.55538
35.282906 8.8882322 3.9194801 32 0 0 0 45.656681
-9.0048456 9.3459234 3.9066699 169 0 0 0 12.47474
-5.3562603 9.458127 3.6322067 173.33333 0 0 0 16.513628
-4.0297022 9.4868994 3.6154828 329 0 0 0 18.335871
-3.073328 9.0056667 3.5737855 211 0 0 0 19.504089
-2.1806901 9.2766781 3.5832293 170 0 0 0 21.064421
33.689407 9.3740511 3.7679894 10 0 0 0 45.264286
-3.0710652 9.796586 3.8552856 208 0 0 0 19.89221
-2.9938745 9.5437288 3.5128455 295 0 0 0 19.89221
11.375717 9.9004517 3.6848006 236 0 0 0 38.247059
11.787006 9.7576561 3.7393785 254 0 0 0 38.632832
12.310225 9.6879845 3.6353891 232 0 0 0 39.021832
13.054449 9.7605572 3.7819221 144 0 0 0 39.4174
-7.3877945 10.345409 3.5169771 231 0 0 0 14.8302
-2.0886471 10.004884 3.8425157 245 0 0 0 21.456039
10.699594 10.282723 3.8071334 268 0 0 0 37.462994
11.011451 10.071999 3.8295038 293 0 0 0 37.860687
-7.1235967 10.507723 3.6675043 226.5 0 0 0 15.21414
-6.7428689 10.775982 3.8283339 169 0 0 0 15.797865
-2.271559 10.937639 3.6523383 211 0 0 0 21.456039
9.8352757 10.961125 3.7743371 253 0 0 0 36.292961
10.27137 10.628521 3.790375 236 0 0 0 36.873238
34.676888 10.573427 3.9041669 11 0 0 0 44.879181
-2.1742201 11.140621 3.9887085 184.5 0 0 0 21.653278
-1.4858061 11.270597 3.7197065 103 0 0 0 22.62089
9.256196 11.398957 3.7604961 241 0 0 0 35.50098
9.5447254 11.179731 3.7660651 276 0 0 0 35.890678
8.8217506 11.723776 3.7555585 244.5 0 0 0 34.920452
8.2499104 12.168055 3.7597942 304 0 0 0 34.137817
-35.777939 12.740443 3.9817762 46 0 0 0 5.0658798
-33.851429 12.995196 3.7998488 39 0 0 0 5.4583802
7.2391095 12.951724 3.7883468 279 0 0 0 32.774849
7.6746187 12.614498 3.7729285 283 0 0 0 33.359619
-32.080074 13.223483 3.634582 45 0 0 0 5.8547702
6.7945523 13.285599 3.8075211 292 0 0 0 32.186966
6.1985941 13.748518 3.8442523 283.5 0 0 0 31.4009
5.4224772 14.312788 3.8961794 263 0 0 0 30.4242
5.7408152 14.097183 3.876704 272 0 0 0 30.823891
-9.0570126 14.932438 3.9664643 155 0 0 0 15.99609
4.7934828 14.809804 3.958334 280 0 0 0 29.646919
5.1045432 14.542237 3.9212806 302 0 0 0 30.035999
4.4715967 15.065821 3.6082695 171 0 0 0 29.25411
-65.217636 16.269016 3.7493169 6 0 0 0 3.5092199
-61.78997 17.031776 3.5711241 10 0 0 0 3.89662
-2.2414858 17.339075 3.9838431 116 0 0 0 22.62089
-0.53162158 17.48815 3.9918835 41 0 0 0 24.185949
-0.96276802 17.510927 3.9998627 43 0 0 0 23.79685
-0.10219926 17.511362 3.9967363 44 0 0 0 24.571819
0.77874947 17.862581 3.6458478 171 0 0 0 25.35964
-1.4297663 18.029522 3.6808889 151 0 0 0 23.408581
0.34750184 18.20178 3.7102005 168 0 0 0 24.966591
-61.668652 18.636259 3.5838051 13 0 0 0 4.29737
-1.0134294 18.587677 3.7889404 136 0 0 0 23.79685
-0.56440049 18.898798 3.8491995 165 0 0 0 24.185949
-0.099883713 18.542158 3.7769248 159 0 0 0 24.571819
-28.544931 -28.552975 4.3007364 18 0 0 0 87.0532
-28.071878 -26.733917 4.1312146 7 0 0 0 87.44902
-32.461838 -24.083242 4.306447 13 0 0 0 89.394882
-31.509901 -21.061296 4.0400867 22 0 0 0 90.175797
-34.028069 -20.40313 4.2276883 15 0 0 0 90.968208
-25.048479 -18.588902 4.0977883 35 0 0 0 89.394882
