# .PCD v0.7 - Point Cloud Data file format
VERSION 0.7
FIELDS x y z intensity normal_x normal_y normal_z curvature
SIZE 4 4 4 4 4 4 4 4
TYPE F F F F F F F F
COUNT 1 1 1 1 1 1 1 1
WIDTH 942
HEIGHT 1
VIEWPOINT 0 0 0 1 0 0 0
POINTS 942
DATA ascii
-8.6412621 7.3892493 1.2345054 403 0 0 0 10.94862
-4.0179901 7.3780203 1.1244774 590 0 0 0 16.809309
-3.7165482 7.3860545 1.2419723 669.66669 0 0 0 17.328011
-0.43260902 7.4509244 1.0054251 849 0 0 0 23.850571
2.7366581 7.2495308 1.1428341 424.75 0 0 0 30.493797
6.1451483 7.1827669 1.2709745 509 0 0 0 35.976662
32.960613 7.3980827 1.1113755 39 0 0 0 46.141258
-10.59904 7.8067517 1.1078093 383 0 0 0 9.7762804
-9.6925335 7.5063148 1.3292904 352 0 0 0 10.16862
-4.541965 7.8869848 1.4401271 665 0 0 0 16.421141
-3.6294208 7.5185595 1.1177984 594 0 0 0 17.58477
0.87017214 7.5660815 1.2152385 1100 0 0 0 26.5889
1.2093824 7.6967926 1.179226 886.5 0 0 0 27.240248
1.7775937 7.7390981 1.0700778 820 0 0 0 28.34535
2.1952512 7.7747192 1.0885402 627.5 0 0 0 29.122364
2.6927624 7.6941814 1.1990714 508 0 0 0 30.100109
-10.400119 8.2681284 1.1178998 176 0 0 0 10.363295
-8.9661741 8.0596313 1.3076527 402 0 0 0 11.33389
-5.7168674 8.4471769 1.1100808 518 0 0 0 15.25374
-4.5919199 8.2104378 1.3726411 522.5 0 0 0 16.615225
-4.1844201 8.1708574 1.0017589 426 0 0 0 17.199631
-3.556097 8.412549 1.4457722 619 0 0 0 18.377001
-2.9953024 8.1723719 1.1649441 291 0 0 0 19.152359
13.590384 8.1682873 1.3284529 41 0 0 0 41.06208
32.502934 8.1391821 1.103181 143 0 0 0 45.751999
-10.487151 8.5476427 1.4646747 149 0 0 0 10.55797
-9.7079973 8.7331772 1.0989064 55 0 0 0 11.33389
-5.6311069 8.7788496 1.1345216 400 0 0 0 15.63759
-5.142695 8.9524069 1.1233349 568 0 0 0 16.421141
-3.6512723 8.6424065 1.2531822 575 0 0 0 18.377001
-3.3164828 8.6215601 1.3851357 463 0 0 0 18.892454
32.05109 8.8684683 1.0957332 48 0 0 0 45.368938
-32.891869 9.9863815 1.1639881 55 0 0 0 4.3014698
-11.212309 9.6114702 1.2396502 86 0 0 0 10.94862
-5.886096 9.7027235 1.2322034 422 0 0 0 16.026739
-4.3955507 9.7562399 1.4255003 393 0 0 0 17.98003
-3.6453464 9.9983044 1.157468 554 0 0 0 19.152359
-3.0310607 9.7667465 1.2401142 400.5 0 0 0 19.944889
-2.7753506 9.7861214 1.1080605 301 0 0 0 20.328409
10.374452 9.9200411 1.2084761 427 0 0 0 37.541649
10.779204 9.8097124 1.2265643 257 0 0 0 37.938499
11.974475 9.8619652 1.3025223 187 0 0 0 38.72002
-30.943956 10.226914 1.1049738 47 0 0 0 4.6953402
-3.7132857 11.038717 1.2642552 330 0 0 0 19.548759
-4.3616695 12.005293 1.0741999 276 0 0 0 19.152359
-13.998747 12.634167 1.1081072 76 0 0 0 11.33389
-38.495571 -28.554794 1.5656811 11 0 0 0 89.606888
-40.038296 -25.359898 1.5483179 10 0 0 0 90.79245
-25.85697 -15.503729 1.7359213 43 0 0 0 91.18412
18.701279 -10.618035 1.7798913 46 0 0 0 57.882713
18.629662 -9.9807596 1.7496285 78 0 0 0 57.488861
-9.521142 -9.0738449 1.7470276 586 0 0 0 87.647827
-8.1611376 -9.0120153 1.7676877 19.5 0 0 0 86.474846
-7.7903137 -9.0382452 1.7354392 10.5 0 0 0 86.084793
-8.7315998 -8.9537859 1.8154727 683.5 0 0 0 87.06691
-8.4809914 -8.9158697 1.6366668 755 0 0 0 86.871399
-7.3434868 -8.9545727 1.6853247 18.5 0 0 0 85.685356
-6.6911359 -8.7973309 1.7468102 25.5 0 0 0 85.09613
-6.127429 -8.7047777 1.8153366 33 0 0 0 84.50209
-5.7486391 -8.6071911 1.8936385 56 0 0 0 84.121613
-5.628582 -8.4274101 1.6042573 173 0 0 0 84.121613
-5.1645417 -8.3814793 1.681242 1188 0 0 0 83.530258
-4.7090735 -8.313673 1.6325052 1385.5 0 0 0 82.943756
-4.4113693 -8.2530346 1.715176 632 0 0 0 82.558578
16.533573 -8.3439674 1.762234 67 0 0 0 57.096592
18.244963 -8.1077747 1.654333 16 0 0 0 56.310848
16.430424 -7.7918224 1.7316272 29.5 0 0 0 56.696339
-1.5857358 -7.033936 1.5061035 176 0 0 0 78.242279
16.352137 -7.2683926 1.9215364 13 0 0 0 56.310848
-3.1153543 -6.7968435 1.5606415 97 0 0 0 81.573105
-2.7509456 -6.8723526 1.5454332 139 0 0 0 80.793533
-2.3061454 -6.9663482 1.532461 126.33334 0 0 0 79.81176
-1.7998407 -6.7998667 1.5533917 103 0 0 0 78.836258
-1.3194238 -6.6048179 1.5737811 62 0 0 0 77.855316
-0.8286112 -6.6581926 1.5681239 102 0 0 0 76.68367
-0.25419471 -6.6637864 1.5590169 104.25 0 0 0 75.31443
0.31530312 -6.6331601 1.5525402 123.33334 0 0 0 73.94268
0.80017263 -6.5869622 1.5515429 100.66666 0 0 0 72.76339
1.2828099 -6.5152493 1.5529169 130.33333 0 0 0 71.593697
5.8875198 -6.63135 1.7014731 1124.3334 0 0 0 63.105621
6.2497802 -6.5923553 1.7787299 1536 0 0 0 62.576759
6.6192107 -6.5374351 1.859743 1372.3334 0 0 0 62.051792
16.294504 -6.7685542 1.8950881 91 0 0 0 55.927551
-3.6503706 -6.4437366 1.5461018 148 0 0 0 82.943756
-3.3460975 -6.4473991 1.5171747 123 0 0 0 82.361145
-2.2325668 -6.2279191 1.5464035 168 0 0 0 80.203163
-1.849612 -6.3686109 1.5498292 114.5 0 0 0 79.22995
-1.0550369 -6.0441446 1.5864705 250 0 0 0 77.469917
-0.76386392 -6.132658 1.5579412 242.75 0 0 0 76.682617
-0.085605107 -6.253911 1.6170318 55 0 0 0 74.923065
0.29650658 -6.2490335 1.6177891 71.666664 0 0 0 73.94268
0.75097591 -6.1853714 1.6116133 35 0 0 0 72.763397
1.2074229 -6.1381125 1.618207 57 0 0 0 71.593697
1.7502537 -6.2121263 1.5988777 93.428574 0 0 0 70.306206
2.2427065 -6.3128867 1.5670147 102 0 0 0 69.240639
2.7389288 -6.2187538 1.5892363 98.666664 0 0 0 68.067581
3.2693853 -6.1524391 1.5842009 128 0 0 0 66.888184
3.7534373 -6.2973347 1.5326496 164.66667 0 0 0 66.105507
4.3010674 -6.1379852 1.5661663 162 0 0 0 64.933052
4.701838 -6.0562282 1.6010736 178 0 0 0 64.143982
6.7921605 -6.4931598 1.7231256 1303 0 0 0 61.790321
7.2143793 -6.4347396 1.7231172 1372.2 0 0 0 61.246399
7.6933374 -6.3380651 1.7024443 1223.5 0 0 0 60.615898
8.2045956 -6.2636132 1.7617606 1020.25 0 0 0 60.036823
8.7693996 -6.1983156 1.8311325 1044 0 0 0 59.445606
16.162016 -6.2526836 1.8618438 16 0 0 0 55.529247
-29.820137 -5.9386568 1.7506015 48 0 0 0 96.644066
-0.37490281 -5.9626031 1.5459058 281 0 0 0 75.705803
2.34811 -5.9139566 1.6460335 54.5 0 0 0 68.653198
2.707175 -5.7633142 1.6472527 36 0 0 0 67.675774
3.7291305 -5.9205837 1.635622 71.666664 0 0 0 65.713127
4.2475362 -5.7560945 1.6715361 102 0 0 0 64.539879
4.7419596 -5.8075733 1.6553493 86.5 0 0 0 63.753246
5.0698009 -5.9069324 1.6250371 158 0 0 0 63.367008
16.00955 -5.7457614 1.8281054 5 0 0 0 55.144981
2.8125355 -5.4576731 1.5896991 163 0 0 0 67.082916
3.2191961 -5.4034486 1.6280297 208.66667 0 0 0 66.105507
3.5566242 -5.355113 1.6630119 209 0 0 0 65.323517
4.7312465 -5.2468047 1.6514215 82.666664 0 0 0 62.972897
16.015875 -5.3075614 1.8136666 15 0 0 0 54.757191
15.936193 -4.8499846 1.7910718 29 0 0 0 54.360458
15.888897 -4.4120045 1.7734265 28 0 0 0 53.975609
15.770288 -3.7599707 1.7443721 33 0 0 0 53.381851
15.697695 -3.1348617 1.7227982 62 0 0 0 52.797821
16.42487 -2.8616533 1.792927 103 0 0 0 52.399967
17.719265 -2.6394272 1.9239674 28 0 0 0 52.018448
19.129894 -2.3696184 1.5987014 48 0 0 0 51.6217
20.92355 -2.0703347 1.740731 52 0 0 0 51.226158
23.15435 -1.7169334 1.9187015 17 0 0 0 50.834042
28.619928 -0.71507287 1.6446046 48 0 0 0 50.055569
33.888996 -0.013121546 1.9406942 29 0 0 0 49.66016
-0.68764913 4.1440134 1.5568323 254.5 0 0 0 22.283241
-0.32054764 4.0937166 1.57541 264.25 0 0 0 23.649107
13.814567 4.7605362 1.5803804 399.5 0 0 0 44.387428
8.0655003 5.4184899 1.5461068 123 0 0 0 40.278809
9.5211668 5.4171538 1.7375951 96 0 0 0 41.453041
10.062544 5.085134 1.786809 72 0 0 0 42.242191
12.052856 5.3597302 1.75625 90 0 0 0 43.024231
13.153721 5.2723279 1.5343518 441.5 0 0 0 43.607307
13.762314 5.3227973 1.9595962 350 0 0 0 43.803352
7.571126 5.9438972 1.8898312 87 0 0 0 39.10939
8.4449692 5.9787011 1.7722406 156 0 0 0 39.894207
10.879794 5.8369441 1.9533657 101 0 0 0 41.847672
11.025051 5.7421556 1.6579518 144.5 0 0 0 42.04493
7.7180705 6.0589619 1.5615013 142 0 0 0 39.10939
9.7757244 6.2175999 1.6913905 174.5 0 0 0 40.663647
10.082481 6.0685053 1.7178931 140 0 0 0 41.06208
10.858808 6.1750174 1.6661619 120 0 0 0 41.453041
13.449164 6.3793974 1.9773753 98 0 0 0 42.631912
14.366881 6.3826017 1.6984856 75 0 0 0 43.024231
-9.4082041 6.8038769 1.6401831 410.33334 0 0 0 9.6451197
-8.4079695 6.6668377 1.6922323 446 0 0 0 10.363295
8.8460846 6.5939455 1.7509286 220 0 0 0 39.493927
9.1754847 6.8384981 1.5306286 130 0 0 0 39.493927
-9.4474268 7.312129 1.5879204 259 0 0 0 10.16862
-8.6119385 7.3615351 1.6468155 376.5 0 0 0 10.94862
-4.750483 7.3833752 1.8207166 600 0 0 0 15.63759
-3.6835423 7.3214436 1.567801 426.66666 0 0 0 17.328011
-3.4965487 7.2380118 1.6698934 311 0 0 0 17.58477
13.931339 7.029676 1.6868131 39 0 0 0 42.242191
-8.6038818 7.7282171 1.8225563 390 0 0 0 11.33389
-4.58707 7.6732345 1.7074116 623 0 0 0 16.158205
-3.3799279 7.986692 1.587871 681 0 0 0 18.377001
0.31328908 7.6822758 1.6051278 1041 0 0 0 25.412081
0.69859511 7.726522 1.620285 876.33331 0 0 0 26.198919
1.2953873 7.8136597 1.6544129 731.33331 0 0 0 27.370138
1.7097901 7.8836756 1.6846714 282 0 0 0 28.15414
2.3673174 7.9989891 1.5363997 413 0 0 0 29.322929
2.6418848 7.8532839 1.5267897 581.5 0 0 0 29.90147
9.8815212 7.7471576 1.6761427 118 0 0 0 39.10939
-8.8089018 8.3137655 1.8096924 365.66666 0 0 0 11.72688
-8.126359 8.4557972 1.8481714 296 0 0 0 12.50089
-4.5334692 8.3449173 1.7358116 326 0 0 0 16.809309
-3.7601686 8.3208046 1.7812332 517 0 0 0 17.98003
-3.325206 8.2337666 1.770089 431 0 0 0 18.634001
33.656471 8.4270611 1.9912608 63 0 0 0 45.751999
-9.0235319 8.5188808 1.6488266 276 0 0 0 11.72699
-3.9451506 8.738431 1.5162635 389 0 0 0 17.98003
-3.1904557 9.1937838 1.8583851 296.66666 0 0 0 19.416626
-2.8613553 9.2048874 1.9999422 254 0 0 0 19.944889
33.064655 9.1479225 1.9699367 17 0 0 0 45.368938
-3.0525725 9.8357286 1.6280421 350 0 0 0 19.944889
-2.7909288 9.837266 1.6169406 262 0 0 0 20.328409
10.343564 9.8931952 1.9063301 434 0 0 0 37.541649
10.767389 9.8015318 1.9387172 328 0 0 0 37.938499
11.233492 9.7299862 1.9777212 242 0 0 0 38.324039
11.946041 9.8381834 1.6762071 197 0 0 0 38.72002
32.493317 9.8556051 1.9506998 27 0 0 0 44.96722
9.4398966 10.46624 1.5301229 433 0 0 0 36.360111
9.8555717 10.148039 1.710501 434 0 0 0 36.954079
-3.6491575 10.838941 1.8047928 337 0 0 0 19.548759
55.898354 11.107271 1.8503133 40 0 0 0 46.536041
-4.1086707 12.232647 1.7143784 122 0 0 0 19.548759
6.9510636 12.359729 1.5380582 459 0 0 0 32.840759
7.230689 12.147391 1.5335724 526 0 0 0 33.228649
6.0934296 12.998542 1.9097099 545 0 0 0 31.664511
6.6617947 12.561262 1.7173332 193.5 0 0 0 32.452198
5.8079653 13.226243 1.9211925 592 0 0 0 31.280041
-2.1639035 14.171092 1.5506387 351 0 0 0 22.27965
-31.501455 -28.553526 2.4338763 10 0 0 0 88.042389
-32.465778 -28.008051 2.4541578 14 0 0 0 88.424461
-9.5630627 -9.1137905 2.2448101 479.5 0 0 0 87.647827
-9.0163231 -9.0248461 2.168911 577.5 0 0 0 87.262413
-8.161562 -9.0124874 2.2188675 23 0 0 0 86.474846
-7.7616901 -9.005044 2.1702392 13 0 0 0 86.084793
-8.5025816 -8.9385653 2.2508662 652 0 0 0 86.871399
-7.7174778 -8.9537601 2.4486301 30 0 0 0 86.084793
-7.3268442 -8.9342842 2.2516499 25 0 0 0 85.685356
-6.7523551 -8.8034487 2.1190965 24.333334 0 0 0 85.160942
-6.2353129 -8.7045355 2.3074677 41.666668 0 0 0 84.6353
-5.7803321 -8.6562786 2.2869873 54 0 0 0 84.121613
-5.1779804 -8.4048405 2.1709619 1130.25 0 0 0 83.530258
-4.7290897 -8.352417 2.3465056 923 0 0 0 82.943756
-4.2902708 -8.2694759 2.2786095 1213.25 0 0 0 82.361145
-3.7526863 -8.1912498 2.204762 1257.5 0 0 0 81.573105
-3.2708249 -8.1168518 2.2930713 1249.6 0 0 0 80.832535
-2.7695749 -8.0423813 2.2929063 1373.25 0 0 0 80.005478
-2.3141525 -7.9666786 2.2370372 1384.75 0 0 0 79.22995
-1.7484325 -7.8743243 2.2506113 1189.875 0 0 0 78.195244
-1.2606499 -7.8001056 2.3272328 1466 0 0 0 77.269829
-0.76739311 -7.7153473 2.2847438 1522.8334 0 0 0 76.294014
-0.19564085 -7.6163468 2.2457187 1449.8334 0 0 0 75.118286
0.26816344 -7.5392804 2.2239523 1489 0 0 0 74.140121
0.74733758 -7.4642215 2.2815282 1353.75 0 0 0 73.105797
1.2701386 -7.3908215 2.3043187 1264.8889 0 0 0 71.984116
1.8128328 -7.2905803 2.2158842 1525.5 0 0 0 70.809784
2.2726789 -7.2202291 2.2325482 1397.25 0 0 0 69.829887
2.7420883 -7.1484947 2.2583635 1322.6666 0 0 0 68.848541
3.2234154 -7.0743127 2.2926431 1352 0 0 0 67.874146
3.5902958 -7.023735 2.3583145 1325 0 0 0 67.148476
3.8585975 -6.976645 2.3179677 1375.6666 0 0 0 66.629189
4.2075505 -6.9231143 2.3545325 1270.3334 0 0 0 65.973747
4.7128673 -6.8393798 2.276294 1170.6666 0 0 0 65.062889
5.2566733 -6.7614937 2.31126 1328.5 0 0 0 64.146767
5.8274598 -6.6706767 2.3518419 1210.6666 0 0 0 63.236313
6.2600307 -6.6007442 2.3394964 1146 0 0 0 62.576759
6.6774964 -6.538703 2.2879939 1209.25 0 0 0 61.986427
7.2626295 -6.4440017 2.2554877 1163 0 0 0 61.206196
7.7245436 -6.3625093 2.2020073 1105 0 0 0 60.615898
8.2288933 -6.280899 2.2767916 959.5 0 0 0 60.036827
8.7986546 -6.2177539 2.367703 768.5 0 0 0 59.445606
15.969185 -5.2891312 2.2225673 17 0 0 0 54.757191
15.892481 -4.8337922 2.195179 12 0 0 0 54.360458
15.877744 -4.4060464 2.1778677 9 0 0 0 53.975609
15.701069 -3.132827 2.1174068 19 0 0 0 52.797821
16.42243 -2.8584371 2.2031388 29 0 0 0 52.399967
17.605368 -2.6195538 2.3501189 32 0 0 0 52.018448
19.259642 -2.3858552 2.081341 44 0 0 0 51.6217
21.17939 -2.0958216 2.279211 22 0 0 0 51.226158
23.148954 -1.7168196 2.4827964 28 0 0 0 50.834042
25.672796 -1.2696308 2.1205883 17 0 0 0 50.449741
28.759668 -0.71392095 2.3694458 31 0 0 0 50.055569
9.0186434 5.4303465 2.1928041 111 0 0 0 41.06208
9.6424904 5.4852929 2.308404 84 0 0 0 41.453041
11.030019 5.2348981 2.234616 27 0 0 0 42.631912
7.441452 5.8444214 2.2081628 55 0 0 0 39.10939
9.378768 5.9655519 2.3132896 80 0 0 0 40.663647
10.462712 5.6137748 2.1747339 96 0 0 0 41.847672
10.50621 5.9746995 2.2132299 147 0 0 0 41.453041
8.4688416 6.313643 2.2009594 176 0 0 0 39.493927
9.1352892 6.4642401 2.3292246 68 0 0 0 39.894207
9.5481033 6.0730419 2.0750668 113 0 0 0 40.663647
10.047706 6.0472031 2.1488478 53 0 0 0 41.06208
14.001516 6.2229629 2.4140124 63 0 0 0 43.024231
17.428902 6.2486482 2.4489615 19 0 0 0 44.196678
9.3274813 6.9505229 2.1327155 126 0 0 0 39.493927
9.9131279 6.6521616 2.3343866 68.5 0 0 0 40.278809
13.761834 6.5268803 2.4002161 19 0 0 0 42.631912
16.817078 6.9810596 2.4097311 150 0 0 0 43.411259
-4.7854571 7.3050728 2.2361605 395.66666 0 0 0 15.509641
-3.6665444 7.1351666 2.0576456 246 0 0 0 17.199631
-3.5957577 7.9462514 2.2360594 506 0 0 0 17.98003
-3.1182232 7.8957438 2.281713 497.5 0 0 0 18.762501
-10.393636 8.2583866 2.416038 216 0 0 0 10.363295
-9.8076077 8.3950033 2.3500304 247 0 0 0 10.94862
-4.0761681 8.4630718 2.4063528 289 0 0 0 17.58477
-3.5549388 8.4068251 2.1161957 393 0 0 0 18.377001
-3.3421733 8.0777969 2.2429285 466 0 0 0 18.505501
-9.0654211 8.990757 2.3246944 141 0 0 0 12.11976
-4.1316442 8.5802011 2.2063761 476 0 0 0 17.58477
-3.8538592 8.5292053 2.1690662 396 0 0 0 17.98003
-3.0376744 8.9796619 2.198154 387 0 0 0 19.548759
-2.8640194 8.8154631 2.3771503 474.5 0 0 0 19.746824
-9.6677303 9.1336756 2.4207366 126 0 0 0 11.72699
-5.1403489 9.298317 2.2861655 276 0 0 0 16.679918
-4.6110907 9.0145388 2.3443367 280 0 0 0 17.199631
-3.335654 9.1250591 2.1328044 501 0 0 0 19.152359
-2.8345852 9.1112356 2.2128801 229 0 0 0 19.944889
-9.2144079 9.6008177 2.4222431 184 0 0 0 12.50089
-8.88836 9.7257214 2.3985493 148 0 0 0 12.88951
-2.2871943 9.8849583 2.1048148 488 0 0 0 21.10985
10.342895 9.8920975 2.2611425 344 0 0 0 37.541649
10.731648 9.7686853 2.2923167 402 0 0 0 37.938499
11.220122 9.7179956 2.3435352 137 0 0 0 38.324039
11.853027 9.7644405 2.4229834 201 0 0 0 38.72002
9.4137812 10.440167 2.2212903 423 0 0 0 36.360111
9.8426857 10.135576 2.2326248 376.5 0 0 0 36.954079
-3.2340579 10.920671 2.2195294 369.5 0 0 0 20.13665
9.1381426 10.65059 2.2174251 424 0 0 0 35.976662
33.134277 10.945687 2.0043771 34 0 0 0 44.578178
-3.12485 11.048022 2.0958204 215 0 0 0 20.328409
7.2227106 12.137747 2.2303104 413 0 0 0 33.228649
-38.194817 12.632041 2.3401785 44 0 0 0 4.6953402
5.5069642 13.427566 2.2894332 649 0 0 0 30.89122
4.9112434 13.881695 2.321877 622 0 0 0 30.09647
4.2908306 14.33108 2.3578792 274 0 0 0 29.322929
4.6102638 14.125218 2.3424075 330 0 0 0 29.70647
3.8232019 14.725256 2.3971212 331 0 0 0 28.729179
2.9979348 15.362065 2.4645448 266 0 0 0 27.76083
3.3331728 15.09917 2.4353111 372 0 0 0 28.15414
-66.352661 16.676493 2.2897336 7 0 0 0 3.5242901
-62.733639 17.410709 2.1803069 20 0 0 0 3.91974
-38.400166 -31.517603 2.8376696 6 0 0 0 88.812759
-35.303879 -27.555429 2.5615609 11 0 0 0 89.214333
-35.809299 -26.562515 2.5502532 16 0 0 0 89.606888
-36.462017 -25.684471 2.5509989 12 0 0 0 90.006638
-37.235172 -24.885216 2.5613799 17 0 0 0 90.401161
-37.387871 -23.681471 2.5315104 17 0 0 0 90.79245
-9.5746374 -9.1248226 2.7360482 362 0 0 0 87.647827
-9.0588713 -9.0690117 2.8098063 462.5 0 0 0 87.262413
-8.5343475 -8.9735241 2.7154889 546.5 0 0 0 86.871399
-8.0835457 -8.9279194 2.6410046 262 0 0 0 86.474846
-7.6183929 -8.8419418 2.8467023 569.5 0 0 0 86.084793
-7.1999435 -8.7826853 2.7706208 510.5 0 0 0 85.685356
-6.8049626 -8.7286892 2.7006068 455.5 0 0 0 85.290558
-6.2334499 -8.6287403 2.7282007 561 0 0 0 84.701904
-5.7031536 -8.5422955 2.7620363 677.5 0 0 0 84.121613
-5.1969461 -8.4373894 2.6662743 857.5 0 0 0 83.530258
-4.7379532 -8.3697796 2.8260572 881.5 0 0 0 82.943756
-4.3070378 -8.3039322 2.7495632 959.5 0 0 0 82.361145
-3.7373993 -8.2127476 2.7195835 1087.8 0 0 0 81.534233
-3.2574234 -8.1431036 2.7958033 1084.5 0 0 0 80.793533
-2.7747242 -8.0595074 2.7180438 1181.5 0 0 0 80.005478
-2.4310968 -8.0095663 2.7722318 1122.6666 0 0 0 79.424324
-2.2107728 -7.9814854 2.7432511 1187 0 0 0 79.035583
-1.8099775 -7.9106216 2.7459981 1129.4286 0 0 0 78.300415
-1.2637327 -7.8231983 2.7240586 1174.25 0 0 0 77.269829
-0.76857638 -7.7396183 2.7697439 1189.4445 0 0 0 76.294022
-0.19528513 -7.6475396 2.725044 1134.2222 0 0 0 75.118294
0.27049783 -7.571146 2.6989403 1148.1666 0 0 0 74.140129
0.59236902 -7.5221233 2.734365 1092.25 0 0 0 73.450325
0.85112858 -7.4763255 2.7424581 1107.3334 0 0 0 72.891975
1.2765793 -7.4148312 2.7736008 1151.6666 0 0 0 71.984116
1.7308002 -7.3390317 2.6873264 1001.6667 0 0 0 71.00724
2.1903582 -7.2632151 2.7043142 1050 0 0 0 70.024872
2.753808 -7.1753988 2.7397881 1094 0 0 0 68.848534
3.2368195 -7.1007886 2.7814474 1065.6666 0 0 0 67.874153
3.6327062 -7.034266 2.7244008 1115.75 0 0 0 67.082916
-33.601063 -6.6974149 2.8211048 24 0 0 0 96.644066
3.9411592 -6.9889212 2.7605574 1082 0 0 0 66.500656
4.2764645 -6.9316216 2.7416086 1085 0 0 0 65.868439
4.6926413 -6.867157 2.7583933 1028.6666 0 0 0 65.128044
5.1533499 -6.8000154 2.7238872 1126.75 0 0 0 64.343529
5.7112074 -6.7107515 2.7463913 1053.6 0 0 0 63.443085
6.1488686 -6.6426773 2.7755022 1064.5 0 0 0 62.775841
6.6973224 -6.556705 2.7578621 1019.5 0 0 0 61.986427
7.2748437 -6.4536572 2.7390146 994.5 0 0 0 61.206192
7.7471809 -6.3799181 2.7024014 935.5 0 0 0 60.615898
8.2600212 -6.3034883 2.7968965 802.25 0 0 0 60.036823
8.7952728 -6.2142091 2.7633636 675 0 0 0 59.445606
-27.042688 -5.3908429 2.9474804 53 0 0 0 96.644066
48.07695 1.1637417 2.7398162 19 0 0 0 49.275047
9.4034481 5.6628499 2.5542879 22 0 0 0 41.06208
10.210085 5.8086176 2.8739059 80 0 0 0 41.453041
10.988069 5.8963385 2.8957984 43 0 0 0 41.847672
11.097702 5.9527531 2.614928 86 0 0 0 41.847672
14.330934 5.9507732 2.8289351 25 0 0 0 43.411259
15.343048 5.9320583 2.5882235 25 0 0 0 43.803352
9.0862961 6.4316654 2.7273312 104 0 0 0 39.894207
9.6506643 6.1394153 2.9418213 7 0 0 0 40.663647
13.530345 6.0138164 2.7014494 44 0 0 0 43.024231
-5.0085659 6.9991527 2.6272163 206 0 0 0 14.86479
8.7747602 6.5421896 2.8174241 48 0 0 0 39.493927
9.1459332 6.8177562 2.6537714 67 0 0 0 39.493927
9.7306814 6.5322857 2.724932 71 0 0 0 40.278809
12.888514 6.506669 2.8139572 57.5 0 0 0 42.242191
-8.6847296 7.422431 2.7772162 256 0 0 0 10.94862
-10.040705 7.7750788 2.7768023 243.5 0 0 0 10.16862
-9.3369732 7.9884691 2.5383151 187 0 0 0 10.94862
-8.7235689 7.8346462 2.7083371 214 0 0 0 11.33389
-3.2205937 7.74789 2.8005376 360.71429 0 0 0 18.485504
-2.8486078 7.7605782 2.7327516 111 0 0 0 19.152359
34.436611 7.7339997 2.9040678 49 0 0 0 46.141258
-9.858429 8.0270119 2.7799609 195 0 0 0 10.55797
-9.4349375 8.4831295 2.6205823 282 0 0 0 11.33389
-7.6019778 8.3016615 2.8764627 275 0 0 0 12.88951
-4.15872 8.1148386 2.784255 311.25 0 0 0 17.198336
33.860748 8.4837427 2.8732007 31 0 0 0 45.751999
-9.3885393 8.8661633 2.8223953 208 0 0 0 11.72699
-8.8173656 8.7410526 2.7160172 189.5 0 0 0 12.11976
-8.3559208 8.6963663 2.6369824 241.5 0 0 0 12.50089
-7.8379593 8.562191 2.6822615 129 0 0 0 12.88951
-5.3083868 8.7320509 2.8677084 151 0 0 0 16.026739
-4.8274331 8.7208214 2.716217 364 0 0 0 16.679918
-3.0286303 8.9532833 2.6572456 367 0 0 0 19.548759
-2.6680691 8.7545719 2.7983055 376.75 0 0 0 20.04077
-2.4839046 8.7230082 2.9980373 306 0 0 0 20.328409
-5.7222962 9.4232426 2.6849887 313.5 0 0 0 16.026739
-4.6446476 9.0820742 2.863611 239 0 0 0 17.199631
-2.5627968 9.0075836 2.6340871 339 0 0 0 20.328409
-8.8677778 9.7032204 2.7150247 243 0 0 0 12.88951
-8.4941483 9.7622728 2.6731763 228 0 0 0 13.29186
-6.7410383 9.7176609 2.7338979 195 0 0 0 15.059265
-5.4865942 9.5548449 2.5487537 329 0 0 0 16.421141
-4.3908434 9.743721 2.9999197 286 0 0 0 17.98003
10.322898 9.8723783 2.7872734 347.5 0 0 0 37.541649
10.714688 9.7528572 2.6481831 348 0 0 0 37.938499
11.189854 9.6914349 2.7045469 209 0 0 0 38.324039
11.822049 9.7385607 2.7967021 172 0 0 0 38.72002
-11.16015 10.049361 2.7310531 94 0 0 0 11.33389
-3.8231151 10.488437 2.8574328 303 0 0 0 19.152359
9.410861 10.436241 2.7424431 357.5 0 0 0 36.360111
9.8302765 10.122435 2.7538242 369.75 0 0 0 36.954079
9.138319 10.650078 2.7384205 369 0 0 0 35.976662
-3.1417449 11.103216 2.6713831 265 0 0 0 20.328409
-2.8818429 11.230948 2.6845324 351 0 0 0 20.724039
50.218723 11.266956 2.9359148 19 0 0 0 46.141258
-3.0395954 11.870195 2.5361667 313 0 0 0 20.724039
5.7627926 11.559615 2.9973063 345 0 0 0 32.055641
6.9287496 12.323312 2.7568712 317 0 0 0 32.840759
7.2113042 12.117871 2.7501752 346.5 0 0 0 33.228649
6.2249479 12.864608 2.7861066 357.25 0 0 0 31.860075
6.6504288 12.540783 2.7677507 329.5 0 0 0 32.452198
5.7915068 13.18734 2.8069301 525.5 0 0 0 31.280041
3.8195636 14.71059 2.7713041 286.5 0 0 0 28.729179
2.9930198 15.335818 2.8473821 155 0 0 0 27.76083
3.329509 15.081472 2.8150537 329 0 0 0 28.15414
2.6482673 15.595255 2.8820164 109 0 0 0 27.36809
1.9356582 16.166613 2.9651229 255 0 0 0 26.5889
-35.397797 -22.429882 3.4422247 17 0 0 0 90.79245
-29.943087 -21.101021 3.0134919 15 0 0 0 90.006638
-9.598711 -9.1509571 3.230463 161.5 0 0 0 87.647827
-9.086648 -9.0983973 3.2908838 427 0 0 0 87.262413
-8.5705051 -9.0131054 3.1840553 538 0 0 0 86.871399
-8.0918827 -8.9386978 3.2373781 485 0 0 0 86.474846
-7.6420007 -8.8693371 3.2895665 544 0 0 0 86.084793
-7.2168136 -8.8048277 3.3395572 557.5 0 0 0 85.685356
-6.8042126 -8.7292967 3.2476573 618.5 0 0 0 85.290558
-6.2396736 -8.6394882 3.2580891 632.5 0 0 0 84.701904
-5.7130704 -8.5587635 3.2750034 691.5 0 0 0 84.121613
-5.3833184 -8.5073586 3.3289995 662 0 0 0 83.72747
-5.1618638 -8.4600048 3.1139507 774.33331 0 0 0 83.464516
-4.7553072 -8.4021511 3.3117461 803.5 0 0 0 82.943756
-4.3217573 -8.3339958 3.2214422 848.75 0 0 0 82.361145
-3.8017755 -8.2513056 3.273746 834.40002 0 0 0 81.611977
-3.2641091 -8.16605 3.2348411 885.75 0 0 0 80.793533
-2.7791486 -8.0793514 3.143537 941.25 0 0 0 80.005478
-2.4350917 -8.027812 3.1894214 942 0 0 0 79.424324
-2.2134385 -7.9965806 3.1548786 886 0 0 0 79.035583
-1.7807986 -7.9167786 3.08673 965.66669 0 0 0 78.244324
-1.2637191 -7.8323526 3.0182838 1063.5 0 0 0 77.269829
3.6388674 -7.043066 3.0193043 1033 0 0 0 67.082916
3.9442849 -6.9915233 3.0568192 933 0 0 0 66.500656
4.2641745 -6.9468794 3.1038456 928.5 0 0 0 65.907928
4.7041826 -6.8814192 3.1735358 832 0 0 0 65.128044
5.1639552 -6.8100982 3.1485453 902.5 0 0 0 64.343529
5.6567211 -6.744102 3.2419786 868.25 0 0 0 63.560127
6.1971517 -6.6591887 3.2822013 848 0 0 0 62.736023
6.7133865 -6.5712147 3.2275801 862 0 0 0 61.986427
7.1614952 -6.5095334 3.4426124 704 0 0 0 61.407219
7.352654 -6.468679 3.1618164 863 0 0 0 61.139187
7.7907209 -6.4144621 3.2158406 718.5 0 0 0 60.615898
8.2917175 -6.3265452 3.3228712 661.25 0 0 0 60.036827
8.8337078 -6.2401004 3.1773033 426.5 0 0 0 59.445606
21.014563 -4.18999 3.3523548 33 0 0 0 52.797821
17.557091 -3.5023584 3.2507327 35 0 0 0 52.797821
30.981859 -1.5316762 3.3059175 32 0 0 0 50.449741
9.011241 6.3783436 3.1164758 48 0 0 0 39.894207
13.58826 6.4440875 3.1144123 22 0 0 0 42.631912
-8.2416773 6.6973739 3.4955893 100 0 0 0 10.55797
8.9224167 6.9993801 3.2004552 19 0 0 0 39.10939
-8.3895607 7.1676626 3.0911212 293 0 0 0 10.94862
-4.5567617 7.9089584 3.1228781 269 0 0 0 16.421141
-4.0666237 7.9261217 3.3756068 252 0 0 0 17.199631
-3.2836604 7.7453017 3.190191 169 0 0 0 18.377001
-10.736977 8.3181095 3.4662905 241 0 0 0 10.16862
-8.5580683 8.480154 3.0772398 279 0 0 0 12.11976
-8.1699162 8.4994907 3.0117226 295 0 0 0 12.50089
-5.1429763 8.3344746 3.288533 317.5 0 0 0 15.929453
-3.8751647 8.0314798 3.1619062 175 0 0 0 17.58477
-2.6427479 8.4694843 3.1495419 311 0 0 0 19.944889
-10.57026 8.6108885 3.4796507 250 0 0 0 10.55797
-9.4201431 8.6793556 3.2706828 175 0 0 0 11.530439
-8.223527 8.7706623 3.3687625 218.5 0 0 0 12.6952
-7.7802005 8.9307003 3.319109 246 0 0 0 13.29186
-7.3169417 8.8196974 3.4925752 266 0 0 0 13.67612
-5.5706897 8.6792145 3.40025 103 0 0 0 15.63759
-4.9035144 8.5214081 3.0007131 389 0 0 0 16.421141
-2.4652166 8.6444378 3.3010588 162.5 0 0 0 20.328409
-6.3453636 9.3815994 3.4533632 138 0 0 0 15.25374
-4.5464177 9.4556732 3.2022567 323 0 0 0 17.58477
-4.4197197 9.1919651 3.3649256 339 0 0 0 17.58477
-7.1824803 9.583046 3.0604293 116 0 0 0 14.46612
-6.6951208 9.9087849 3.0565209 102 0 0 0 15.25374
-4.3179283 9.5773296 3.3366499 267.5 0 0 0 17.98003
-3.5394387 9.6897249 3.1507409 270 0 0 0 19.152359
10.305202 9.8582964 3.3087173 292 0 0 0 37.541649
10.706093 9.7460918 3.180635 272 0 0 0 37.938499
11.168653 9.6741753 3.2451718 252.5 0 0 0 38.324039
11.827305 9.7424107 3.1757531 140 0 0 0 38.72002
-8.7115974 10.264294 3.4381347 131.5 0 0 0 13.48399
-8.2327738 10.453915 3.3984601 136 0 0 0 14.06798
-3.8095849 10.451123 3.1229949 272 0 0 0 19.152359
-3.3783813 10.015498 3.4892232 312 0 0 0 19.548759
9.3999929 10.427211 3.2572374 380 0 0 0 36.360111
9.8154202 10.109941 3.2696886 326.5 0 0 0 36.954079
-3.6313329 10.776007 3.4715502 194 0 0 0 19.548759
8.8451567 10.840715 3.2459946 242 0 0 0 35.578739
9.1236162 10.636082 3.2511771 308 0 0 0 35.976662
39.406712 10.907279 3.3600299 40 0 0 0 45.368938
-9.576395 11.01553 3.3688977 152 0 0 0 13.29186
-9.4120293 11.378689 3.4082503 144 0 0 0 13.67612
-6.345582 11.07402 3.2616878 125 0 0 0 16.421141
6.2516603 11.456619 3.0288916 315 0 0 0 32.646477
8.1692533 11.375385 3.2487912 291.5 0 0 0 34.597157
8.5783863 11.058868 3.2468426 288 0 0 0 35.180679
5.3320055 11.764863 3.1552894 369.5 0 0 0 31.472277
6.8593478 11.534859 3.1136534 277 0 0 0 33.228649
7.4735641 11.887017 3.2562673 316 0 0 0 33.6157
7.748282 11.675997 3.2500618 270 0 0 0 34.0098
4.3899145 12.430553 3.2187896 454 0 0 0 30.09647
4.7936959 12.131283 3.1859684 363 0 0 0 30.692486
-38.085625 12.588358 3.3299356 47 0 0 0 4.6953402
-36.251625 12.973879 3.1972687 12 0 0 0 5.0816298
3.8408799 12.854828 3.2744224 443 0 0 0 29.322929
4.1174402 12.639858 3.245059 445 0 0 0 29.70647
-34.283081 13.22337 3.0522368 24 0 0 0 5.4730601
3.3170452 13.479612 3.215672 274 0 0 0 28.53656
3.5772188 13.139947 3.1555946 331 0 0 0 28.921801
5.5063529 13.424558 3.0060725 450 0 0 0 30.89122
4.910181 13.87697 3.0484936 430 0 0 0 30.09647
5.2041116 13.632936 3.0226684 473 0 0 0 30.49375
4.2991142 14.356274 3.1023753 296 0 0 0 29.322929
4.5960417 14.080327 3.066905 303 0 0 0 29.70647
3.8172526 14.70084 3.1435351 316.5 0 0 0 28.729179
-35.128357 -28.842815 3.7308521 11 0 0 0 88.812759
-38.029732 -28.219645 3.8854916 18 0 0 0 89.606888
-32.56855 -28.10663 3.5331402 10 0 0 0 88.424461
-35.37088 -27.617682 3.6839013 8 0 0 0 89.214333
-26.314695 -21.607147 3.6306584 24 0 0 0 88.812759
-29.835066 -18.905764 3.7648244 27 0 0 0 90.79245
-9.64007 -9.1903801 3.7382259 37 0 0 0 87.647827
-9.1187134 -9.1320915 3.7815886 292.5 0 0 0 87.262413
-8.6031322 -9.0489902 3.6599116 411 0 0 0 86.871399
-8.1076031 -8.959199 3.6910727 449 0 0 0 86.474846
-7.6584663 -8.8900089 3.7304144 425.5 0 0 0 86.084793
-7.2373962 -8.8283672 3.7710211 436 0 0 0 85.685356
-6.8288651 -8.7625008 3.8068571 444 0 0 0 85.290558
-6.3057446 -8.6590385 3.7146862 573.66669 0 0 0 84.768501
-5.7218084 -8.5767088 3.7873161 548.5 0 0 0 84.121613
-5.3900981 -8.5246477 3.7055945 578.5 0 0 0 83.72747
-5.0693097 -8.4696732 3.6271527 599 0 0 0 83.333046
-4.763998 -8.4209375 3.6740489 577 0 0 0 82.943756
-4.3232198 -8.3404732 3.5684905 734.5 0 0 0 82.361145
6.725235 -6.580287 3.5787537 796 0 0 0 61.986427
7.1696758 -6.5169163 3.6840842 683 0 0 0 61.407219
7.4704599 -6.4620962 3.6342273 652 0 0 0 61.005169
7.7868586 -6.4078445 3.7098353 624 0 0 0 60.615898
8.2583542 -6.3514481 3.7884922 521.33331 0 0 0 60.102406
8.8309231 -6.2369695 3.7096567 157.5 0 0 0 59.445606
17.532007 -3.4975317 3.6866095 90 0 0 0 52.797821
27.685604 -1.3647003 3.6404531 8 0 0 0 50.449741
34.126324 -0.84695435 3.6348636 53 0 0 0 50.055569
30.020039 0.73520076 3.9419522 16 0 0 0 49.275047
-9.9944286 7.73524 3.8475585 205 0 0 0 10.16862
-10.136574 8.253212 3.8196371 212 0 0 0 10.55797
-5.7226772 8.4461699 3.8613372 94 0 0 0 15.25374
-5.3841271 8.3782053 3.7700346 190 0 0 0 15.63759
-11.080225 8.5865564 3.9237525 112 0 0 0 10.16862
-9.2127666 8.9105148 3.7483034 206.5 0 0 0 11.923374
-8.0734148 8.8199387 3.6429653 210 0 0 0 12.88951
-7.7272234 8.8663006 3.5837514 202 0 0 0 13.29186
-7.2164927 8.7004919 3.7236004 202 0 0 0 13.67612
-6.8977408 8.7353954 3.9387124 199 0 0 0 14.06798
-4.6439581 8.8044167 3.6479144 211 0 0 0 17.004471
34.157124 8.5572357 3.7542744 42 0 0 0 45.751999
-10.345102 9.3068771 3.8959427 91 0 0 0 11.33389
-9.7317724 9.1923771 3.748605 91 0 0 0 11.72699
-8.6941652 9.0482206 3.8222332 234 0 0 0 12.50089
-5.1407123 9.481513 3.5565426 168 0 0 0 16.809309
-4.3419876 9.0199347 3.7920046 231 0 0 0 17.58477
-3.3519483 9.1610909 3.577282 246.5 0 0 0 19.152359
34.028305 9.4192171 3.7649419 34 0 0 0 45.368938
-3.199254 9.8680735 3.9327536 209.5 0 0 0 19.746824
9.9403973 9.9892454 3.9676979 258 0 0 0 37.1478
10.272966 9.8269262 3.8251324 285 0 0 0 37.541649
10.670835 9.715167 3.7029388 268 0 0 0 37.938499
11.147349 9.656827 3.7832649 212 0 0 0 38.324039
11.774551 9.7018986 3.7239046 186 0 0 0 38.72002
32.672844 9.9148102 3.6426675 22 0 0 0 44.96722
-8.561821 10.341774 3.7608743 167 0 0 0 13.67612
9.3847237 10.409666 3.7712522 277 0 0 0 36.360111
9.7519102 10.126876 3.7247295 275.66666 0 0 0 36.8895
-8.2830381 10.518725 3.7506766 186 0 0 0 14.06798
-7.7133136 10.847958 3.729465 150 0 0 0 14.86479
8.8282642 10.819412 3.7571797 244.5 0 0 0 35.578739
9.1076508 10.616865 3.763844 281 0 0 0 35.976662
8.1464491 11.343013 3.7570822 274 0 0 0 34.597157
8.5557537 11.029138 3.755456 285 0 0 0 35.180679
-32.900379 11.770766 3.7504039 66 0 0 0 5.0816298
7.4671993 11.876146 3.7729881 278 0 0 0 33.6157
7.7388268 11.661053 3.764461 298 0 0 0 34.0098
6.9179211 12.307442 3.7962577 310.5 0 0 0 32.840759
7.1936622 12.091537 3.7837238 299.5 0 0 0 33.228649
-33.226959 12.814686 3.821918 47 0 0 0 5.4730601
6.3521538 12.728864 3.8242474 332 0 0 0 32.055641
6.6340923 12.513645 3.807941 331 0 0 0 32.452198
3.8086932 14.675493 3.8821647 274.5 0 0 0 28.729179
2.9852362 15.306757 3.7993526 289 0 0 0 27.76083
3.3176882 15.037687 3.7524006 249 0 0 0 28.15414
2.2893703 15.839879 3.7011712 272 0 0 0 26.981489
2.6443663 15.585308 3.6564126 290 0 0 0 27.36809
1.7409804 16.260542 3.7810454 274.5 0 0 0 26.394516
-66.132301 16.620626 3.9493077 13 0 0 0 3.5242901
0.76656699 16.853891 3.8987551 83 0 0 0 25.412081
1.1677468 16.65925 3.8598061 128 0 0 0 25.80772
-62.710587 17.403999 3.7705312 19 0 0 0 3.91974
-62.723362 19.075443 3.7981472 23 0 0 0 4.3014698
-31.896021 -27.526327 4.4842572 11 0 0 0 88.424461
-30.41506 -27.578608 4.3708286 11 0 0 0 88.042389
-34.066566 -24.006304 4.4358749 20 0 0 0 90.006638
-30.302687 -22.48671 4.0197945 16 0 0 0 89.606888
-26.462811 -18.655903 4.2502532 37 0 0 0 90.006638
-25.388422 -18.847532 4.1515527 11 0 0 0 89.606888
-9.6555538 -9.2083549 4.0727453 9 0 0 0 87.647827
-9.1580009 -9.1698313 4.2771611 291 0 0 0 87.262413
-8.6240139 -9.0725355 4.285511 339 0 0 0 86.871399
-8.1521959 -9.0116234 4.3100634 358 0 0 0 86.474846
-8.141818 -8.9938507 4.0057263 422 0 0 0 86.474846
-7.6884518 -8.929534 4.3246269 359.5 0 0 0 86.084793
-7.2543049 -8.8552847 4.2022076 384.5 0 0 0 85.685356
-6.8389521 -8.7785912 4.2217412 410 0 0 0 85.290558
-6.262311 -8.6754684 4.0605001 467.5 0 0 0 84.701904
-33.037708 -6.5913219 4.4215498 41 0 0 0 96.644066
8.4922857 -6.3142061 4.0210848 486 0 0 0 59.84008
8.8807096 -6.2696762 4.1298189 22 0 0 0 59.445606
-26.558426 -5.2993026 4.2318263 24 0 0 0 96.644066
17.447834 -3.4777782 4.1050367 66 0 0 0 52.797821
27.409498 -2.7063203 4.2992268 32 0 0 0 51.226158
25.858986 -0.63881189 4.0408688 17 0 0 0 50.055569
34.262054 -0.84479278 4.4927688 43 0 0 0 50.055569
28.8139 0.70516139 4.4991398 7 0 0 0 49.275047
-9.9776497 7.3382483 4.2263908 210 0 0 0 9.7762804
-9.9697399 7.7161717 4.3018551 215.5 0 0 0 10.16862
-11.294131 8.3156223 4.2688241 101 0 0 0 9.7762804
-9.3920126 8.1640053 4.2980485 173 0 0 0 11.077043
-8.8775654 8.3725986 4.3148246 214 0 0 0 11.72699
-8.2752934 8.1922112 4.4019365 225 0 0 0 12.11976
30.573092 8.4688835 4.1676331 10 0 0 0 45.368938
-10.048621 8.5980988 4.0265794 176 0 0 0 10.94862
-9.6065025 8.6368151 4.2517486 104 0 0 0 11.33389
-9.3106861 8.7912655 4.2150135 118 0 0 0 11.72699
-10.846614 9.7588968 4.4418392 56 0 0 0 11.33389
-9.8101597 9.7329407 4.3757715 74 0 0 0 12.11976
-9.2559357 9.6425648 4.400002 179 0 0 0 12.50089
-8.8929701 9.728899 4.3395262 183 0 0 0 12.88951
-8.4854774 9.750062 4.2559538 209 0 0 0 13.29186
-4.3498821 9.6438313 4.0071359 129 0 0 0 17.98003
-3.8866725 9.8838739 4.023921 159 0 0 0 18.762501
9.9334154 9.9852924 4.3128233 248 0 0 0 37.1478
10.252856 9.8105278 4.3450632 230 0 0 0 37.541649
10.65102 9.6982212 4.2325764 247 0 0 0 37.938499
11.105249 9.6215267 4.3161716 208 0 0 0 38.324039
11.717274 9.6542072 4.2711291 185 0 0 0 38.72002
31.408808 9.5369644 4.3114972 11 0 0 0 44.96722
-7.6098919 10.154031 4.4894037 153 0 0 0 14.46612
-6.0761347 10.008574 4.4308724 107 0 0 0 16.026739
-5.7963905 10.096648 4.4062743 108 0 0 0 16.421141
-5.4401598 10.034716 4.0420218 186 0 0 0 16.809309
9.3585348 10.383718 4.2802563 232 0 0 0 36.360111
9.6327696 10.172539 4.2898717 269 0 0 0 36.760353
30.805996 10.187288 4.2628803 10 0 0 0 44.578178
-3.6469622 10.818326 4.04638 129 0 0 0 19.548759
8.8179703 10.809992 4.2711887 267 0 0 0 35.578739
9.0891705 10.598474 4.2750049 259 0 0 0 35.976662
71.296257 10.556857 4.0939445 78 0 0 0 47.32296
-8.9448671 11.36431 4.4048672 83 0 0 0 14.06798
7.9946156 11.429329 4.2696095 211 0 0 0 34.4048
8.2679863 11.221453 4.2670364 233 0 0 0 34.789513
8.5371914 11.00858 4.2650476 231 0 0 0 35.180679
-8.7117643 11.644613 4.4295788 162 0 0 0 14.46612
7.44525 11.845247 4.2819881 260 0 0 0 33.6157
7.7192359 11.635341 4.2739129 261 0 0 0 34.0098
-31.204685 12.025913 4.4105887 61 0 0 0 5.4730601
6.7608247 12.387316 4.3182945 295.5 0 0 0 32.646477
7.1799126 12.072528 4.2984858 328 0 0 0 33.228649
-38.115303 12.598096 4.3056149 43 0 0 0 4.6953402
6.152699 12.856576 4.2428489 288.66666 0 0 0 31.794886
72.384583 12.541191 4.1732683 6 0 0 0 46.935081
5.4846907 13.379544 4.243597 310.5 0 0 0 30.89122
5.7724619 13.150831 4.2154312 289.5 0 0 0 31.280041
4.8875303 13.822081 4.3012242 294.5 0 0 0 30.09647
5.1903906 13.605151 4.2727613 304 0 0 0 30.49375
4.2794948 14.297579 4.1933818 288 0 0 0 29.322929
4.5858998 14.055058 4.1547608 318 0 0 0 29.70647
-11.559307 14.722419 4.3158336 112 0 0 0 14.06798
-11.04266 14.795302 4.2570477 146 0 0 0 14.46612
3.8019285 14.649382 4.2517061 262 0 0 0 28.729179
2.9768915 15.262498 4.3662195 261 0 0 0 27.76083
3.3132946 15.016036 4.3183742 248 0 0 0 28.15414
-4.4123068 15.706103 4.1667171 206 0 0 0 20.328409
2.2862887 15.815965 4.2866898 222.5 0 0 0 26.981489
2.6365197 15.53746 4.2281523 242 0 0 0 27.36809
1.1549901 16.483013 4.2250953 240 0 0 0 25.80772
1.7386944 16.236107 4.1765299 220.5 0 0 0 26.394516
-28.530169 -23.434322 4.8417964 27 0 0 0 88.812759
-26.204792 -22.623415 4.5422068 25 0 0 0 88.424461
-30.156593 -20.170555 4.758337 34 0 0 0 90.401161
-21.737143 -19.717863 4.5819812 28 0 0 0 88.042389
-24.558626 -19.183594 4.8632307 8 0 0 0 89.214333
-23.399052 -19.220377 4.7265563 27 0 0 0 88.812759
-22.535618 -19.456209 4.6477613 14 0 0 0 88.424461
29.145863 -9.6424408 4.786284 17 0 0 0 54.757191
-9.1825905 -9.2008629 4.7681088 266 0 0 0 87.262413
-8.652873 -9.1060686 4.7620254 261 0 0 0 86.871399
-8.1573009 -9.0172682 4.6104784 304 0 0 0 86.474846
29.261616 -8.8896132 4.7681408 8 0 0 0 54.360458
28.628384 -4.9767585 4.5328875 22 0 0 0 52.399967
17.571014 -3.5024269 4.5742731 99 0 0 0 52.797821
25.841232 -3.1950493 4.7113514 15 0 0 0 51.6217
23.589256 -2.91749 4.8896089 8 0 0 0 51.6217
27.095713 -1.3364313 4.9080515 12 0 0 0 50.449741
26.038382 -0.64358008 4.7141323 20 0 0 0 50.055569
-10.717871 7.6848717 4.9825048 83 0 0 0 9.5795403
-10.274206 7.9514322 4.9085441 155 0 0 0 10.16862
-9.1547909 7.823885 4.5509043 118 0 0 0 10.94862
30.67374 7.6898522 4.937377 21 0 0 0 45.751999
-10.191105 8.2941704 4.9648948 166 0 0 0 10.55797
-9.9390793 8.0869923 4.5292139 114 0 0 0 10.55797
-9.0329494 8.1108284 4.5881734 119 0 0 0 11.33389
-8.7778292 8.2777443 4.5604191 209 0 0 0 11.72699
30.203779 8.3660593 4.8942628 7 0 0 0 45.368938
-9.136755 9.0542269 4.5483789 122 0 0 0 12.11976
-8.8941422 9.2558422 4.6947408 138 0 0 0 12.50089
-8.4325514 9.2141237 4.7223172 51 0 0 0 12.88951
-8.6822691 9.7257118 4.6112471 161 0 0 0 13.090685
-8.1682711 9.8553114 4.5278311 188 0 0 0 13.67612
9.9197578 9.9709473 4.8284974 195 0 0 0 37.1478
10.24863 9.8026218 4.694262 204 0 0 0 37.541649
10.627419 9.6744528 4.7566094 187 0 0 0 37.938499
11.079531 9.5969725 4.850379 189 0 0 0 38.324039
11.708741 9.6501818 4.6426797 178 0 0 0 38.72002
-7.5015359 10.008098 4.7305837 172 0 0 0 14.46612
9.3450832 10.368176 4.7917471 193.5 0 0 0 36.360111
9.6171036 10.155391 4.8015099 202.5 0 0 0 36.760353
8.7057047 10.853559 4.8332715 215 0 0 0 35.446049
9.0756264 10.582062 4.7854958 215 0 0 0 35.976662
7.9866371 11.417227 4.7818651 210 0 0 0 34.4048
8.2555246 11.203899 4.7766671 222.5 0 0 0 34.789513
8.5358458 11.002404 4.608654 215 0 0 0 35.180679
-32.809731 11.731727 4.5947599 47 0 0 0 5.0816298
7.4366193 11.830795 4.7949805 219 0 0 0 33.6157
7.710948 11.622139 4.7863035 235 0 0 0 34.0098
6.7974472 12.331574 4.7729115 259 0 0 0 32.711239
7.1613789 12.040756 4.806572 235.5 0 0 0 33.228649
6.1922207 12.799841 4.7023816 257.5 0 0 0 31.860077
5.4714775 13.343231 4.7674103 265 0 0 0 30.89122
5.7645402 13.128801 4.7406511 261 0 0 0 31.280041
4.8794522 13.794418 4.835568 254 0 0 0 30.09647
5.1826744 13.580412 4.8044491 240 0 0 0 30.49375
4.270155 14.26976 4.73631 243.5 0 0 0 29.322929
4.580205 14.040525 4.6970792 264.5 0 0 0 29.70647
-10.522062 14.841816 4.6410365 133 0 0 0 14.86479
-9.5472984 14.968482 4.9697027 111 0 0 0 15.63759
3.3049419 14.989716 4.6885562 183 0 0 0 28.15414
3.8495266 14.59167 4.7352586 268.33334 0 0 0 28.793386
2.9713671 15.247077 4.7440519 255 0 0 0 27.76083
-4.0078359 15.729119 4.9477973 209 0 0 0 20.724039
2.2763276 15.764709 4.8628869 200 0 0 0 26.981489
2.6307778 15.517753 4.805934 220 0 0 0 27.36809
1.152909 16.450666 4.6266761 252 0 0 0 25.80772
1.7959479 16.152098 4.6934571 219.33333 0 0 0 26.459311
-29.600636 -26.849653 5.2381077 7 0 0 0 88.042389
-31.825203 -24.858587 5.2925601 12 0 0 0 89.214333
-22.119249 -20.064426 5.4010391 25 0 0 0 88.042389
-26.667097 -18.79991 5.0901814 29 0 0 0 90.006638
-21.968584 -18.045609 5.1433606 45 0 0 0 88.812759
-22.715324 -17.74404 5.2142277 22 0 0 0 89.214333
33.078735 -11.850525 5.4729052 9 0 0 0 55.144981
-29.724731 -5.9307942 5.4824505 19 0 0 0 96.644066
25.543428 -5.7472272 5.3812003 19 0 0 0 53.185047
32.942841 -4.8951259 5.1901574 28 0 0 0 52.018448
23.391241 -2.8891716 5.4263644 14 0 0 0 51.6217
25.59071 -1.2627808 5.2687225 18 0 0 0 50.449741
25.382547 -0.003800327 5.2206526 4 0 0 0 49.66016
25.259804 0.61722308 5.1975613 10 0 0 0 49.275047
31.621281 7.1062226 5.0587282 7 0 0 0 46.141258
9.9030371 9.9570217 5.3388457 156 0 0 0 37.1478
10.228893 9.7899961 5.2085958 177 0 0 0 37.541649
10.602613 9.6580696 5.2755928 172.5 0 0 0 37.938499
11.050639 9.5783644 5.1987405 141 0 0 0 38.324039
11.673053 9.6201992 5.1893363 130 0 0 0 38.72002
9.3211193 10.344671 5.2936192 165 0 0 0 36.360111
9.5958643 10.135942 5.3063598 161 0 0 0 36.760353
-8.9877834 10.855069 5.3283758 43 0 0 0 13.67612
8.653347 10.88155 5.285058 170.5 0 0 0 35.379707
9.0474682 10.55244 5.2840652 169 0 0 0 35.976662
7.9761348 11.405777 5.2895403 201 0 0 0 34.4048
8.2473841 11.196254 5.2853451 181 0 0 0 34.789513
-32.768456 11.716863 5.4482517 42 0 0 0 5.0816298
7.4229398 11.812942 5.3014359 219 0 0 0 33.6157
7.6969981 11.604859 5.2919598 207 0 0 0 34.0098
-31.137913 12.000072 5.2250595 54 0 0 0 5.4730601
6.6952958 12.391629 5.2354069 201.66667 0 0 0 32.581718
7.1457424 12.018588 5.3126812 232 0 0 0 33.228649
-38.067204 12.574692 5.2838798 36 0 0 0 4.6953402
6.1773386 12.779343 5.217011 224.75 0 0 0 31.860075
5.4601288 13.327864 5.2917538 221.5 0 0 0 30.89122
5.7518826 13.111542 5.2611561 210.5 0 0 0 31.280041
4.869596 13.781175 5.1892881 210 0 0 0 30.09647
5.1676884 13.554865 5.1510992 210 0 0 0 30.49375
3.9444005 14.479137 5.3254952 207 0 0 0 28.921801
4.2622318 14.255538 5.2809849 184 0 0 0 29.322929
4.5691533 14.017994 5.2338023 224 0 0 0 29.70647
-11.021482 14.7676 5.1570597 88 0 0 0 14.46612
-9.5369692 14.94688 5.3981848 137 0 0 0 15.63759
3.3012257 14.971073 5.250494 192 0 0 0 28.15414
3.6309514 14.736303 5.198514 213.5 0 0 0 28.53656
2.8010688 15.364981 5.1565318 216 0 0 0 27.564461
-4.0000215 15.710697 5.3425016 176 0 0 0 20.724039
-3.611043 15.79399 5.3396206 96 0 0 0 21.10985
2.2777512 15.753256 5.2535701 180 0 0 0 26.981489
0.74275374 16.380142 5.2063155 203.5 0 0 0 25.412081
1.1502349 16.427662 5.2290673 181 0 0 0 25.80772
1.6702871 16.224264 5.2468543 174 0 0 0 26.329721
-62.740574 17.400255 5.3911643 20 0 0 0 3.91974
-62.733566 19.06637 5.429028 9 0 0 0 4.3014698
-28.346329 -21.042936 5.5047536 16 0 0 0 89.606888
-30.813988 -20.610193 5.7786932 13 0 0 0 90.401161
-23.262329 -20.083519 5.5571613 31 0 0 0 88.424461
-26.224903 -19.46842 5.9038186 36 0 0 0 89.606888
-26.809566 -17.93239 5.8306413 30 0 0 0 90.401161
-22.717854 -17.746031 5.9240179 45 0 0 0 89.214333
-23.30175 -17.298847 5.9635963 47 0 0 0 89.606888
29.377293 -13.912158 5.8712149 8 0 0 0 56.696339
28.968868 -9.5841484 5.5133352 49 0 0 0 54.757191
-27.885056 -5.5639868 5.8451347 37 0 0 0 96.644066
25.173779 -5.6598063 5.9358668 22 0 0 0 53.185047
43.712654 -5.3988338 5.7614188 24 0 0 0 51.6217
28.444286 -4.2283468 5.9073129 31 0 0 0 52.018448
27.532042 -2.7190459 5.6852622 8 0 0 0 51.226158
28.800579 -2.131053 5.9332509 25 0 0 0 50.834042
11.046515 9.5743551 5.555871 163 0 0 0 38.324039
11.612154 9.5729523 5.7181554 114 0 0 0 38.72002
12.674115 9.932353 5.7193127 25 0 0 0 39.10939
4.8680029 13.775855 5.5458698 209 0 0 0 30.09647
5.1645865 13.546018 5.5035796 181 0 0 0 30.49375
3.943397 14.474391 5.6918244 163 0 0 0 28.921801
4.2570519 14.237444 5.6389441 206 0 0 0 29.322929
4.5656204 14.006363 5.5909915 195 0 0 0 29.70647
3.2956753 14.95649 5.8089156 216 0 0 0 28.15414
3.6216152 14.70809 5.7461333 204 0 0 0 28.53656
2.7923312 15.345718 5.7238307 188.75 0 0 0 27.564461
-3.7941065 15.680481 5.7125072 205.5 0 0 0 20.916945
-3.2057819 15.766888 5.6975994 195 0 0 0 21.50032
2.2706473 15.741132 5.6395307 169 0 0 0 26.981489
0.33284554 16.254511 5.7618809 182 0 0 0 25.021681
0.73511875 16.302933 5.7841005 216 0 0 0 25.412081
1.1496042 16.47118 5.8522143 125 0 0 0 25.80772
1.7237924 16.141499 5.7553482 186.5 0 0 0 26.394516
-65.768578 16.516476 5.6138377 9 0 0 0 3.5242901
-28.675669 -20.215631 6.3393965 19 0 0 0 90.006638
-22.551386 -20.456367 6.25494 37 0 0 0 88.042389
-29.222097 -18.524666 6.2520685 12 0 0 0 90.79245
-24.926361 -17.573036 6.26542 16 0 0 0 90.006638
-24.995344 -15.845876 6.080945 16 0 0 0 90.79245
31.450079 -12.14727 6.0879288 12 0 0 0 55.529247
26.954315 -11.965092 6.0561366 17 0 0 0 56.310848
28.662344 -11.888741 6.3702664 12 0 0 0 55.927551
28.95137 -11.1835 6.3714542 12 0 0 0 55.529247
26.018372 -10.788291 6.4757175 24 0 0 0 55.927551
28.293852 -9.3613119 6.1196103 12 0 0 0 54.757191
26.267689 -7.277277 6.2681041 22 0 0 0 53.975609
-29.397081 -6.6195502 6.1919994 30 0 0 0 96.245468
26.513485 -6.6486177 6.2858996 12 0 0 0 53.578659
-25.718342 -5.7963595 6.0672555 29 0 0 0 96.245468
-27.023411 -5.3971186 6.340476 39 0 0 0 96.644066
32.92918 -4.8934488 6.012804 26 0 0 0 52.018448
45.731159 -4.5106564 6.0098262 15 0 0 0 51.226158
24.348793 -4.2306886 6.29495 8 0 0 0 52.399967
26.66198 -3.9594166 6.1998911 11 0 0 0 52.018448
24.799154 -3.0629227 6.3648596 12 0 0 0 51.6217
47.219975 -3.4887986 6.1916795 11 0 0 0 50.834042
24.347002 -1.7986677 6.2201595 6 0 0 0 50.834042
26.086849 -1.9264973 6.0187759 17 0 0 0 50.834042
26.760532 -1.3159679 6.1643043 9 0 0 0 50.449741
40.492153 -0.0033785587 6.3048229 14 0 0 0 49.66016
12.605351 9.8781986 6.0818648 33 0 0 0 39.10939
-37.954796 12.537344 6.2556052 32 0 0 0 4.6953402
-75.773483 15.128315 6.3931994 9 0 0 0 2.7376001
-10.737058 15.148988 6.1106353 78 0 0 0 14.86479
-10.234527 15.215588 6.0350642 98 0 0 0 15.25374
2.2708623 15.74047 6.0292864 155 0 0 0 26.981489
1.7247708 16.148518 6.1560612 148.5 0 0 0 26.394516
0.76224482 16.846704 6.3894725 113 0 0 0 25.412081
1.1565597 16.56098 6.2909555 172 0 0 0 25.80772
0.35469049 17.124788 6.4887013 120 0 0 0 25.021681
-25.827084 -21.214447 6.8629918 31 0 0 0 88.812759
-27.316431 -18.271368 6.748807 20 0 0 0 90.401161
-28.811621 -17.288683 6.8994303 29 0 0 0 91.18412
-23.997553 -16.924673 6.7527127 37 0 0 0 90.006638
-24.620653 -16.474884 6.8119879 22 0 0 0 90.401161
-25.47772 -15.294728 6.8330803 16 0 0 0 91.18412
-23.908058 -15.162648 6.5115056 31 0 0 0 90.79245
25.338463 -12.76723 6.5232677 10 0 0 0 57.096592
25.675394 -12.155876 6.5309982 11 0 0 0 56.696339
27.642895 -12.264658 6.9501252 20 0 0 0 56.310848
43.552917 -10.92135 6.9835196 17 0 0 0 53.578659
25.86322 -7.1655979 6.8317714 8 0 0 0 53.975609
-24.972994 -6.2762618 6.5590582 52 0 0 0 95.85952
-26.201838 -5.9053254 6.8402715 43 0 0 0 96.245468
-26.409683 -5.2746744 6.8587103 42 0 0 0 96.644066
28.593634 -4.9664378 6.6721582 11 0 0 0 52.399967
23.841652 -3.5419273 6.7402415 15 0 0 0 52.018448
37.692085 -3.7197137 6.8362732 24 0 0 0 51.226158
26.395418 -2.6030164 6.7539759 10 0 0 0 51.226158
28.213226 -2.7815223 6.519515 19 0 0 0 51.226158
-35.787186 12.799882 6.8879552 28 0 0 0 5.0816298
-33.971172 13.095804 6.5987201 6 0 0 0 5.4730601
-12.504427 15.937099 6.6649947 55 0 0 0 14.06798
-11.95643 16.031139 6.5803361 94 0 0 0 14.46612
-11.374025 16.043478 6.9525657 68 0 0 0 14.86479
-10.831919 16.099472 6.8603044 78 0 0 0 15.25374
-62.690067 17.385927 6.9653187 12 0 0 0 3.91974
-4.3404975 17.050964 6.6581964 119 0 0 0 20.724039
-3.9111972 17.109474 6.64223 101 0 0 0 21.10985
-0.065992534 17.495804 6.6267471 40 0 0 0 24.62216
-3.5971439 17.739073 6.8500357 63 0 0 0 21.50032
-23.819719 -19.572857 7.0876956 21 0 0 0 88.812759
-25.748198 -19.121613 7.3719454 19 0 0 0 89.606888
-24.391413 -19.059908 7.1163993 27 0 0 0 89.214333
43.781845 -12.128752 7.0653462 12 0 0 0 53.975609
25.412018 -11.276274 7.0755239 6 0 0 0 56.310848
28.699745 -11.080812 7.0695682 19 0 0 0 55.529247
24.785582 -10.27808 7.4972568 9 0 0 0 55.927551
26.475496 -10.22333 7.2221074 14 0 0 0 55.529247
26.550871 -9.5100651 7.1770487 24 0 0 0 55.144981
44.429214 -9.988061 7.0821552 18 0 0 0 53.185047
24.314272 -9.3901291 7.2838812 12 0 0 0 55.529247
24.795439 -8.8823786 7.3600674 19 0 0 0 55.144981
26.502047 -8.0481291 7.0492315 14 0 0 0 54.360458
-25.272604 -6.3515725 7.2848496 36 0 0 0 95.85952
