# .PCD v0.7 - Point Cloud Data file format
VERSION 0.7
FIELDS x y z intensity normal_x normal_y normal_z curvature
SIZE 4 4 4 4 4 4 4 4
TYPE F F F F F F F F
COUNT 1 1 1 1 1 1 1 1
WIDTH 911
HEIGHT 1
VIEWPOINT 0 0 0 1 0 0 0
POINTS 911
DATA ascii
4.8017325 3.8179126 -0.60101384 317 0 0 0 38.915321
5.2334409 3.7793124 -0.5907765 440.66666 0 0 0 39.64299
5.7661519 3.8783746 -0.58371747 615 0 0 0 40.170639
6.2734079 3.8862479 -0.62256968 549.5 0 0 0 40.7477
6.8581491 3.6842406 -0.65951616 258 0 0 0 41.725403
7.6975794 3.891645 -0.52075356 457 0 0 0 42.12048
8.1945076 3.8912404 -0.54989666 429 0 0 0 42.506802
8.7533197 3.8941634 -0.58313924 435 0 0 0 42.900581
9.3409195 3.8818274 -0.61809731 346 0 0 0 43.289822
9.526001 3.6860485 -0.62483603 164 0 0 0 43.673553
13.072562 3.6233821 -0.51089394 83 0 0 0 45.238239
-20.506506 4.0800138 -0.80381125 152 0 0 0 2.7281399
5.0290613 4.3734446 -0.55740559 135 0 0 0 38.21217
7.351203 4.3052073 -0.51323318 729.5 0 0 0 41.139027
13.232883 4.1996098 -0.52309465 100 0 0 0 44.647572
-20.889997 4.6904936 -0.82444406 39 0 0 0 3.1243601
-6.1357584 4.9802976 -0.66520083 417 0 0 0 10.51744
-5.623147 4.7920904 -0.61906308 397 0 0 0 10.90956
13.136967 4.7092872 -0.52527726 41 0 0 0 44.07272
7.853631 5.2721338 -0.57316637 567 0 0 0 40.170639
-9.2657585 5.5160904 -0.65812087 426 0 0 0 8.1852503
-5.9785681 5.6290026 -0.69364941 769 0 0 0 11.68173
-5.267746 7.5853796 -0.6736145 508.5 0 0 0 15.011246
-4.8982682 7.6347022 -0.77261239 924.66669 0 0 0 15.591281
-4.4216609 7.6939297 -0.75488514 901 0 0 0 16.371929
-8.583581 8.1136513 -0.72729504 295 0 0 0 11.68173
-9.596077 9.5368328 -0.83969039 216 0 0 0 12.08025
4.9713798 9.9671125 -0.67949176 410 0 0 0 31.96789
12.423146 9.7230339 -0.97933817 168 0 0 0 38.991089
4.6315546 10.213297 -0.82333767 253.25 0 0 0 31.381794
-18.52747 11.078922 -0.83627862 22 0 0 0 8.1852503
-10.113915 11.095778 -0.93696642 71 0 0 0 12.8483
12.074099 -21.333832 -0.39641449 24 0 0 0 66.320793
11.799453 -19.705826 -0.36898044 20 0 0 0 65.930763
11.542524 -18.246845 -0.34448975 29 0 0 0 65.547989
11.37093 -17.036661 -0.32474157 27 0 0 0 65.146675
11.239388 -15.977223 -0.30779731 22 0 0 0 64.757919
12.503929 -15.253929 -0.31038108 100 0 0 0 63.588367
13.049031 -15.145082 -0.3147738 74 0 0 0 63.200981
13.639186 -15.065941 -0.32025367 130 0 0 0 62.80595
11.025928 -14.14629 -0.27912828 128 0 0 0 63.981274
13.572082 -14.272289 -0.30883831 208 0 0 0 62.417431
13.84777 -13.86458 -0.30668318 120 0 0 0 62.025009
13.711973 -13.071358 -0.29482457 91 0 0 0 61.629009
13.671082 -12.406884 -0.28592342 117 0 0 0 61.239738
13.280518 -11.471618 -0.2694982 439 0 0 0 60.841473
13.382895 -10.998496 -0.26506808 20 0 0 0 60.454273
13.365341 -10.4455 -0.25830621 19 0 0 0 60.071701
-14.598278 -8.7637463 -0.2416877 295 0 0 0 90.959877
-13.759292 -8.7272186 -0.23005581 372 0 0 0 90.566574
-12.800739 -8.5677958 -0.21586123 5 0 0 0 90.178635
-10.448874 -8.1700258 -0.18182804 579 0 0 0 88.997643
-9.8128796 -8.0677967 -0.32821718 483.5 0 0 0 88.597534
-9.264926 -8.0082636 -0.16572675 644 0 0 0 88.215607
11.025746 -8.191721 -0.20162904 796 0 0 0 59.672421
-10.169346 -7.5561309 -0.32681388 722 0 0 0 89.385033
-9.2454329 -7.9887104 -0.46402937 641 0 0 0 88.215607
-8.7255421 -7.9236016 -0.30244648 720 0 0 0 87.821922
-8.2404709 -7.8611178 -0.29142851 846 0 0 0 87.432968
-7.7928915 -7.8087234 -0.28120703 795 0 0 0 87.043297
-7.3454132 -7.7312555 -0.27100968 998 0 0 0 86.657951
-6.7546539 -7.6539583 -0.13366649 928 0 0 0 86.063126
-6.2103696 -7.5842409 -0.2470344 1185.5 0 0 0 85.475159
-5.8559084 -7.5207767 -0.2394338 1303 0 0 0 85.083549
11.175564 -7.8848562 -0.20017412 330 0 0 0 59.2864
-10.557549 -7.4491787 -0.33294079 218 0 0 0 89.781952
-6.7696056 -7.4842439 -0.37826234 253 0 0 0 86.262077
-6.0334682 -7.0100288 -0.34396562 780 0 0 0 85.864166
-5.5402684 -7.4875345 -0.23339321 1350.5 0 0 0 84.692909
-5.2284441 -7.4413691 -0.22724539 1390 0 0 0 84.293915
-4.7924943 -7.382349 -0.21917894 1436 0 0 0 83.714211
-4.2505803 -7.3094001 -0.20966402 1653.25 0 0 0 82.939484
-3.7012832 -7.2228813 -0.23222481 1404.6666 0 0 0 82.088112
-3.1580639 -7.1434031 -0.19191608 1350.5 0 0 0 81.170235
-2.7232294 -7.0729432 -0.27805871 1328.875 0 0 0 80.395058
-2.3102419 -7.011888 -0.27026665 1565.3334 0 0 0 79.612175
11.066595 -7.2148719 -0.1914821 21 0 0 0 58.701187
-3.0650232 -6.501008 -0.085842796 131 0 0 0 81.573586
-2.1131094 -6.984735 -0.26690021 1574 0 0 0 79.225121
-1.732229 -6.9293818 -0.26095423 1427.8889 0 0 0 78.443092
-1.1863419 -6.8497338 -0.23227893 1422.125 0 0 0 77.267128
-0.75078171 -6.7860723 -0.24865346 1520 0 0 0 76.294853
-0.41311094 -6.737411 -0.24577804 1259.6666 0 0 0 75.509346
0.16202091 -6.648499 -0.2825231 857.75 0 0 0 74.141685
1.2921489 -6.5162249 -0.16131404 1789 0 0 0 71.402176
10.918438 -6.558382 -0.33850193 14.5 0 0 0 58.117287
-3.4117789 -6.0400801 -0.42020109 129 0 0 0 82.741768
-2.6774735 -6.0581131 -0.40018508 1117 0 0 0 81.170235
-0.14783394 -6.04532 -0.21648213 326.5 0 0 0 74.925323
1.4096569 -6.483521 -0.28245795 1752 0 0 0 71.108597
1.7758566 -6.4364061 -0.24395984 1629.6666 0 0 0 70.231041
2.2698092 -6.3623018 -0.24742778 1432.1111 0 0 0 69.060402
2.7834606 -6.2966433 -0.25292882 1508.6666 0 0 0 67.887421
3.2361166 -6.255589 -0.25955552 1653.1666 0 0 0 66.914124
10.904287 -6.1909223 -0.33257467 13 0 0 0 57.721489
-3.093092 -5.9781818 -0.24223423 124.5 0 0 0 82.153076
-2.8170462 -5.9740047 -0.3179923 210.5 0 0 0 81.573586
-2.2627084 -5.8840141 -0.22526748 104 0 0 0 80.398788
-0.073776767 -5.7558031 -0.33977854 866.5 0 0 0 74.727768
0.13654098 -5.5964065 -0.4729082 41 0 0 0 74.144463
10.878803 -5.8281431 -0.32637757 12.5 0 0 0 57.330158
-0.90554106 -5.2371464 -0.38065583 196.5 0 0 0 77.269615
-0.0003229813 -5.4662323 -0.32583123 179 0 0 0 74.530205
0.19440487 -5.2858605 -0.25125754 2796 0 0 0 73.94603
3.9065351 -5.2851315 -0.24009709 661 0 0 0 64.375519
10.765315 -5.2680287 -0.31531999 21.5 0 0 0 56.743362
10.717388 -4.76266 -0.30704445 19 0 0 0 56.164352
0.17505461 -4.0700893 -0.25936842 185.75 0 0 0 73.846809
10.621521 -4.2601423 -0.29818416 115.5 0 0 0 55.572933
-28.364004 -3.5041778 -0.42741203 36 0 0 0 97.588081
-15.992798 -3.5993729 -0.23043947 153 0 0 0 96.019203
10.52763 -3.777389 -0.28972709 30 0 0 0 54.988098
-22.844107 -3.3949785 -0.33879849 15 0 0 0 97.187531
-18.964584 -3.2976141 -0.27667412 64 0 0 0 96.797791
-16.124788 -3.2149355 -0.23134208 112 0 0 0 96.413345
10.277031 -3.1270137 -0.27625373 1346.5 0 0 0 54.210327
10.616239 -3.3233292 -0.2416835 266.66666 0 0 0 54.343441
10.791153 -2.9961874 -0.42615119 691 0 0 0 53.818001
11.52379 -2.8952436 -0.30823976 463.5 0 0 0 53.431889
12.38711 -2.7899113 -0.33160618 439.5 0 0 0 53.041889
13.262999 -2.6451423 -0.18958819 384 0 0 0 52.653061
14.306561 -2.4889436 -0.20564455 336 0 0 0 52.256222
15.455709 -2.2987027 -0.22337368 298 0 0 0 51.866901
16.825783 -2.0808806 -0.24470446 270 0 0 0 51.482201
18.414595 -1.8188608 -0.26956296 225 0 0 0 51.095322
20.448471 -1.5131527 -0.30167755 108 0 0 0 50.6973
21.397711 -1.0554515 -0.31571969 77 0 0 0 50.304314
21.099821 -0.5215295 -0.3092972 52 0 0 0 49.915058
20.83782 -0.0028495367 -0.30369124 65 0 0 0 49.531311
20.436283 0.49957716 -0.29600626 70 0 0 0 49.131741
20.23962 0.99294704 -0.29188418 43 0 0 0 48.744991
20.138958 1.4851352 -0.29004455 36 0 0 0 48.363873
19.837233 1.9542124 -0.28512254 33 0 0 0 47.969799
19.569448 2.4149175 -0.28094864 58 0 0 0 47.577621
19.347528 2.8720529 -0.27771041 41 0 0 0 47.19083
-2.7430511 3.3360703 -0.23933771 225.14999 0 0 0 13.835462
-2.4689529 3.4078779 -0.07896325 56 0 0 0 14.81552
19.109158 3.3187642 -0.27439228 62 0 0 0 46.800201
-7.2595854 3.8444183 -0.48999229 279 0 0 0 7.3957601
-6.1657939 3.8607824 -0.25312591 559 0 0 0 8.5643797
-5.9392228 3.922353 -0.2469497 716 0 0 0 8.9630499
-2.3714371 3.843586 -0.36086011 10.5 0 0 0 15.98239
-1.7841011 3.7467697 -0.27637586 104.53333 0 0 0 17.717203
-1.2607002 3.9416833 -0.43112746 40 0 0 0 19.878468
-0.85491246 3.9823363 -0.42398357 21.666666 0 0 0 21.43202
1.2874247 3.8697395 -0.22298142 67.428574 0 0 0 29.846777
1.5975401 3.7173653 -0.12311133 184 0 0 0 31.18907
7.2999973 3.9204597 -0.49854368 414 0 0 0 41.723808
8.9209957 3.9687817 -0.23558259 28.5 0 0 0 42.900581
11.032704 3.9587021 -0.14806354 14 0 0 0 44.07272
18.888092 3.7610052 -0.27153847 64 0 0 0 46.411598
-25.444433 4.4178071 -0.3739346 55 0 0 0 2.33462
-20.548849 4.0845685 -0.29562554 39 0 0 0 2.7281399
-6.1819272 4.2420073 -0.31596065 722 0 0 0 9.2369633
-5.9427767 4.1369853 -0.2521421 526 0 0 0 9.3467903
-1.749339 4.23561 -0.25682637 122.57143 0 0 0 18.539415
-1.2423073 4.2622156 -0.35693213 46.799999 0 0 0 20.26713
-0.70493746 4.2128258 -0.37529275 28.166666 0 0 0 22.145346
-0.2645523 4.1789913 -0.38445124 38.799999 0 0 0 23.769705
0.25405365 4.2087445 -0.38758296 32.200001 0 0 0 25.724203
0.75945139 4.2143879 -0.4004055 40.111111 0 0 0 27.589029
1.1680624 4.1997981 -0.23324743 82.63636 0 0 0 29.052624
4.7858415 4.0601282 -0.29005575 629 0 0 0 38.409737
5.423821 4.4851632 -0.070651919 159 0 0 0 38.6073
5.5227294 4.341239 -0.15672861 969 0 0 0 38.991089
7.7697959 4.1697035 -0.24394476 598 0 0 0 41.725399
8.3136902 4.0718331 -0.33448476 395.5 0 0 0 42.313641
11.363918 4.3940177 -0.45343614 322 0 0 0 43.673553
18.643269 4.1913705 -0.26847538 47 0 0 0 46.019207
-20.229303 4.537621 -0.29234341 121 0 0 0 3.1243601
-9.5743103 4.7860026 -0.13234496 152 0 0 0 7.0055099
-9.0753393 4.5363708 -0.36924648 154 0 0 0 7.0055099
-8.5873661 4.5556846 -0.35216862 235 0 0 0 7.3957601
-6.1973696 4.9056225 -0.27959859 526 0 0 0 10.32457
-5.6510029 4.7199697 -0.33019289 699.20001 0 0 0 10.75304
-1.7252779 4.7542763 -0.18100967 148.42857 0 0 0 19.210985
-1.2875555 4.6991339 -0.25079781 98.599998 0 0 0 20.500942
-0.75049525 4.655333 -0.26583785 64.800003 0 0 0 22.209232
-0.23195615 4.7125545 -0.26590365 83.25 0 0 0 23.965788
0.23508166 4.7412214 -0.26768705 55 0 0 0 25.529425
0.70471579 4.7161188 -0.26896787 55.5 0 0 0 27.089439
1.1234388 4.7005754 -0.20138796 125 0 0 0 28.452606
5.4040322 4.697598 -0.072471999 819 0 0 0 38.21217
7.3544922 4.9384637 -0.31688946 591 0 0 0 40.170639
7.5311594 4.6638746 -0.317316 573.5 0 0 0 40.7477
8.6895866 4.943337 -0.11842895 543 0 0 0 41.331913
11.68149 4.8501601 -0.47174048 302 0 0 0 43.289822
18.669121 4.6822052 -0.27004978 33 0 0 0 45.626926
-9.5989418 5.0954208 -0.13521352 314 0 0 0 7.3957601
-9.2063551 5.2772336 -0.21552469 298.66666 0 0 0 7.9229836
-8.7265282 5.4835353 -0.12670211 618 0 0 0 8.5643797
-5.8061743 5.1999531 -0.37078941 273 0 0 0 11.295645
-5.2543182 5.3141336 -0.17282675 543.25 0 0 0 12.271025
-4.9315057 5.3655853 -0.078527145 841 0 0 0 12.8483
-1.8349072 5.3697267 -0.051929597 218.66667 0 0 0 19.489267
-1.2301632 5.010263 -0.16890614 76.666664 0 0 0 20.91503
-0.74603033 5.057066 -0.16681291 128.25 0 0 0 22.403172
-0.2458633 5.1093984 -0.16671242 211.75 0 0 0 23.965788
0.2607111 5.1480112 -0.16802582 159.75 0 0 0 25.529425
0.77861804 5.1661615 -0.17054704 100.75 0 0 0 27.089439
1.1133568 5.1968565 -0.10863607 272.5 0 0 0 28.069929
7.4174132 5.2507758 -0.21371341 849.5 0 0 0 39.774567
7.7313223 5.0526228 -0.10580418 851.5 0 0 0 40.359947
18.783241 5.2048254 -0.27329487 46 0 0 0 45.238239
-5.8477993 5.5022788 -0.090500779 600 0 0 0 11.68173
-5.3541727 5.8346791 -0.28093782 242 0 0 0 12.8483
-1.5955101 5.5412021 -0.05325219 253 0 0 0 20.265079
-1.2316459 5.527575 -0.051493715 175.25 0 0 0 21.23888
-0.74599284 5.5646939 -0.050324768 333 0 0 0 22.598883
-0.26450258 5.6093044 -0.049961492 198.75 0 0 0 23.965788
0.22231437 5.6724591 -0.05050518 253 0 0 0 25.33329
0.72574008 5.7366285 -0.051759325 140.75 0 0 0 26.701227
1.0733086 5.6690588 -0.051229432 379 0 0 0 27.670679
18.86656 5.7309194 -0.27626151 69 0 0 0 44.840881
3.3335719 6.3249846 -0.24709031 498 0 0 0 32.359692
3.6961811 6.2461452 -0.073666081 368 0 0 0 33.126759
18.832731 6.2303634 -0.27749804 55 0 0 0 44.454262
3.4310358 6.5096703 -0.075263344 521 0 0 0 32.359692
8.7647791 6.5276241 -0.39906612 418 0 0 0 39.379841
4.1524582 7.412796 -0.19678241 293 0 0 0 32.741241
9.7031202 7.2252908 -0.14948633 81 0 0 0 39.379841
18.972599 7.3296094 -0.28416464 46 0 0 0 43.673553
-5.134594 7.5891156 -0.22075547 908 0 0 0 15.20697
-4.8886886 7.6198292 -0.21753001 1081 0 0 0 15.59128
-4.4099207 7.6734428 -0.21181054 1011.5 0 0 0 16.371929
-9.3074875 8.3808117 -0.46857461 157 0 0 0 11.29694
-8.996314 8.0953989 -0.15711714 257 0 0 0 11.29694
-12.155892 8.9702272 -0.20573182 223 0 0 0 9.73734
18.622726 8.8226681 -0.28643364 43 0 0 0 42.506802
4.9713411 9.9688148 -0.27026019 701.5 0 0 0 31.96789
18.36128 9.8318071 -0.28861874 45 0 0 0 41.723808
-13.046369 10.135158 -0.22902344 278 0 0 0 10.1317
-12.709856 10.381776 -0.22739476 263 0 0 0 10.51744
4.7367678 10.114328 -0.27113247 583.5 0 0 0 31.57452
18.453566 11.081013 -0.29824325 61 0 0 0 40.94614
11.612234 -18.350504 0.1837182 30 0 0 0 65.547989
-31.429604 -17.824446 0.33238387 16 0 0 0 91.344414
11.41069 -17.090342 0.17600204 61 0 0 0 65.146675
9.9973898 -16.692739 0.16829842 335 0 0 0 65.930763
11.283696 -16.034807 0.16982442 212 0 0 0 64.757919
12.819437 -16.439547 0.17875667 73 0 0 0 63.981274
13.389174 -16.327627 0.1808975 74 0 0 0 63.588367
13.801661 -16.012753 0.18141447 142 0 0 0 63.200981
13.697676 -15.125844 0.17677578 214 0 0 0 62.80595
11.106156 -14.988206 0.16359408 179 0 0 0 64.375519
13.594643 -14.291645 0.17250217 89 0 0 0 62.417431
13.631747 -13.644404 0.16991284 326 0 0 0 62.025009
13.515093 -12.880009 0.16609338 344 0 0 0 61.629009
13.416101 -12.172092 0.16271259 367 0 0 0 61.239738
13.289233 -11.475687 0.15932016 250 0 0 0 60.841473
13.19916 -10.844416 0.1564915 336 0 0 0 60.454273
13.132071 -10.260313 0.15406896 523 0 0 0 60.071701
-14.614562 -8.7767544 0.17460707 289 0 0 0 90.959877
-13.725411 -8.70893 0.16781907 495 0 0 0 90.566574
-11.489491 -8.5394583 0.15109457 8 0 0 0 89.385033
11.092497 -8.6724644 0.48747689 698 0 0 0 60.071701
-11.964824 -8.4445219 0.15406761 6 0 0 0 89.781952
-10.505317 -8.2138519 0.47578561 408 0 0 0 88.997643
-10.473769 -8.1922884 0.14252742 645 0 0 0 88.997643
10.792996 -8.0166235 0.13193876 633 0 0 0 59.672421
11.030138 -8.1959496 0.47710466 800 0 0 0 59.672421
10.843115 -7.6499906 0.29879454 831.5 0 0 0 59.2864
-8.7853012 -7.2270813 0.26871818 287 0 0 0 88.597534
-8.2965851 -7.17418 0.26006886 283.5 0 0 0 88.215607
-7.8196745 -7.1051388 0.25139922 321.5 0 0 0 87.821922
-7.3849974 -7.0492024 0.24389178 423 0 0 0 87.432968
10.789761 -7.2225766 0.29374108 880.5 0 0 0 58.898178
-6.7812538 -6.9656448 0.23353601 617.75 0 0 0 86.850624
-6.2319918 -6.894907 0.22447848 748 0 0 0 86.262077
-5.7243495 -6.8201118 0.21630213 494.5 0 0 0 85.669662
-5.2552233 -6.7537112 0.20878007 538.5 0 0 0 85.083549
-4.822928 -6.6906667 0.20209727 531.25 0 0 0 84.493408
-4.2886262 -6.6104636 0.29118922 591.5 0 0 0 83.714211
-3.8037927 -6.5455184 0.28069654 616.66669 0 0 0 82.939476
0.16393457 -6.6782036 0.2717579 766.14288 0 0 0 74.139694
1.377933 -6.5244241 0.24751686 1015.5 0 0 0 71.206451
10.718309 -6.8000822 0.28817245 985 0 0 0 58.5042
-27.625309 -6.2158308 0.26993623 61 0 0 0 96.019203
-3.2456572 -6.4649944 0.26925671 676.55554 0 0 0 81.959915
-2.7309952 -6.3913593 0.25951818 646.66669 0 0 0 80.976112
-2.2564497 -6.3242702 0.27223963 613.25 0 0 0 80.005524
-1.7241683 -6.2500806 0.24348766 464.11111 0 0 0 78.834305
-1.2259089 -6.1832051 0.25671092 437.5 0 0 0 77.660294
-0.7524876 -6.1236463 0.23250061 487.55554 0 0 0 76.487625
-0.29580441 -6.0523138 0.22872284 471.44446 0 0 0 75.314667
1.456616 -6.4989653 0.081758082 1987 0 0 0 71.010735
1.7844321 -6.4633846 0.24818312 1702.6666 0 0 0 70.231026
2.2787201 -6.3841395 0.25041804 1609.5555 0 0 0 69.060402
2.7917895 -6.3132052 0.25432867 1589.1111 0 0 0 67.887421
3.2446377 -6.269979 0.25925484 1567 0 0 0 66.914124
10.686152 -6.3002877 0.33362985 1080.3334 0 0 0 57.985352
-2.135633 -5.9935312 0.082573794 73 0 0 0 80.00563
10.461743 -5.7702146 0.12332071 1096.5 0 0 0 57.525826
10.671616 -5.7172914 0.42697588 1219 0 0 0 57.330158
-26.953997 -5.3731265 0.26287231 57 0 0 0 96.413345
-1.0401161 -5.2573714 0.074342534 69 0 0 0 77.659447
0.12871343 -5.218256 0.13709825 279.5 0 0 0 74.144463
2.8908243 -5.1195931 0.15000527 123.5 0 0 0 66.320793
3.007988 -5.0361009 0.22263707 272 0 0 0 65.930763
3.815484 -5.1616621 0.24057144 49 0 0 0 64.375519
10.385899 -5.2378469 0.12156249 1150 0 0 0 56.942913
10.591545 -5.1834373 0.41744518 1238 0 0 0 56.743362
-26.958977 -4.6888385 0.26167923 80 0 0 0 96.797791
10.304652 -4.7304926 0.11999956 1185 0 0 0 56.35408
10.516225 -4.6734695 0.40886652 1206 0 0 0 56.164352
-26.990202 -4.0139942 0.26081234 27 0 0 0 97.187531
10.365719 -4.2052827 0.3068293 1255.6666 0 0 0 55.638386
10.33159 -3.8010337 0.21070182 843 0 0 0 55.117588
-26.941076 -3.332581 0.25937873 88 0 0 0 97.588081
10.318077 -3.2784071 0.25350201 1186.5 0 0 0 54.408241
10.860994 -3.0136275 0.26329601 729.5 0 0 0 53.818001
11.609015 -2.9154491 0.27799362 463.5 0 0 0 53.431889
12.426638 -2.797586 0.29403788 506.5 0 0 0 53.041889
13.328377 -2.6578088 0.31166726 304.5 0 0 0 52.653061
14.332127 -2.4914203 0.14966846 387 0 0 0 52.256222
15.518048 -2.3058574 0.15922618 291 0 0 0 51.866901
16.861628 -2.0830474 0.17016135 239 0 0 0 51.482201
18.529261 -1.8277079 0.18382047 161 0 0 0 51.095322
20.566519 -1.5191644 0.20062818 120 0 0 0 50.6973
22.941183 -1.1284463 0.22039729 66 0 0 0 50.304314
27.083078 -0.66555887 0.25464356 39 0 0 0 49.915058
-2.7197514 3.3188784 0.27174851 278.94736 0 0 0 13.86646
-2.4313784 3.3529613 0.27294976 117.2 0 0 0 14.815519
-5.7264376 3.8773353 0.26483005 706.25 0 0 0 9.1549206
-5.1740885 3.8807693 0.25129166 669.75 0 0 0 9.9345198
-4.8954725 3.9576662 0.090135716 680 0 0 0 10.51744
-2.325357 3.7655706 0.23713401 26.25 0 0 0 15.98239
-1.8679335 3.8100975 0.28041929 73.400002 0 0 0 17.536633
1.3316056 3.8677008 0.27771777 74 0 0 0 30.01512
2.6313481 3.8039932 0.42528898 19 0 0 0 34.299431
4.7200789 3.9081511 0.17051058 48.5 0 0 0 38.6073
5.0746975 3.9916129 0.41670173 921 0 0 0 38.991089
8.9658241 3.9885781 0.36899564 220 0 0 0 42.900581
11.107533 3.9871686 0.139523 18 0 0 0 44.07272
-24.496988 4.2480583 0.246646 118 0 0 0 2.33462
-20.714336 4.1136718 0.21527614 164 0 0 0 2.7281399
-8.3979187 4.3193741 0.11668438 341 0 0 0 7.200635
-6.1208911 4.1517258 0.28197545 606.5 0 0 0 9.1549206
-5.0027099 4.0471869 0.40578756 737 0 0 0 10.51744
-4.8750143 4.1433039 0.24901706 752.5 0 0 0 10.90956
-2.0558653 4.3926768 0.31759816 373.66666 0 0 0 17.79529
-1.8786894 4.275641 0.15591741 96 0 0 0 18.183867
1.3057271 4.3179531 0.25016579 114.66666 0 0 0 29.405107
1.5104746 4.3695602 0.080015302 111 0 0 0 30.01512
4.3821282 4.255127 0.30701059 736.79999 0 0 0 37.353691
4.6653152 4.0926747 0.27449247 671.66669 0 0 0 38.146915
8.2783375 4.31389 0.23705456 635.5 0 0 0 41.922142
8.5822067 4.1642175 0.20053451 590.66669 0 0 0 42.378025
-20.449606 4.5833464 0.2137035 120 0 0 0 3.1243601
-9.4454441 4.7209611 0.38735768 180 0 0 0 7.0055099
-8.2604675 4.7301483 0.27452585 560.33331 0 0 0 7.9229836
-6.1559215 4.5134583 0.28972846 591 0 0 0 9.73734
-5.7322388 4.6420717 0.28124601 386 0 0 0 10.52063
-2.1084538 4.9341774 0.34636253 188 0 0 0 18.314301
-1.8612305 4.6572652 0.20750405 169 0 0 0 18.707741
1.2143936 4.8095956 0.23776911 82.25 0 0 0 28.64402
4.361382 4.6262865 0.4111684 669 0 0 0 36.65316
7.9656215 4.7983761 0.1205094 691 0 0 0 40.94614
8.0327349 4.5728536 0.11972671 974 0 0 0 41.331913
8.6912527 4.9434853 0.37652925 574 0 0 0 41.331913
9.2803001 4.978734 0.394178 539 0 0 0 41.723808
-9.4240751 5.0017395 0.39085165 484 0 0 0 7.3957601
-8.5701971 5.3843656 0.3722941 658 0 0 0 8.5643797
-6.1956725 5.0276957 0.30108905 317 0 0 0 10.51744
-5.7455335 5.271594 0.10214446 608.5 0 0 0 11.489335
-5.3202906 5.3784504 0.10021585 784.5 0 0 0 12.271025
-1.8755976 5.0629563 0.2155273 340.33334 0 0 0 19.10322
1.0872066 5.0847225 0.14968218 195.5 0 0 0 28.069929
4.7117972 5.1619153 0.33447599 828 0 0 0 36.387081
12.335718 5.4846315 0.15540402 91 0 0 0 42.900581
-9.3709335 5.5748215 0.12815857 493 0 0 0 8.1852503
-5.5783248 5.509788 0.29650483 496 0 0 0 12.08025
-5.1483841 5.6032228 0.10054829 1138 0 0 0 12.8483
-1.9410881 5.6844044 0.23559968 479.33334 0 0 0 19.490391
1.1455327 5.5993171 0.28719425 206.60001 0 0 0 27.9069
3.3750658 5.7103186 0.34492254 381 0 0 0 33.126759
3.7096195 5.770175 0.35408872 353 0 0 0 33.718987
4.2977538 5.5646439 0.45045197 681 0 0 0 35.08857
-2.0262661 6.4756269 0.34620762 658 0 0 0 19.874189
-1.753107 6.1065965 0.091686539 242.33333 0 0 0 20.266243
-1.2848157 6.1471653 0.09145689 163 0 0 0 21.43202
-0.74711603 6.1917725 0.091675326 171.75 0 0 0 22.793274
-0.21163535 6.2383423 0.092302494 204 0 0 0 24.162231
0.25502536 6.3403268 0.093709327 247.66667 0 0 0 25.33329
0.77095371 6.3206253 0.19499643 240.66667 0 0 0 26.635824
1.0245637 6.2220407 0.17313506 515.5 0 0 0 27.28632
3.249979 6.1687894 0.33386114 347.66666 0 0 0 32.356274
3.7687218 6.3667693 0.10522055 496.66666 0 0 0 33.132015
4.1945057 6.180788 0.38432553 305.5 0 0 0 34.104679
4.602283 6.1615462 0.36402532 323.33334 0 0 0 34.824116
5.4243727 6.3390079 0.32251161 277 0 0 0 35.862991
8.6562166 6.4482708 0.40497491 198 0 0 0 39.379841
9.288126 6.2307162 0.41756123 39 0 0 0 40.170639
-1.7822529 6.8720284 0.27452064 288 0 0 0 20.657022
-1.2645861 6.9439292 0.27376556 282 0 0 0 21.81971
0.94405097 6.7356057 0.26957217 376.66666 0 0 0 26.89744
3.3008082 6.6543369 0.29101646 233 0 0 0 31.96789
5.4436727 6.68683 0.33199883 248 0 0 0 35.47739
8.6737261 6.7993431 0.41298249 221 0 0 0 38.991089
9.2278366 6.5281949 0.13918582 109 0 0 0 39.774567
9.8477945 6.9617648 0.4475435 124 0 0 0 39.774567
27.698942 6.9467478 0.27928889 143 0 0 0 45.626926
-2.1158171 7.4256358 0.48327786 549 0 0 0 20.265079
-0.7531926 7.0575356 0.275767 266.33334 0 0 0 22.987833
-0.23276907 7.1581268 0.27861837 302.66666 0 0 0 24.162231
0.30107379 7.2474594 0.28240547 318 0 0 0 25.33329
0.76279378 7.3704457 0.2882148 307.5 0 0 0 26.310575
4.0140285 7.169591 0.31792861 465 0 0 0 32.741241
11.787737 7.4901261 0.16204853 117 0 0 0 40.549259
-5.1258726 7.5730228 0.22655173 981 0 0 0 15.20697
-4.8787327 7.6009769 0.22436208 1155 0 0 0 15.59128
-4.40135 7.6549711 0.22034924 1147.5 0 0 0 16.371929
0.89054501 7.6637764 0.48733187 667 0 0 0 26.503321
27.366375 7.5828433 0.27889612 199 0 0 0 45.238239
-9.1732597 8.2559404 0.44516122 39 0 0 0 11.29694
-8.9486513 8.4587498 0.44423693 32 0 0 0 11.68173
11.220069 8.3524971 0.16346721 135 0 0 0 39.379841
27.049042 8.215848 0.27874458 186 0 0 0 44.840881
10.91976 8.5550089 0.1628278 100 0 0 0 38.991089
26.704884 8.8338165 0.27847186 152 0 0 0 44.454262
-9.0736094 9.4640837 0.47058564 296 0 0 0 12.4618
-15.296187 9.6468592 0.18627861 185 0 0 0 8.5643797
4.9554701 9.9434071 0.13830069 589 0 0 0 31.96789
5.2228642 9.858942 0.41762555 284 0 0 0 32.359692
6.0506372 9.6267176 0.425125 295 0 0 0 33.528049
4.7339926 10.112539 0.27816805 532.5 0 0 0 31.57452
26.083355 10.075512 0.278869 217 0 0 0 43.673553
3.701612 10.905775 0.42899483 411 0 0 0 29.818451
4.0444436 10.617537 0.14013518 249 0 0 0 30.41008
25.815722 10.708511 0.27965406 48 0 0 0 43.289822
24.816442 16.609091 0.30342948 63 0 0 0 40.170639
11.670527 -18.450317 0.7293452 48 0 0 0 65.547989
11.486883 -17.211483 0.6933912 239 0 0 0 65.146675
13.968515 -17.040211 0.73711622 129 0 0 0 63.588367
11.28785 -16.047255 0.65955228 177 0 0 0 64.757919
13.804933 -16.022882 0.70938134 119 0 0 0 63.200981
13.990777 -15.455285 0.70015705 46 0 0 0 62.80595
8.3211031 -14.709229 0.98607755 309 0 0 0 66.320793
8.7621822 -14.63912 0.99526685 230 0 0 0 65.930763
13.854699 -14.570507 0.6769895 35 0 0 0 62.417431
13.779335 -13.797439 0.65812308 66 0 0 0 62.025009
14.420142 -13.747037 0.67207414 115 0 0 0 61.629009
14.932577 -13.551786 0.68030518 65 0 0 0 61.239738
13.289565 -11.480633 0.59775156 431 0 0 0 60.841473
13.216058 -10.862745 0.58374089 477 0 0 0 60.454273
13.327939 -10.418079 0.99227995 27 0 0 0 60.071701
-14.676356 -8.8100929 0.60266751 225 0 0 0 90.959877
-13.728807 -8.7074242 0.77290559 550 0 0 0 90.566574
-12.924702 -8.6501865 0.7404393 75.5 0 0 0 90.178635
-12.09446 -8.5324631 0.70656002 103.5 0 0 0 89.781952
-11.361238 -8.4410381 0.67652583 128 0 0 0 89.385033
-10.509472 -8.2169838 0.8025797 537 0 0 0 88.997643
11.19519 -8.3188839 0.82513851 147 0 0 0 59.672421
10.963681 -7.7370362 0.79574341 714 0 0 0 59.2864
-8.810853 -7.2478924 0.83369964 236.5 0 0 0 88.597534
-8.3015614 -7.1783333 0.80253696 261 0 0 0 88.215607
-7.8192883 -7.1046743 0.77371126 329 0 0 0 87.821922
-7.4151735 -7.0778427 0.75149846 343 0 0 0 87.432968
-6.9823828 -7.0019073 0.84869945 1065 0 0 0 87.043297
10.9032 -7.3004403 0.77943319 804 0 0 0 58.898178
-6.7289963 -6.9690037 0.67057323 533.33331 0 0 0 86.7864
-6.2469511 -6.9113789 0.68519551 1183 0 0 0 86.262077
-5.7376347 -6.8363919 0.76695442 441.66666 0 0 0 85.669655
-5.2646165 -6.7661719 0.73774022 506 0 0 0 85.083549
-4.83287 -6.7048392 0.71198183 532.33331 0 0 0 84.493408
-4.2985177 -6.6274471 0.77883196 568.5 0 0 0 83.714218
-3.8092332 -6.5566549 0.74852192 626.75 0 0 0 82.939484
-3.4680741 -6.5113802 0.72865295 598.5 0 0 0 82.347954
0.19874373 -6.7043295 0.76017034 1580.1 0 0 0 74.062172
1.4652776 -6.5363326 0.74209815 1823.3334 0 0 0 71.010735
1.628281 -6.5124631 0.74364853 1736.3334 0 0 0 70.626862
10.829727 -6.8726425 0.76311392 930 0 0 0 58.5042
-3.1472712 -6.4714265 0.79942393 668.16669 0 0 0 81.765892
-2.7363758 -6.4071708 0.77463931 634.83331 0 0 0 80.976112
-2.2613258 -6.3421574 0.74931544 603.22223 0 0 0 80.005531
-1.7288059 -6.2716641 0.72452682 552.22223 0 0 0 78.834297
-1.228537 -6.2030554 0.70465207 550.66669 0 0 0 77.660194
-0.73959178 -6.1427937 0.74490923 571.18182 0 0 0 76.452576
-0.29610601 -6.0829735 0.75394624 618.16669 0 0 0 75.314674
1.8736137 -6.4734073 0.74635619 1702.3334 0 0 0 70.033119
2.2875824 -6.4061561 0.75313568 1726.6666 0 0 0 69.060402
2.8008976 -6.3311648 0.76596951 1564.4445 0 0 0 67.887421
3.2568634 -6.2913685 0.78317386 1682.6666 0 0 0 66.914116
3.5229955 -6.2348981 0.70357418 7.5 0 0 0 66.320793
10.752575 -6.282711 0.74258947 1046 0 0 0 57.919388
10.678337 -5.7213364 0.72389466 1126 0 0 0 57.330158
-27.524323 -5.480854 0.96879148 46 0 0 0 96.413345
10.600994 -5.1883793 0.70686555 1133.5 0 0 0 56.743362
-27.309286 -4.7439332 0.95707721 88 0 0 0 96.797791
10.521056 -4.676054 0.69104332 1147 0 0 0 56.164352
10.445394 -4.1397796 0.76897699 1270.6666 0 0 0 55.507477
10.608026 -4.4042578 0.97609657 205 0 0 0 55.769299
10.378795 -3.7238302 0.80211818 1315.5 0 0 0 54.988098
-27.50111 -3.395963 0.95633614 63 0 0 0 97.588081
-20.936428 -3.1106856 0.73866403 5645 0 0 0 97.187531
10.314215 -3.2778389 0.78880394 1332 0 0 0 54.408241
10.923351 -3.0318239 0.8253935 686.5 0 0 0 53.818001
11.669982 -2.9325571 0.72412717 566 0 0 0 53.431889
12.463574 -2.8078289 0.76711011 498 0 0 0 53.041889
13.351647 -2.6645157 0.81565017 367 0 0 0 52.653061
14.370651 -2.501322 0.51446044 271 0 0 0 52.256222
14.357732 -2.499697 0.87113547 310 0 0 0 52.256222
15.497522 -2.3069358 0.93449616 111 0 0 0 51.866901
15.566066 -2.3164451 0.55284214 252 0 0 0 51.866901
16.930012 -2.0952339 0.5969547 197 0 0 0 51.482201
18.581133 -1.8369207 0.65076464 140 0 0 0 51.095322
20.546757 -1.5222363 0.71524769 118 0 0 0 50.6973
28.581306 -1.4117118 0.98008913 35 0 0 0 50.304314
27.472746 -0.68116409 0.9443059 74 0 0 0 49.915058
-2.7330549 3.300947 0.68286449 318.61539 0 0 0 13.790156
-2.4186833 3.3330586 0.67449641 139.66667 0 0 0 14.81552
-5.6839647 3.8476698 0.84714109 940 0 0 0 9.1549206
-5.3074694 3.9202492 0.73704928 771.79999 0 0 0 9.8169727
-8.3596048 4.300808 0.69386625 577.5 0 0 0 7.200635
-6.1048903 4.35992 0.65209079 397.5 0 0 0 9.5420647
-5.1491895 4.0958538 0.84089035 803 0 0 0 10.38886
-4.8066792 4.3976665 0.64958441 687.75 0 0 0 11.489336
-1.9059896 4.2963648 0.53716439 144.5 0 0 0 18.11865
4.777504 4.2596622 0.57367992 1157 0 0 0 38.01775
5.241158 4.1226802 0.59564775 967 0 0 0 38.991089
8.3445272 4.3902717 0.66664559 605 0 0 0 41.856033
8.6941557 4.2590632 0.84429538 782 0 0 0 42.313641
-8.3620491 4.8317728 0.83003372 465 0 0 0 7.9885502
-5.7874537 4.8103676 0.74558461 660 0 0 0 10.7135
-5.4821744 4.6668582 0.62728995 730 0 0 0 10.90956
-4.6913638 4.7372303 0.66448647 648.5 0 0 0 12.271025
-1.9829099 4.7963538 0.71648204 215 0 0 0 18.511021
1.2704279 4.7865849 0.5713653 141 0 0 0 28.83551
8.1366501 4.7187104 0.74335575 516 0 0 0 41.203323
-8.3543243 5.2454071 0.84695554 519 0 0 0 8.5643797
-1.9999665 5.4058008 0.79233652 252 0 0 0 19.10322
1.2159231 5.0722461 0.59955037 213 0 0 0 28.45253
7.927803 5.1848273 0.82844245 553 0 0 0 40.359947
-2.1506963 5.6829562 0.68831092 194.66667 0 0 0 18.971392
-1.9407119 5.6807828 0.5322876 213 0 0 0 19.490391
1.1650865 5.7794785 0.81728524 295.5 0 0 0 27.870304
3.474638 5.6692309 0.75849563 438.33334 0 0 0 33.394287
4.2397928 5.8533115 0.86068714 298.25 0 0 0 34.593773
5.6559825 5.9871144 0.7265259 138 0 0 0 36.65316
11.779236 5.5855217 0.79753435 482 0 0 0 42.506802
-1.9678071 6.2782717 0.58014774 297 0 0 0 19.874189
1.1475178 6.3200722 0.62437052 646.66669 0 0 0 27.542559
2.9378855 6.3183513 0.78940612 273 0 0 0 31.57452
3.2216883 6.1214867 0.95499128 187 0 0 0 32.354565
4.2362714 6.4113045 0.68021512 466 0 0 0 33.909927
5.8620977 6.051856 0.84439027 402.5 0 0 0 36.847645
6.2888408 6.1783237 0.98961198 464 0 0 0 37.237404
8.3384218 6.2132263 0.77746964 156.5 0 0 0 39.379841
-2.1475644 6.5786476 0.77556074 176.5 0 0 0 19.682289
0.93668276 6.6915536 0.59995222 330 0 0 0 26.89744
3.6063416 6.7076287 0.73587227 301.66666 0 0 0 32.486874
4.0068369 6.7659607 0.6949479 252 0 0 0 33.126759
4.6760888 6.7051096 0.7145083 365.5 0 0 0 34.299431
5.2531805 6.6187096 0.74046683 275.5 0 0 0 35.282982
5.7230897 6.7981753 0.78157377 225 0 0 0 35.734455
6.2799411 6.9779558 0.82250541 52 0 0 0 36.25404
9.6777058 6.8415751 0.73118412 102 0 0 0 39.774567
-2.0812531 7.2951612 0.75391448 418.5 0 0 0 20.265079
0.8660264 7.4764986 0.66361475 291 0 0 0 26.503321
1.1448429 7.4600782 0.84916395 164 0 0 0 27.091881
4.1673756 7.0334945 0.91992062 182 0 0 0 33.126759
5.9024687 7.24756 0.8190552 177 0 0 0 35.47739
11.63612 7.1909161 0.5013923 145 0 0 0 40.7477
12.445385 7.4793153 0.88560528 110 0 0 0 40.94614
-8.821701 7.936811 0.71828151 309 0 0 0 11.29694
-5.1094446 7.5482464 0.67368984 907.5 0 0 0 15.20697
-4.7984004 7.5747128 0.82669425 1016 0 0 0 15.689058
-4.2938719 7.6369758 0.79913074 968.59998 0 0 0 16.524218
-3.8216848 7.6977224 0.74311674 1038.5 0 0 0 17.34021
-3.1698408 7.7655487 0.82967579 978.5 0 0 0 18.511021
-2.8502917 7.7889018 0.92188889 549 0 0 0 19.10322
-2.0062923 7.7691717 0.50091422 303 0 0 0 20.65946
-1.7347343 7.9128742 0.50581241 235 0 0 0 21.240005
0.87134546 7.519599 0.85101122 202 0 0 0 26.503321
4.0671134 7.6981859 0.54789627 363 0 0 0 32.359692
6.0019898 7.7495685 0.85694283 140 0 0 0 35.08857
-14.211473 8.4831905 0.98848408 52 0 0 0 8.1852503
-8.8420525 8.3570738 0.73555785 321 0 0 0 11.68173
-1.3663368 8.1307373 0.51472199 371 0 0 0 22.012825
-9.055707 8.9921198 0.76983947 204 0 0 0 12.08025
-1.1128187 8.5516939 0.53707892 810 0 0 0 22.601669
13.106695 8.780426 0.95972621 72 0 0 0 40.170639
-9.4633627 9.8739862 0.82251114 143 0 0 0 12.4618
2.2627444 9.7397823 0.87075412 508.5 0 0 0 28.26123
4.9476752 9.9271584 0.96360713 397 0 0 0 31.96789
2.8500652 10.482699 0.67242259 525 0 0 0 28.83551
4.3814974 10.339888 0.97475767 368.5 0 0 0 30.993219
4.6583271 10.167494 0.78487635 370.66666 0 0 0 31.446035
4.0500736 10.631497 0.98663634 344 0 0 0 30.41008
56.763966 11.297811 0.52283424 29 0 0 0 46.411598
-11.121135 12.204498 0.5829199 144 0 0 0 12.8483
1.2158219 12.878567 0.79059654 419 0 0 0 26.11783
0.75850099 13.229223 0.80831635 745 0 0 0 25.527035
-0.22426659 13.883975 0.84383178 656.5 0 0 0 24.357441
0.28092286 13.614129 0.82885879 614 0 0 0 24.945801
-0.76342195 14.445004 0.8766712 423 0 0 0 23.771811
64.067581 14.394585 0.59022605 20 0 0 0 46.019207
-1.1420763 14.752029 0.89537305 341 0 0 0 23.376459
-1.5366836 15.053965 0.91435182 235 0 0 0 22.985371
-31.487106 -17.849251 1.2367477 12 0 0 0 91.344414
13.97722 -17.051519 1.2771868 133 0 0 0 63.588367
14.077956 -15.552176 1.2177413 133 0 0 0 62.80595
14.900197 -15.669601 1.2545292 30 0 0 0 62.417431
8.7665195 -14.641074 1.4201676 135 0 0 0 65.930763
9.2277594 -14.592389 1.0069 22 0 0 0 65.547989
9.773324 -14.646898 1.0263588 13 0 0 0 65.146675
13.733817 -13.752556 1.1318074 8 0 0 0 62.025009
13.637171 -13.002033 1.0988281 9 0 0 0 61.629009
13.500401 -12.254028 1.0649519 86 0 0 0 61.239738
13.420823 -11.594493 1.0374389 61 0 0 0 60.841473
13.296276 -10.927546 1.2227412 15 0 0 0 60.454273
13.309857 -10.400821 1.4114687 32 0 0 0 60.071701
-14.726673 -8.8416595 1.2394264 246.5 0 0 0 90.959877
-13.730908 -8.7118168 1.3772274 430 0 0 0 90.566574
-13.187027 -8.8285131 1.3445379 8 0 0 0 90.178635
-12.116323 -8.5507984 1.2583665 8 0 0 0 89.781952
-11.590391 -8.6139116 1.2259252 11 0 0 0 89.385033
11.464683 -8.5162249 1.1996179 28 0 0 0 59.672421
-10.551285 -8.2524109 1.3021784 568 0 0 0 88.997643
-7.7388692 -7.5709939 1.4554834 176 0 0 0 87.238129
-7.142417 -7.524466 1.3955634 403 0 0 0 86.657951
11.045149 -7.7922683 1.3018945 46 0 0 0 59.2864
-8.821435 -7.2577367 1.2539264 232 0 0 0 88.597534
-8.3407831 -7.2133322 1.2113411 306 0 0 0 88.215607
-7.8545704 -7.137815 1.166847 347 0 0 0 87.821922
-7.432724 -7.0957193 1.1305377 367 0 0 0 87.432968
-6.8703451 -7.2397947 1.2223805 579 0 0 0 86.652687
-6.0279412 -7.0109544 1.4756036 390 0 0 0 85.864166
-5.746315 -7.2016001 1.4700878 143.5 0 0 0 85.279358
-5.1881509 -7.2000542 1.4166279 125 0 0 0 84.493408
-4.6618729 -7.1886349 1.368202 533 0 0 0 83.714218
-4.1406565 -7.1286569 1.3171151 199 0 0 0 82.939484
10.998134 -7.3620615 1.4369756 22 0 0 0 58.898178
11.006607 -7.3672576 1.1162194 43 0 0 0 58.898178
-6.6131783 -6.9658508 1.0583758 467 0 0 0 86.657951
-6.255146 -6.9216051 1.0286678 451 0 0 0 86.262077
-5.7476864 -6.8517594 1.2070414 449 0 0 0 85.669662
-5.2932367 -6.806119 1.164377 528 0 0 0 85.083549
-4.8538733 -6.7372499 1.1222527 570 0 0 0 84.493408
-4.2581248 -6.7496338 1.2122148 424.33334 0 0 0 83.521873
-3.8123503 -6.7571559 1.2450248 459 0 0 0 82.742172
-3.2661092 -6.6283026 1.2366631 543 0 0 0 81.847099
-2.6722577 -6.7881532 1.4061576 472.66666 0 0 0 80.526527
-2.2581673 -6.7532907 1.384963 413.39999 0 0 0 79.692154
-1.7543839 -6.6877294 1.3626701 447.33334 0 0 0 78.638702
-1.2778352 -6.6281271 1.3471282 269.39999 0 0 0 77.581932
-0.80342293 -6.5537868 1.383351 391.33334 0 0 0 76.487617
-0.39624327 -6.5153985 1.3673356 475 0 0 0 75.509346
0.24898629 -6.7166648 1.2414888 1814.6666 0 0 0 73.944283
0.81814671 -6.6316772 1.3982204 349.66666 0 0 0 72.578186
1.3272256 -6.5729909 1.2586055 1900 0 0 0 71.354195
1.6744375 -6.5240011 1.2845902 1943.75 0 0 0 70.527634
10.886721 -6.7231541 1.2338417 97.5 0 0 0 58.310745
-2.7493811 -6.4395142 1.1223974 675.5 0 0 0 80.97612
-2.2724679 -6.3757949 1.0856539 598.66669 0 0 0 80.005531
-1.7360538 -6.3000407 1.0486398 551 0 0 0 78.834297
-1.1963447 -6.2483711 1.1390508 463 0 0 0 77.562553
-0.78686231 -6.2435241 1.2770804 419.85715 0 0 0 76.542702
-0.27786916 -6.1599426 1.2947484 458.57144 0 0 0 75.259048
1.8953949 -6.4865012 1.2139158 1809.4 0 0 0 69.993759
2.2931354 -6.4198246 1.2579904 1651 0 0 0 69.060402
2.807965 -6.345675 1.280056 1621.6666 0 0 0 67.887436
3.2670815 -6.3098311 1.3100353 1664 0 0 0 66.914116
3.5581086 -6.2950511 1.3325157 9.333333 0 0 0 66.320793
10.814672 -6.257318 1.1568677 56 0 0 0 57.853424
10.78529 -5.7767925 1.1837842 91.5 0 0 0 57.330158
10.738105 -5.2533679 1.1577332 171.75 0 0 0 56.743362
11.501383 -5.1089177 1.065365 349 0 0 0 56.164352
10.494333 -4.6628971 1.2545866 7 0 0 0 56.164352
10.482047 -4.0536733 1.2295793 83 0 0 0 55.376568
10.472952 -3.7571666 1.2181991 276 0 0 0 54.988098
-21.019878 -3.1224079 1.2621442 5073 0 0 0 97.187531
10.389798 -3.347667 1.2864143 81.333336 0 0 0 54.474213
11.07192 -3.0726292 1.2584357 62 0 0 0 53.818001
11.872234 -2.9818268 1.1891364 77 0 0 0 53.431889
12.702775 -2.8600893 1.2632406 131 0 0 0 53.041889
13.587049 -2.7095215 1.1746317 63 0 0 0 52.653061
14.477652 -2.5185635 1.2443211 44 0 0 0 52.256222
15.880208 -2.3616579 1.3567355 173 0 0 0 51.866901
17.285381 -2.1387339 1.2528023 51 0 0 0 51.482201
19.013651 -1.8804367 1.1331545 53 0 0 0 51.095322
21.010918 -1.5574913 1.2467325 69 0 0 0 50.6973
23.394495 -1.1568921 1.3830637 63 0 0 0 50.304314
36.699615 -0.0079895658 1.2502733 49 0 0 0 49.531311
-5.6569643 3.9308808 1.1862614 845.5 0 0 0 9.3467903
-5.4017496 3.9503376 1.2363583 758 0 0 0 9.73734
-8.879055 4.4333382 1.0911839 762 0 0 0 7.0055099
-5.2383208 4.2014751 1.2403523 677.41669 0 0 0 10.453977
8.8621845 4.3412647 1.1001859 789 0 0 0 42.313641
-8.7332239 4.7202601 1.2545791 603.33331 0 0 0 7.5277901
-8.3568325 4.8290267 1.0620682 779 0 0 0 7.9885502
-5.0621767 4.5975266 1.3204135 853.33331 0 0 0 11.425204
-4.9883633 4.6794119 1.1804178 921.5 0 0 0 11.68173
4.9346776 4.9791684 1.4893187 127 0 0 0 37.04213
8.2587891 4.8352504 1.1886356 808.5 0 0 0 41.139027
8.6606054 4.6500015 1.3388557 776 0 0 0 41.723808
9.2284718 4.9518709 1.1655476 327 0 0 0 41.723808
-8.5772676 5.096436 1.3401538 701 0 0 0 8.1852503
-8.3237638 5.2260251 1.0808164 661 0 0 0 8.5643797
-5.1669545 5.0941458 1.1616544 727 0 0 0 12.08025
3.3769662 5.1274257 1.3072295 240 0 0 0 33.909927
4.3974605 5.4152708 1.3097061 236 0 0 0 35.47739
5.2155156 5.3925476 1.0331877 343.5 0 0 0 36.847645
5.8722615 5.3618836 1.487498 160 0 0 0 37.818848
6.5291462 5.3939257 1.1609681 314 0 0 0 38.6073
7.8765368 5.149858 1.052501 946 0 0 0 40.359947
8.1852741 5.209023 1.322877 751 0 0 0 40.549259
3.1950336 5.5669231 1.2062371 291 0 0 0 32.933998
3.9590194 5.9981766 1.1692045 222 0 0 0 33.909927
4.204731 5.7339802 1.1574335 319 0 0 0 34.691887
6.2070599 5.853157 1.2387248 237 0 0 0 37.561401
6.8342414 5.9327545 1.4624649 269 0 0 0 38.21217
7.4742675 5.8664627 1.2974178 224 0 0 0 38.991089
8.2562828 5.6904678 1.2440553 420 0 0 0 39.972603
12.516724 5.5631804 1.1771936 449 0 0 0 42.900581
-2.0761821 6.0875154 1.038875 337 0 0 0 19.490391
3.7993774 6.1852965 1.2391027 346.66666 0 0 0 33.394287
4.0881004 6.1915536 1.0216475 311 0 0 0 33.909927
4.7147918 6.1021519 1.252975 299.33334 0 0 0 35.08857
5.2611256 6.3110366 1.1275513 301 0 0 0 35.670189
5.6440196 6.3826041 1.3084831 285.33334 0 0 0 36.123692
7.1066799 6.1681023 1.2854756 225 0 0 0 38.21217
8.4780779 6.3192039 1.4389569 150 0 0 0 39.379841
-2.123723 6.7883444 1.14569 248 0 0 0 19.874189
1.113502 6.7439737 1.1099823 203 0 0 0 27.28632
6.0859389 6.7636685 1.0199494 139 0 0 0 36.25404
8.0878906 6.8408051 1.1808356 206.5 0 0 0 38.409737
8.9129038 6.8121772 1.247803 162.5 0 0 0 39.185463
1.0167086 7.2387857 1.1840074 310 0 0 0 26.89744
6.0449471 7.0596437 1.0409545 161 0 0 0 35.862991
10.195051 7.2079258 1.0796666 200 0 0 0 39.774567
29.533922 7.3995919 1.0559559 108 0 0 0 45.626926
-5.180882 7.6517138 1.2482194 644 0 0 0 15.20697
-4.9701324 7.7405505 1.4674196 383 0 0 0 15.59128
-4.0004482 7.8143845 1.4032558 662 0 0 0 17.140551
-3.8369784 7.7205629 1.1665845 637.5 0 0 0 17.34021
-3.4626582 7.6622047 1.1389909 864 0 0 0 17.923
-2.633774 7.777122 1.1144836 1314 0 0 0 19.490391
-2.2949703 7.6938777 1.0911701 126.5 0 0 0 20.069633
4.7911267 7.6437707 1.4571164 296 0 0 0 33.528049
8.2839689 7.5461183 1.2467891 228 0 0 0 37.818848
28.646433 7.9304209 1.0328076 63 0 0 0 45.238239
-15.381434 8.681694 1.0527182 108 0 0 0 7.7918501
1.2247052 8.6399899 1.1901494 890 0 0 0 26.89744
28.789835 8.7371407 1.0459311 18 0 0 0 44.840881
2.0427971 9.3372164 1.0660619 182 0 0 0 28.069929
-15.263134 9.6295967 1.0744289 201 0 0 0 8.5643797
-9.0902605 9.9568901 1.4716351 190 0 0 0 12.8483
4.9412293 9.9141083 1.2318331 387 0 0 0 31.96789
5.4617658 9.7264071 1.2405312 413 0 0 0 32.741241
6.375845 9.6120043 1.2817777 188 0 0 0 33.909927
2.4777985 10.112256 1.4143571 369 0 0 0 28.45253
4.2701645 10.430869 1.2521027 404 0 0 0 30.797369
4.500289 10.265289 1.2455701 645 0 0 0 31.18907
-9.7475519 10.682936 1.2262913 251 0 0 0 12.8483
2.8634393 10.544855 1.4827472 235 0 0 0 28.83551
3.6949205 10.891933 1.2764175 608.5 0 0 0 29.818451
4.0418081 10.60988 1.2607683 574 0 0 0 30.41008
27.756878 10.714248 1.0376972 55 0 0 0 43.673553
3.341635 11.187796 1.2947242 244 0 0 0 29.2325
36.73859 12.13977 1.3352727 21 0 0 0 44.454262
1.2124104 12.867357 1.2684098 372 0 0 0 26.11783
0.75593901 13.227434 1.2988555 688.75 0 0 0 25.527035
-12.450836 13.673614 1.0995796 137 0 0 0 12.8483
-0.055961806 13.857778 1.1871716 556 0 0 0 24.54805
0.27852744 13.616199 1.3331556 614 0 0 0 24.945801
-0.76565814 14.437633 1.2359118 381 0 0 0 23.771811
-0.40343222 14.145663 1.211018 311 0 0 0 24.16683
-1.1429144 14.727142 1.2613684 333 0 0 0 23.376459
-1.7464066 15.213918 1.3055978 338 0 0 0 22.79352
-2.3873565 15.710084 1.3524344 336 0 0 0 22.2096
-3.331393 16.460953 1.4261488 262 0 0 0 21.433479
-2.850688 16.1001 1.3899561 290 0 0 0 21.81605
-3.8497334 16.88936 1.4692435 257 0 0 0 21.04653
8.7829323 -14.66895 1.8379285 164 0 0 0 65.930763
9.8545465 -14.76399 1.9071881 3 0 0 0 65.146675
13.893685 -14.6077 1.674011 15 0 0 0 62.417431
13.641304 -13.655904 1.6048033 14 0 0 0 62.025009
13.588442 -12.951744 1.5622374 6 0 0 0 61.629009
13.519089 -12.267298 1.5207307 9 0 0 0 61.239738
-14.789299 -8.8806152 1.8785604 293 0 0 0 90.959877
-13.742529 -8.7189837 1.7739193 406 0 0 0 90.566574
-13.116536 -8.7812281 1.7211562 5 0 0 0 90.178635
-12.184698 -8.5988159 1.6276959 4 0 0 0 89.781952
-11.600458 -8.6227503 1.7558495 7 0 0 0 89.385033
11.56324 -8.5898237 1.5595838 29 0 0 0 59.672421
-10.553991 -8.2573261 1.7950702 505 0 0 0 88.997643
-8.7335625 -7.5548162 1.5509658 118 0 0 0 88.215607
-8.3293877 -7.5708585 1.5122976 130 0 0 0 87.821922
11.044321 -7.789516 1.7985032 19 0 0 0 59.2864
-9.0001059 -7.4069495 1.5655309 319 0 0 0 88.597534
-7.7624674 -7.056674 1.6714728 81 0 0 0 87.821922
-7.2850914 -7.1283884 1.6245546 87 0 0 0 87.238129
-6.8117642 -7.1769347 1.5774897 139 0 0 0 86.657951
-6.4888415 -7.181993 1.5434928 125 0 0 0 86.262077
10.985046 -7.3510132 1.7603167 19 0 0 0 58.898178
-8.6537533 -6.7734151 1.7503532 43 0 0 0 88.997643
-8.2384138 -6.9504747 1.7170837 118 0 0 0 88.40657
-6.6287093 -6.6503224 1.7314703 55 0 0 0 87.043297
-6.2056155 -6.7004824 1.684623 236 0 0 0 86.460014
-5.7131786 -6.8111219 1.6400644 96.5 0 0 0 85.669662
-5.1916699 -6.844986 1.5853882 84 0 0 0 84.888229
-4.7189522 -6.9009094 1.5429888 143.5 0 0 0 84.09967
-4.2690473 -6.6468349 1.5868284 113.66666 0 0 0 83.650475
-3.8255711 -6.5881968 1.5954556 172 0 0 0 82.939484
-3.2967882 -6.5718665 1.5403414 325.66666 0 0 0 81.959908
-2.8356352 -6.641592 1.5125967 437 0 0 0 80.97612
-0.16206986 -6.7926412 1.9225895 1663 0 0 0 74.925323
0.25088131 -6.7345996 1.7411084 1602.1666 0 0 0 73.94429
0.82211006 -6.6538587 1.731684 1566 0 0 0 72.578186
1.3103541 -6.587553 1.7345586 1656.5555 0 0 0 71.40345
1.7189759 -6.5271277 1.7426728 1582.3334 0 0 0 70.428398
10.898108 -6.7281356 1.7076169 27.5 0 0 0 58.310745
-9.0513363 -6.3936954 1.7654194 61 0 0 0 89.781952
-8.6668921 -6.4472184 1.7213917 29 0 0 0 89.385033
-7.0655828 -6.1150489 1.7242577 65 0 0 0 88.215607
-6.7404914 -6.284605 1.7006426 39.5 0 0 0 87.627441
-5.2582684 -6.2697268 1.7136014 91.5 0 0 0 85.669662
-4.7649283 -6.4455323 1.6786293 84.333336 0 0 0 84.690125
-4.021132 -6.0444174 1.7001537 59 0 0 0 83.905434
-3.6624305 -6.136961 1.6738876 71.333336 0 0 0 83.133987
-3.2140584 -6.2212229 1.6397743 207.5 0 0 0 82.153076
-2.7806637 -6.3011231 1.6128367 123.66666 0 0 0 81.17527
-2.2548892 -6.3318267 1.5739111 159.66667 0 0 0 80.005531
-1.7411684 -6.1600761 1.5879605 114.28571 0 0 0 78.945419
-1.2509801 -6.1655469 1.5646293 145 0 0 0 77.738319
-0.74161047 -6.0616493 1.5807317 170.33333 0 0 0 76.487617
-0.36677599 -6.0483885 1.5681224 177.5 0 0 0 75.509346
1.9669056 -6.4915109 1.7510334 1544.6666 0 0 0 69.836319
2.2993641 -6.4339695 1.7640758 1520 0 0 0 69.060402
2.8172357 -6.3642888 1.7966142 1478.4445 0 0 0 67.887421
3.2746687 -6.3222046 1.7491744 1576.5 0 0 0 66.914124
3.5554044 -6.2883506 1.8628504 121 0 0 0 66.320793
10.807203 -6.1328812 1.8119786 83 0 0 0 57.721489
-5.5944619 -5.8975534 1.7032359 108 0 0 0 86.657951
-5.3130994 -5.8839469 1.6616013 114 0 0 0 86.262077
-4.2067862 -5.697402 1.6600091 168 0 0 0 84.692909
-3.9961281 -5.6996541 1.6318407 90 0 0 0 84.293915
-3.2323394 -5.571619 1.6696023 95 0 0 0 82.939484
-2.8046455 -5.778872 1.6646519 83 0 0 0 81.762489
-2.292635 -5.9730182 1.656878 127.33334 0 0 0 80.39547
-1.6202216 -5.6234713 1.6623985 36.5 0 0 0 79.029221
-1.2670163 -5.6790709 1.6526942 54 0 0 0 78.051811
-0.77287203 -5.7373462 1.644068 71.25 0 0 0 76.683121
-0.27850968 -5.792645 1.5971226 64.333336 0 0 0 75.314674
10.744778 -5.7536325 1.7785562 45 0 0 0 57.330158
-2.1533604 -5.4136262 1.6561483 183.5 0 0 0 80.590393
-1.8450636 -5.3939466 1.6206768 155.5 0 0 0 79.808899
-1.039028 -5.2673373 1.6586081 211 0 0 0 77.659447
-0.70414978 -5.2309675 1.6312695 163.25 0 0 0 76.683121
-0.31116757 -5.1499691 1.5943408 1116 0 0 0 75.509346
10.648302 -5.0461426 1.7218423 21.5 0 0 0 56.543808
10.586926 -4.7024102 1.6938539 14 0 0 0 56.164352
10.469841 -4.0475302 1.6437449 51.5 0 0 0 55.376568
10.427547 -3.7397478 1.7601424 34 0 0 0 54.988098
12.164847 -3.6975784 1.700739 39 0 0 0 54.210327
10.415215 -3.4490328 1.7441503 133 0 0 0 54.606159
10.517876 -3.1984639 1.7481409 23 0 0 0 54.210327
11.794771 -2.961235 1.7803283 37.5 0 0 0 53.431889
12.75425 -2.8701341 1.749662 168 0 0 0 53.041889
13.555805 -2.7029433 1.6782448 43 0 0 0 52.653061
14.554449 -2.5325196 1.6099765 22 0 0 0 52.256222
15.813591 -2.3524492 1.7399973 38 0 0 0 51.866901
17.338406 -2.1448801 1.8987356 33 0 0 0 51.482201
19.067335 -1.8832221 1.6137367 50 0 0 0 51.095322
21.070206 -1.5591211 1.776661 33 0 0 0 50.6973
27.686897 -0.6876958 1.6298549 39 0 0 0 49.915058
-5.2913914 4.27982 1.5882034 758.33331 0 0 0 10.519567
-5.1710048 4.6182232 1.6178159 784 0 0 0 11.29694
3.9439397 5.383441 1.8299067 245 0 0 0 34.691887
5.9000411 5.1278753 1.8479679 49 0 0 0 38.21217
6.4426641 5.061934 1.9348313 89 0 0 0 38.991089
8.6745176 5.2229376 1.6297771 461 0 0 0 40.94614
3.3398082 5.9862432 1.6240128 421 0 0 0 32.741241
3.6022887 5.7681899 1.6119164 180 0 0 0 33.528049
4.3329859 5.6140971 1.8545605 170 0 0 0 35.08857
4.6892972 5.8461695 1.7727636 200.25 0 0 0 35.379379
5.2597027 5.8529353 1.8111727 163.5 0 0 0 36.256058
5.7331214 5.7773018 1.7194899 95.666664 0 0 0 37.042656
6.1693606 5.7736444 1.8894929 187.5 0 0 0 37.625763
6.8803921 5.9720621 1.8102534 189 0 0 0 38.21217
7.406363 5.5232782 1.9492062 164 0 0 0 39.379841
8.9356375 5.9977407 1.7302294 235 0 0 0 40.170639
5.4861197 6.4131894 1.7842039 162 0 0 0 35.862991
5.605505 6.3921261 1.5874139 248 0 0 0 36.058517
6.1887989 6.3888092 1.6590006 208 0 0 0 36.847645
7.7833633 6.4227085 1.7507849 168.5 0 0 0 38.6073
8.4373722 6.28861 1.6933358 247 0 0 0 39.379841
8.8399696 6.2546349 1.8745207 60.5 0 0 0 39.774567
9.1053038 6.4421363 1.5153053 136 0 0 0 39.774567
12.010207 6.0647025 1.8169937 464 0 0 0 42.12048
4.8550444 6.6124687 1.9364566 183 0 0 0 34.691887
5.4986873 6.7567391 1.8402282 127 0 0 0 35.47739
8.3339396 6.5365753 1.9672563 99 0 0 0 38.991089
-8.7560062 7.4913268 1.5436782 307 0 0 0 10.90956
4.0823288 7.2947426 1.560216 206 0 0 0 32.741241
6.8709378 7.2644486 1.6114786 156 0 0 0 36.65316
7.2208581 7.2657623 1.6499089 133 0 0 0 37.04213
7.7664943 7.0789599 1.6915137 158 0 0 0 37.818848
9.2145071 7.2241645 1.8797655 128 0 0 0 38.991089
29.413153 7.3680778 1.7947226 33 0 0 0 45.626926
-3.565599 7.8943481 1.5993127 171 0 0 0 17.923
-3.2308168 7.9136767 1.579375 432.5 0 0 0 18.511021
-2.7975249 7.9425364 1.557297 682 0 0 0 19.296806
-2.4816036 7.9690757 1.5444261 575 0 0 0 19.874189
6.3420472 7.7848744 1.617909 52 0 0 0 35.47739
-8.8709545 8.378665 1.6331217 97 0 0 0 11.68173
-8.4491749 8.3787451 1.5934849 260 0 0 0 12.08025
-8.1740999 8.5117617 1.8713396 118 0 0 0 12.4618
30.927017 8.5596676 1.8981524 36 0 0 0 45.238239
-8.6557121 9.2416887 1.8493164 200 0 0 0 12.65505
