# .PCD v0.7 - Point Cloud Data file format
VERSION 0.7
FIELDS x y z intensity normal_x normal_y normal_z curvature
SIZE 4 4 4 4 4 4 4 4
TYPE F F F F F F F F
COUNT 1 1 1 1 1 1 1 1
WIDTH 958
HEIGHT 1
VIEWPOINT 0 0 0 1 0 0 0
POINTS 958
DATA ascii
-1.3413976 -5.5699863 2.0949831 184.33333 0 0 0 78.361534
5.3392935 -5.6215076 2.2930171 72 0 0 0 62.46455
7.725831 -5.6809688 2.3315425 387.39999 0 0 0 59.646393
8.7801552 -5.5700812 2.1686339 67 0 0 0 58.557808
11.836907 -5.9646721 2.2653687 497.5 0 0 0 56.988049
12.121113 -5.7386508 2.1252344 38 0 0 0 56.592522
-11.401592 -5.0651398 2.2823968 309 0 0 0 92.944481
1.9415019 -5.4436803 2.1386495 205 0 0 0 69.110764
2.0760112 -5.2127771 2.0769818 216 0 0 0 68.522125
5.3721881 -5.2981663 2.2016304 547.66669 0 0 0 61.935238
5.516324 -5.2638965 2.3493567 589 0 0 0 61.676849
7.7822475 -5.2091627 2.2997971 80 0 0 0 58.939758
8.2286015 -5.0757904 2.2563524 141.5 0 0 0 58.359261
7.9984078 -4.5388308 2.1484821 125 0 0 0 57.764511
7.432445 -4.2187223 2.4220803 248 0 0 0 57.764511
7.6176987 3.4062076 2.1627154 690 0 0 0 42.937
4.1692142 3.9314668 2.2048659 93 0 0 0 37.671432
4.9926944 3.7513127 2.246479 110 0 0 0 39.423882
5.1285529 3.8532259 2.412519 175.33333 0 0 0 39.424686
6.8733492 3.9302187 2.0533772 698 0 0 0 41.370159
7.2660789 3.6905119 2.1131713 646 0 0 0 42.158264
7.6751957 3.7776446 2.4291275 444.5 0 0 0 42.356728
3.362226 4.1760092 2.0633106 153 0 0 0 35.506958
3.9293935 4.0934534 2.1828535 181.5 0 0 0 36.881836
4.2477841 4.1060438 2.1260009 195 0 0 0 37.47739
4.5220752 4.3648086 2.1041546 201 0 0 0 37.47739
5.2113113 4.1187463 2.3862505 212 0 0 0 39.037407
6.8347526 4.2522092 2.1874595 527.75 0 0 0 40.788204
7.4318748 4.007741 2.3976567 378 0 0 0 41.761341
7.5100517 4.2919741 2.4548924 192 0 0 0 41.370159
3.6749439 4.9141378 2.2014899 180 0 0 0 34.926567
4.3839359 4.6708865 2.1430273 141 0 0 0 36.684601
4.6840587 4.7488542 2.0644362 283 0 0 0 37.079071
5.3801031 4.9342961 2.4373147 360 0 0 0 37.865471
5.5090775 4.5747533 2.214576 398 0 0 0 38.64056
6.1500459 4.9722023 2.0492611 344 0 0 0 38.838982
6.856926 4.62503 2.2467294 293 0 0 0 40.199322
7.0199056 4.9898524 2.0163879 512 0 0 0 39.812778
8.0057888 4.8386889 2.1873941 276 0 0 0 40.985088
3.4884672 5.3182073 2.1248779 214 0 0 0 33.94952
3.7151055 5.0988069 2.3419602 189 0 0 0 34.730179
4.0578046 5.2840624 2.0599689 234 0 0 0 35.11734
4.6582828 5.4750519 2.0429099 64 0 0 0 35.909279
5.3158603 5.2537928 2.3097014 197 0 0 0 37.275036
5.8631988 5.2400455 2.0371451 352 0 0 0 38.057213
6.0305572 5.2578316 2.2713742 141 0 0 0 38.248959
3.2510245 5.861331 2.4000483 86 0 0 0 32.786282
4.7221437 5.7384071 2.3546591 193 0 0 0 35.641064
5.2286654 5.559885 2.1672168 319 0 0 0 36.684601
5.9483361 5.725594 2.3417263 514 0 0 0 37.47739
4.3091292 6.2150722 2.3316429 92 0 0 0 34.343021
4.7546091 6.3351092 2.3418751 337 0 0 0 34.926567
5.3600564 6.1866698 2.185456 453.33334 0 0 0 36.031307
5.6485944 6.0017643 2.1315615 74 0 0 0 36.684601
6.0246415 6.0907869 2.4278371 229 0 0 0 37.079071
6.6218219 6.36795 2.2599421 356 0 0 0 37.47739
8.1892672 6.1228576 2.2586017 111 0 0 0 39.423882
-9.9596205 6.929924 2.4887362 8 0 0 0 9.3564501
-9.3591766 6.7395225 2.1798921 80 0 0 0 9.6163568
-8.8484831 6.8168225 2.2937129 116 0 0 0 10.14099
2.254005 6.7679892 2.3667216 237.5 0 0 0 29.847025
2.7484322 6.8090744 2.3507462 133 0 0 0 30.828545
3.0498126 6.8146591 2.389029 293 0 0 0 31.412609
4.1173472 6.9823565 2.0929823 52 0 0 0 33.172329
4.7151523 6.7905154 2.3410861 69 0 0 0 34.343021
5.0506868 6.5571237 2.1386759 172 0 0 0 35.11734
6.78931 6.856729 2.2512748 191 0 0 0 37.079071
-8.3674297 7.4854054 2.0323749 138 0 0 0 11.31258
3.3108594 7.2688932 2.3055222 225.25 0 0 0 31.510241
3.648396 7.1651659 2.3747125 233 0 0 0 32.19799
4.1314182 7.4143596 2.4003329 131 0 0 0 32.786282
4.9608159 7.1397715 2.136131 273.5 0 0 0 34.343021
5.4658279 7.2749662 2.2362866 346.5 0 0 0 34.926567
6.0039105 7.0385284 2.3865492 178 0 0 0 35.909279
-11.441133 7.9701681 2.1729009 25 0 0 0 9.3564501
2.9431813 7.8124385 2.1505926 51 0 0 0 30.44326
3.4945612 7.5351577 2.1415391 16 0 0 0 31.611389
3.9758449 7.5676861 2.4166749 132 0 0 0 32.394058
4.3238173 7.7546067 2.2880769 98 0 0 0 32.786282
4.9380455 7.9072347 2.4015398 239 0 0 0 33.564129
5.0829248 7.7096963 2.152627 183 0 0 0 33.94952
6.2806659 7.7366438 2.3217182 131 0 0 0 35.506958
7.8608599 7.9273529 2.0489469 249 0 0 0 37.079071
-7.7376142 8.4229727 2.0716696 89 0 0 0 12.86667
4.2424517 8.0671844 2.1231897 86 0 0 0 32.394058
5.9864392 8.1652203 2.3572361 221 0 0 0 34.73579
-14.977777 8.892065 2.2779441 184 0 0 0 8.18538
-14.317463 8.9792957 2.2113805 216 0 0 0 8.5778999
-9.9002075 8.8705711 2.0747225 67 0 0 0 11.31258
-8.9097767 8.8013134 2.2651799 93 0 0 0 12.08752
-7.2197275 8.6744165 2.183588 99.5 0 0 0 13.6504
-13.81152 9.1391449 2.1680002 214 0 0 0 8.9734201
-13.473719 9.3970652 2.1510167 216 0 0 0 9.3564501
-8.0425444 9.2033014 2.2124553 78 0 0 0 13.26069
-7.9515209 9.097847 2.4831641 122 0 0 0 13.26069
4.0532346 9.3013382 2.1086419 40 0 0 0 31.213829
5.6024542 9.2093697 2.3712296 92 0 0 0 33.368229
-13.182624 9.6817122 2.1422272 276 0 0 0 9.7463102
3.9429693 9.6892986 2.1722777 99 0 0 0 30.82608
4.2383647 9.7252378 2.4628794 39 0 0 0 31.213829
5.4136114 9.6790037 2.3034782 119 0 0 0 32.786282
-12.600663 10.239752 2.1276495 124 0 0 0 10.53689
-5.3630228 10.471422 2.1343417 113 0 0 0 17.16815
-4.8141837 10.199197 2.140579 105.66666 0 0 0 17.686747
-12.414108 10.603563 2.1396263 235 0 0 0 10.91701
-4.3610778 10.556757 2.167815 190.33333 0 0 0 18.471025
-3.6666894 10.836659 2.3587008 131 0 0 0 19.50235
12.8246 10.584652 2.2095594 155 0 0 0 38.64056
-1.4878813 11.401724 2.2331839 68.5 0 0 0 22.62055
-0.68374139 12.274544 2.2355676 234 0 0 0 23.79689
-0.38762632 12.513276 2.2764277 313 0 0 0 24.182711
-0.080274411 13.055882 2.0501976 231 0 0 0 24.57769
0.2554608 13.681655 2.1475148 168 0 0 0 24.97245
0.61087662 14.069434 2.2094607 269 0 0 0 25.35672
2.7554183 14.243363 2.2775071 303 0 0 0 27.7034
3.1057372 14.174706 2.278455 273 0 0 0 28.094299
1.2024165 14.898964 2.343744 106.5 0 0 0 25.946369
1.7363834 14.723122 2.3253281 241 0 0 0 26.539539
2.2638426 14.558383 2.3119493 232.5 0 0 0 27.12019
-12.969262 15.666685 2.1627855 159 0 0 0 13.6504
-12.605263 16.010641 2.1671827 172 0 0 0 14.03787
-12.847455 17.173841 2.2796702 91 0 0 0 14.44202
-12.4575 17.533442 2.2863448 147 0 0 0 14.82575
-11.66967 18.260401 2.303925 88 0 0 0 15.60989
-11.258223 18.607803 2.3123343 131 0 0 0 15.99824
-10.862219 18.990967 2.3261533 192 0 0 0 16.388229
24.060036 30.9317 2.2478042 48 0 0 0 35.11734
25.216282 30.823048 2.2849553 30 0 0 0 35.506958
16.743263 31.47208 2.0400815 52 0 0 0 32.394058
17.614866 31.233541 2.0530438 40 0 0 0 32.786282
18.596607 31.157839 2.0782509 30 0 0 0 33.172329
19.639597 31.138628 2.1092198 46 0 0 0 33.564129
20.684946 31.075117 2.1394279 50 0 0 0 33.94952
21.811842 31.082516 2.1768157 57 0 0 0 34.343021
22.914528 31.003283 2.2107522 41 0 0 0 34.73579
16.843731 33.622566 2.1487303 44 0 0 0 32.001919
14.375828 34.903355 2.1529803 53 0 0 0 30.82608
15.406822 34.941128 2.1788325 44 0 0 0 31.213829
16.388582 34.822697 2.1968896 60 0 0 0 31.611389
10.647329 35.373444 2.1043983 54 0 0 0 29.265089
11.601692 35.369202 2.1207612 47 0 0 0 29.65406
12.579033 35.386299 2.139931 26 0 0 0 30.039989
13.458019 35.100906 2.1430466 55 0 0 0 30.44326
-8.545681 -34.134186 2.8969669 7 0 0 0 78.495132
-15.55302 -15.572049 2.9036555 32 0 0 0 87.101799
-18.721043 -15.376681 2.5982084 29 0 0 0 88.649521
11.919983 -15.28503 2.5667949 69 0 0 0 64.027443
11.998405 -14.63107 2.5068815 43 0 0 0 63.63747
4.2884593 -13.00031 2.8335876 45 0 0 0 69.506989
18.3333 -12.916854 2.9693942 32 0 0 0 59.336433
18.544516 -12.395726 2.954078 35 0 0 0 58.939758
14.168567 -11.636399 2.8871849 79 0 0 0 60.508621
16.021948 -11.889457 2.6453717 137 0 0 0 59.722721
3.0974791 -11.207585 2.9812472 38 0 0 0 70.280235
13.197324 -11.393517 2.7469847 143 0 0 0 60.89468
14.75939 -11.237219 2.9215617 82 0 0 0 59.918182
31.887526 -10.53305 2.792675 22 0 0 0 54.647541
47.900364 -10.755908 2.8450665 9 0 0 0 53.086761
3.0721655 -10.144237 2.9838481 174 0 0 0 69.896461
11.528578 -10.45978 2.8416817 80 0 0 0 61.288391
7.595417 -9.7480383 2.5653448 171 0 0 0 64.027443
14.878961 -9.948719 2.8210533 39 0 0 0 58.939758
7.8051796 -9.0601463 2.7770622 319 0 0 0 63.23851
19.426172 -9.1897545 2.8501513 43 0 0 0 56.592522
-0.73886228 -8.602725 2.7538714 398.5 0 0 0 75.950417
9.5355816 -7.8346157 2.8673453 54 0 0 0 60.508621
11.643925 -6.6038299 2.7817547 523 0 0 0 57.764511
-7.4888539 -6.476706 2.5448897 148 0 0 0 88.254845
7.1061277 -6.1392798 2.8857677 37 0 0 0 60.89468
11.820765 -6.1392078 2.7689416 388.5 0 0 0 57.181122
-7.6629095 -5.9963145 2.5020788 12 0 0 0 89.046043
5.3841867 -5.6658578 2.9835024 45 0 0 0 62.46455
6.8831649 -5.660408 2.7392309 220.5 0 0 0 60.508621
7.21243 -5.6385374 2.7003202 95 0 0 0 60.113647
8.4581928 -5.6603427 2.875787 100 0 0 0 58.939758
-11.38911 -5.0609231 2.7395918 196.5 0 0 0 92.944481
5.4018974 -5.4136567 2.7332351 549 0 0 0 62.064434
5.5640717 -5.3087802 2.7486851 541.33331 0 0 0 61.676849
7.242609 -5.2455435 2.6938212 157.25 0 0 0 59.529579
7.7917762 -5.0741987 2.8600571 285 0 0 0 58.748783
8.0966625 -5.1358013 2.7118518 162 0 0 0 58.557808
9.0841608 -5.4522595 2.7293921 99 0 0 0 58.160713
7.2885308 -4.8798261 2.9170122 25 0 0 0 58.939758
8.1685476 -4.7691903 2.7918799 55.5 0 0 0 57.962612
8.5167627 -4.5574479 2.9708395 101 0 0 0 57.374191
7.0628066 -4.2406697 2.5386941 135 0 0 0 58.160713
7.8520293 -4.2045803 2.9631631 203 0 0 0 57.374191
8.6970978 -4.1175013 2.9604273 92 0 0 0 56.592522
8.2968521 -3.9303143 2.600117 81 0 0 0 56.592522
8.7897682 -3.8152618 2.6321466 57 0 0 0 56.071819
8.2400446 -3.4183528 2.9693952 23 0 0 0 55.815033
44.878815 0.0091873016 2.6082797 8 0 0 0 49.576271
7.3457346 3.9633901 2.576669 582 0 0 0 41.761341
7.6206298 3.8712425 2.6378465 656 0 0 0 42.158527
49.660553 3.6777406 2.8882046 7 0 0 0 48.408169
5.0366082 4.1879044 2.5145755 64 0 0 0 38.64056
7.2637882 4.2746944 2.6011589 437 0 0 0 41.177624
5.2806907 4.6134224 2.688261 73 0 0 0 38.248959
7.4390759 4.7548456 2.7219834 78 0 0 0 40.59132
49.977089 4.9385238 2.9117949 16 0 0 0 48.01403
4.0384912 5.2617965 2.5417662 189 0 0 0 35.11734
4.7315965 5.294558 2.603431 192.66667 0 0 0 36.295788
4.1386838 5.6729951 2.5153055 294 0 0 0 34.73579
5.3747458 5.6239357 2.6572845 140.33333 0 0 0 36.817207
6.371819 5.5550723 2.6059396 479 0 0 0 38.248959
6.7143145 5.702528 2.7103209 262.5 0 0 0 38.444759
7.1918812 5.6646471 2.5935268 265 0 0 0 39.037407
7.5072746 5.9137173 2.9411852 72 0 0 0 39.037407
8.4500628 5.9996667 2.6727469 209 0 0 0 39.812778
2.7802498 6.4330873 2.6770804 33 0 0 0 31.213829
3.0753241 6.2499418 2.6623633 44 0 0 0 32.001919
4.1313295 6.4584403 2.7410288 183 0 0 0 33.756824
6.7370672 6.166698 2.5863211 177 0 0 0 37.865471
8.651103 6.1418266 2.999521 47 0 0 0 39.812778
48.769253 6.0326433 2.8493295 23 0 0 0 47.624779
-9.4333076 6.7317152 2.6600192 20 0 0 0 9.5513802
2.2016032 6.8858438 2.7577205 62 0 0 0 29.65406
2.5489464 6.7952733 2.5915751 89 0 0 0 30.44326
3.2193754 6.7431321 2.7613091 77 0 0 0 31.806654
3.6509898 6.8298774 2.7645216 221 0 0 0 32.524799
4.5240049 6.5189662 2.641084 112 0 0 0 34.343021
5.1114311 6.9836898 2.8772593 122 0 0 0 34.73579
8.8840094 6.6408057 2.8571494 41 0 0 0 39.423882
2.7286375 7.2507486 2.7613819 43.5 0 0 0 30.433035
3.1549253 7.0453405 2.7558761 124 0 0 0 31.412609
4.1364288 7.4266019 2.613394 106 0 0 0 32.786282
2.7719967 7.9469433 2.7920408 104 0 0 0 30.039989
3.1494012 7.7772961 2.5770626 190 0 0 0 30.82608
3.7304862 7.5496645 2.7966974 43 0 0 0 32.001919
5.2026992 7.8901172 2.6698527 131 0 0 0 33.94952
50.707439 7.5414448 2.9700415 16 0 0 0 47.226158
2.7657242 8.3643837 2.7027194 76.666664 0 0 0 29.782705
3.0727708 8.151041 2.8889506 77 0 0 0 30.44326
4.9625454 8.3967819 2.7528448 129 0 0 0 33.172329
-14.970999 8.8877373 2.7055624 202 0 0 0 8.18538
-14.294729 8.9646769 2.6232877 185 0 0 0 8.5778999
-8.7383585 8.6269426 2.8205376 105 0 0 0 12.08752
2.5749671 8.728651 2.5655982 74 0 0 0 29.265089
3.7996144 8.7391567 2.6882896 88.5 0 0 0 31.218735
5.9062452 8.9454575 2.7558353 66 0 0 0 33.94952
-13.768484 9.1100807 2.7709765 187 0 0 0 8.9734201
3.3143826 9.1118937 2.732424 212 0 0 0 30.241625
4.9009047 9.3030939 2.7017505 196 0 0 0 32.394058
-12.798839 9.8897591 2.9158578 123 0 0 0 10.14099
-4.7210507 9.7861824 2.7702866 61 0 0 0 17.55792
-12.567602 10.212134 2.9197373 153 0 0 0 10.53689
-5.2716346 10.285335 2.6620829 97 0 0 0 17.16815
-4.4401479 10.498688 2.6271801 79 0 0 0 18.33972
5.0849147 10.247313 2.7961919 67.5 0 0 0 32.001919
5.616724 10.04295 2.6705415 40 0 0 0 32.786282
-12.407283 10.597254 2.7411671 174 0 0 0 10.91701
-3.6663005 10.828711 2.6360283 18 0 0 0 19.50235
-1.946223 10.730928 2.5188811 110 0 0 0 21.84774
-4.2999372 11.762034 2.8843839 19 0 0 0 19.11426
-0.83082634 12.201965 2.6729951 242 0 0 0 23.601906
3.4238896 13.976803 2.7934623 217 0 0 0 28.489571
3.7471545 13.817807 2.9560292 192 0 0 0 28.871771
-0.42862225 14.103277 2.9079978 201 0 0 0 24.182711
2.4281404 14.446949 2.6615846 249 0 0 0 27.318689
2.767756 14.307075 2.64819 198 0 0 0 27.7034
3.1059527 14.177485 2.8167779 225 0 0 0 28.094299
-0.082215689 14.645514 2.657685 212 0 0 0 24.57769
0.65177506 14.925541 2.7112796 223 0 0 0 25.35672
1.7415835 14.767771 2.7001889 175 0 0 0 26.539539
2.0826199 14.573881 2.6740992 252 0 0 0 26.92169
1.2122152 15.012402 2.7339451 146.5 0 0 0 25.946369
-12.586809 15.980873 2.6622503 149 0 0 0 14.03787
-12.831632 17.145844 2.801482 110 0 0 0 14.44202
-12.436554 17.496809 2.8083906 156 0 0 0 14.82575
-12.201393 18.091639 2.8546913 6 0 0 0 15.21332
-11.658821 18.235764 2.8320482 159 0 0 0 15.60989
-11.240726 18.570803 2.8405879 124 0 0 0 15.99824
-10.844981 18.952349 2.8574588 140 0 0 0 16.388229
-6.4532852 22.977636 2.5366495 113 0 0 0 20.287821
17.578766 31.183926 2.9413095 46 0 0 0 32.786282
18.592108 31.164114 2.9823768 50 0 0 0 33.172329
16.763979 31.525679 2.9326653 52 0 0 0 32.394058
10.508666 34.939735 2.9874847 56 0 0 0 29.265089
9.3904428 -54.171947 3.1428018 12 0 0 0 71.847519
14.338257 -34.628803 3.0907466 10 0 0 0 68.327766
0.72243357 -29.472868 3.1500456 15 0 0 0 74.190437
2.1009586 -28.510029 3.0559757 15 0 0 0 73.402245
1.2243736 -16.61128 3.4380252 24 0 0 0 73.402245
2.2001338 -16.22928 3.3817916 32.5 0 0 0 72.428734
12.52332 -16.057753 3.1988182 152 0 0 0 64.027443
-15.526431 -15.545606 3.4424849 41 0 0 0 87.101799
2.7268014 -15.731988 3.297791 24 0 0 0 71.847519
-21.351282 -14.283705 3.3862314 168 0 0 0 90.224701
12.766361 -14.096134 3.4618766 42 0 0 0 62.847919
3.6056056 -13.040137 3.1313686 36 0 0 0 70.280235
20.323318 -12.872931 3.1835587 50 0 0 0 58.557808
4.0358162 -12.229588 3.2988262 41 0 0 0 69.506989
20.225155 -12.125552 3.1218412 65 0 0 0 58.160713
2.7776184 -11.715248 3.3846045 34 0 0 0 70.871658
9.5757961 -11.677664 3.4971375 61 0 0 0 63.63747
14.601398 -11.991451 3.4421659 65 0 0 0 60.508621
20.35997 -11.536406 3.0987582 35 0 0 0 57.764511
3.6907134 -11.186787 3.3128078 61 0 0 0 69.506989
14.580375 -11.386789 3.3715072 71 0 0 0 60.113647
3.1683769 -10.932311 3.4817319 54.5 0 0 0 70.088348
14.163091 -10.512166 3.2165823 63 0 0 0 59.722721
19.180819 -10.869173 3.467541 38 0 0 0 57.764511
2.8729463 -10.397897 3.0360217 189 0 0 0 70.280235
3.2517149 -9.8544025 3.177289 88 0 0 0 69.506989
2.8268046 -9.3255424 3.4650669 110 0 0 0 69.896461
3.0708029 -9.3135366 3.246933 256 0 0 0 69.506989
3.8186564 -9.2295609 3.3017292 101.5 0 0 0 68.327766
4.8258743 -9.0446863 3.3949184 63 0 0 0 66.770988
7.851337 -9.1137524 3.2386801 308 0 0 0 63.23851
-0.73725009 -8.6074867 3.1787179 322.75 0 0 0 75.950424
2.3684351 -8.8462839 3.4071248 67 0 0 0 70.411278
2.8048425 -8.5000429 3.4048736 49 0 0 0 69.506989
3.845006 -8.683773 3.3792913 19 0 0 0 67.944771
4.3737707 -8.6986523 3.4643126 38 0 0 0 67.154999
3.901439 -8.2594824 3.4756603 90 0 0 0 67.543251
10.258627 -8.0140657 3.3427582 67 0 0 0 60.113647
-5.2529812 -7.2296128 3.2533591 31.666666 0 0 0 84.608627
-4.9240479 -7.3935423 3.3781226 30 0 0 0 83.964592
11.170453 -7.0797815 3.3970351 207 0 0 0 58.557808
-5.4060569 -6.7803116 3.2995112 42.5 0 0 0 85.33313
8.0512562 -6.9557848 3.0027571 86 0 0 0 60.89468
-5.5592337 -6.4668369 3.2454836 16 0 0 0 85.923767
11.831758 -6.1424036 3.261548 325.75 0 0 0 57.181122
-11.339389 -5.0402622 3.493156 336 0 0 0 92.944481
12.99328 -5.0132489 3.2362535 45 0 0 0 55.428581
7.4180603 -4.7031088 3.137048 71 0 0 0 58.557808
7.6930838 -4.8806415 3.0288024 100 0 0 0 58.557808
7.7475853 -4.2733831 3.0499144 58 0 0 0 57.569351
8.0542278 -4.0610991 3.0007458 349 0 0 0 56.988049
7.7830715 -3.9214306 3.1147077 239 0 0 0 56.988049
8.1729374 -3.625242 3.1952057 26 0 0 0 56.200207
9.2086573 -3.8169718 3.0661993 33 0 0 0 55.815033
8.1376467 5.4833751 3.2634346 137 0 0 0 40.199322
6.3292336 5.5206075 3.0043654 197 0 0 0 38.248959
7.0629129 5.8516245 3.0517769 49 0 0 0 38.64056
7.9400225 5.7905312 3.1466889 137 0 0 0 39.618332
8.1751747 5.5103798 3.0339324 38 0 0 0 40.199322
-9.2946177 6.4602423 3.1530252 16 0 0 0 9.3564501
7.463685 6.1859632 3.4612687 145 0 0 0 38.64056
8.230896 6.4779277 3.4791963 55 0 0 0 39.037407
8.6287298 6.4512801 3.0448561 109 0 0 0 39.423882
4.1594582 6.6810679 3.0053217 297 0 0 0 33.564129
5.8195562 6.6637855 3.2692742 107.5 0 0 0 36.101379
7.1109486 6.83777 3.0329041 141 0 0 0 37.47739
8.9943895 6.7258258 3.449167 59 0 0 0 39.423882
4.1943488 7.1184616 3.152338 29 0 0 0 33.172329
5.9363074 7.3227634 3.3630083 43 0 0 0 35.506958
6.0680647 7.1139569 3.1068869 90 0 0 0 35.909279
6.517858 7.269722 3.0007181 134 0 0 0 36.29348
2.9865315 7.9357724 3.2290852 19 0 0 0 30.44326
3.1888845 7.8777742 3.0287442 32 0 0 0 30.82608
4.2559347 7.8587914 3.1819878 104.5 0 0 0 32.590172
2.7136183 8.4440384 3.1572015 70 0 0 0 29.65406
-14.9294 8.8626194 3.1256289 176 0 0 0 8.18538
-14.263433 8.944521 3.2379253 213 0 0 0 8.5778999
2.5677814 8.7060308 3.0069501 74 0 0 0 29.265089
5.2379131 8.6173859 3.2187808 62 0 0 0 33.368229
7.1065412 8.7461119 3.1779017 54 0 0 0 35.506958
-13.747299 9.0955677 3.3731158 265 0 0 0 8.9734201
5.6506014 9.0359268 3.0047076 19 0 0 0 33.564129
-12.556042 10.202394 3.3131309 280 0 0 0 10.53689
-12.317127 10.785145 3.3534608 132 0 0 0 11.114796
-4.44841 10.517796 3.1938579 18 0 0 0 18.33972
-12.210277 11.511158 3.4372423 122 0 0 0 11.69748
-0.42780498 13.967934 3.2220728 118 0 0 0 24.182711
0.59509754 13.807935 3.3559949 183.5 0 0 0 25.35672
3.7517354 13.844842 3.3127356 112 0 0 0 28.871771
4.0584707 13.63972 3.2873223 130 0 0 0 29.265089
-0.084044345 14.799062 3.2320089 199 0 0 0 24.57769
2.1262157 14.891537 3.4695916 195 0 0 0 26.92169
-13.295247 15.275157 3.1491606 86 0 0 0 13.26069
0.28491214 15.017752 3.2781658 163.5 0 0 0 24.97245
0.65730852 15.045892 3.1031256 214 0 0 0 25.35672
1.2784914 15.072337 3.2409885 179.33333 0 0 0 26.012209
1.780475 15.088028 3.1316292 188 0 0 0 26.539539
2.1761308 15.210738 3.1673605 121 0 0 0 26.92169
2.7609704 15.256486 3.196605 204 0 0 0 27.511044
-12.758915 15.796739 3.1584969 114.5 0 0 0 13.844135
-1.6594865 15.973001 3.3033998 80 0 0 0 23.017771
-1.25146 15.80691 3.262676 62 0 0 0 23.406919
-12.819953 17.129669 3.326874 129 0 0 0 14.44202
-12.419466 17.472132 3.3335321 141 0 0 0 14.82575
-12.038434 17.847954 3.3480997 122 0 0 0 15.21332
-11.628325 18.18722 3.3574705 144 0 0 0 15.60989
-11.225571 18.545048 3.3718619 155 0 0 0 15.99824
-10.826825 18.919825 3.3908126 141 0 0 0 16.388229
-10.419629 19.292259 3.4108179 150 0 0 0 16.779829
-6.4495711 22.947594 3.1188886 95 0 0 0 20.287821
25.599459 26.979746 3.0667124 30 0 0 0 36.684601
23.894833 29.222826 3.1083395 58 0 0 0 35.506958
22.870565 30.956575 3.1660001 49 0 0 0 34.73579
23.899591 30.738262 3.2036505 37 0 0 0 35.11734
19.594715 31.081097 3.0204079 65 0 0 0 33.564129
20.664629 31.057804 3.0672805 46 0 0 0 33.94952
21.7766 31.045292 3.1186473 35 0 0 0 34.343021
16.920828 33.792339 3.1004894 30 0 0 0 32.001919
11.428505 34.866634 3.0047386 55 0 0 0 29.65406
12.372189 34.82848 3.0270805 52 0 0 0 30.039989
13.33667 34.805923 3.0534556 55 0 0 0 30.44326
14.301954 34.743832 3.0788772 66 0 0 0 30.82608
15.2968 34.710781 3.1092525 61 0 0 0 31.213829
16.311369 34.676685 3.1420901 52 0 0 0 31.611389
-21.960966 -61.369381 3.7138386 14 0 0 0 80.055351
15.832826 -31.46833 3.7643087 6 0 0 0 67.154999
-20.590977 -26.400545 3.5738399 44 0 0 0 85.133316
1.7275187 -17.551048 3.6384358 25 0 0 0 73.018761
0.82824254 -16.838694 3.6838043 42.5 0 0 0 73.793587
2.385566 -16.079666 3.7543726 33 0 0 0 72.232559
13.504966 -16.465847 3.8712568 58 0 0 0 63.63747
-15.520904 -15.540235 3.9849663 37 0 0 0 87.101799
1.9378873 -15.706963 3.6558211 43 0 0 0 72.624908
2.7041304 -15.585818 3.6545486 24 0 0 0 71.847519
3.0883846 -15.529825 3.6582744 7 0 0 0 71.458687
1.5142622 -15.366018 3.9462714 62 0 0 0 73.018761
2.2427514 -15.120373 3.9074745 76 0 0 0 72.232559
3.4128811 -15.20375 3.6008565 46 0 0 0 71.069969
2.9679317 -14.926075 3.8908122 68 0 0 0 71.458687
3.3098776 -14.746361 3.8644278 19 0 0 0 71.069969
0.34873915 -14.140505 3.9685636 69 0 0 0 74.190437
18.674532 -13.157092 3.5896177 55 0 0 0 59.336433
-0.6354537 -12.987048 3.6503308 90 0 0 0 75.368324
20.219378 -12.807284 3.7601824 24 0 0 0 58.557808
20.353325 -12.202409 3.7290726 43 0 0 0 58.160713
6.7951369 -11.781848 3.7090242 59.333332 0 0 0 66.245506
7.1682243 -11.971213 3.5743136 7 0 0 0 65.982872
8.1860313 -11.634431 3.9980292 160 0 0 0 64.815231
8.8788471 -11.98198 3.8193672 91 0 0 0 64.422035
5.561574 -11.058153 3.7855294 84 0 0 0 67.154999
6.0312152 -11.29688 3.6007159 61 0 0 0 66.770988
8.8033543 -11.290981 3.6685779 98 0 0 0 64.027443
17.753313 -11.24717 3.8269379 85 0 0 0 58.557808
33.477196 -11.057758 3.7870209 12 0 0 0 54.647541
4.7871947 -10.814707 3.9103577 25 0 0 0 67.944771
5.0754628 -10.745979 3.9295249 49 0 0 0 67.543251
7.1092758 -10.648496 3.91641 36 0 0 0 65.204445
8.7118769 -10.626319 3.8642128 33 0 0 0 63.63747
9.8880253 -10.919184 3.7747784 70 0 0 0 62.847919
18.063181 -10.831124 3.8356295 92 0 0 0 58.160713
-21.19066 -10.03662 3.6767454 86 0 0 0 92.555244
3.178555 -10.494734 3.6264858 18 0 0 0 69.896461
18.072115 -10.241797 3.7839844 68 0 0 0 57.764511
2.4849477 -9.9237795 3.635622 19 0 0 0 70.673355
3.2195141 -9.7517643 3.6502743 67 0 0 0 69.506989
7.1920033 -9.7066088 3.6980176 218 0 0 0 64.422035
7.7177272 -9.9014406 3.5330777 170 0 0 0 64.027443
2.8630579 -9.4448729 3.7506788 127 0 0 0 69.896461
3.5323942 -9.165863 3.7341275 247 0 0 0 68.716484
7.906333 -9.1743631 3.7084517 286 0 0 0 63.23851
15.780348 -9.4641933 3.8089986 69 0 0 0 58.160713
3.8485005 -8.6917648 3.6151874 63 0 0 0 67.944771
4.8024349 -8.9935865 3.8762426 31 0 0 0 66.770988
6.8711371 -8.3799925 3.8556442 52 0 0 0 63.63747
8.0092888 -8.4241495 3.8492508 113 0 0 0 62.46455
11.675856 -6.2455463 3.7318244 320 0 0 0 57.374191
11.809628 -5.9485922 3.7272105 406 0 0 0 56.988049
13.332098 -5.5238547 3.7064309 16 0 0 0 55.815033
8.4747725 5.1256866 3.7813475 35 0 0 0 40.985088
8.6499262 5.3763704 3.6368198 41 0 0 0 40.788204
8.9904728 5.7381101 3.5436342 84 0 0 0 40.59132
9.4873857 5.7297549 3.6810749 66 0 0 0 40.985088
9.748683 5.5637918 3.7278168 77 0 0 0 41.370159
9.4936399 6.7371559 3.8627467 55 0 0 0 39.812778
5.1783423 7.8608942 3.5869443 46 0 0 0 33.94952
5.6791916 8.1700382 3.5454345 77 0 0 0 34.343021
-14.917955 8.8536196 3.7587759 179.5 0 0 0 8.18538
-14.180972 8.8886538 3.8314331 198 0 0 0 8.5778999
-13.714439 9.069994 3.764993 234 0 0 0 8.9734201
5.3846078 9.1037798 3.5043745 77 0 0 0 33.172329
5.5057673 9.3143101 3.8495796 76 0 0 0 33.172329
-12.738209 9.8385038 3.6876297 144 0 0 0 10.14099
-12.548096 10.191985 3.7042551 176 0 0 0 10.53689
-12.31018 10.775204 3.7496247 130.5 0 0 0 11.114796
46.675716 10.514334 3.9641876 16 0 0 0 46.055752
-12.214408 11.510748 3.8467629 149 0 0 0 11.69748
-12.291211 12.172225 3.5430713 95 0 0 0 12.08752
46.207146 12.824021 3.9712358 16 0 0 0 45.283127
0.57701206 13.436861 3.7676096 213 0 0 0 25.35672
4.0535212 13.624246 3.6327167 63 0 0 0 29.265089
0.96210074 14.176235 3.9790914 99 0 0 0 25.74885
-0.085297629 14.513443 3.7016428 163 0 0 0 24.57769
2.3137674 14.895648 3.8474035 160 0 0 0 27.12019
2.6873331 14.87965 3.673264 153 0 0 0 27.511044
3.2516644 14.844861 3.8795037 69 0 0 0 28.094299
3.6738274 14.991914 3.5613887 216 0 0 0 28.489571
4.0525355 14.93813 3.9517279 14 0 0 0 28.871771
0.29113555 15.357604 3.9162176 95 0 0 0 24.97245
1.2322626 15.305662 3.9166839 130 0 0 0 25.946369
1.7784098 15.096203 3.6910038 109.5 0 0 0 26.539539
2.9426522 15.207933 3.5727892 122 0 0 0 27.7034
3.3133769 15.120035 3.5707614 171 0 0 0 28.094299
3.6895738 15.056281 3.957164 34 0 0 0 28.489571
-12.547855 15.930231 3.6546576 121 0 0 0 14.03787
-0.865403 15.82636 3.6494122 139 0 0 0 23.79689
-2.070761 16.058584 3.7255914 131 0 0 0 22.62055
-1.6667868 16.015553 3.7057583 101 0 0 0 23.017771
-12.783901 17.080729 3.8440943 90 0 0 0 14.44202
-12.406109 17.45273 3.8584664 133 0 0 0 14.82575
1.1827384 17.213856 3.9727437 123 0 0 0 25.74885
-12.01384 17.810747 3.8715923 123 0 0 0 15.21332
-11.615074 18.165833 3.8859346 135 0 0 0 15.60989
-11.21215 18.522181 3.9023833 129 0 0 0 15.99824
-10.814214 18.897058 3.9244561 134 0 0 0 16.388229
-10.399894 19.254852 3.9447548 130 0 0 0 16.779829
-7.3904018 22.065592 3.6200449 91 0 0 0 19.50235
-6.9186597 22.477882 3.6585448 81 0 0 0 19.90333
-6.4438591 22.925886 3.7044978 69 0 0 0 20.287821
-4.928257 24.282291 3.8546481 104 0 0 0 21.462959
-4.3909836 24.741768 3.9093451 93 0 0 0 21.84774
17.580215 31.18795 3.8117628 75 0 0 0 32.786282
18.554255 31.10228 3.8567095 52 0 0 0 33.172329
19.606337 31.100868 3.9158459 55 0 0 0 33.564129
20.646202 31.031546 3.9706037 53 0 0 0 33.94952
16.815069 31.622952 3.8119943 44 0 0 0 32.394058
11.420837 34.845551 3.8938723 50 0 0 0 29.65406
12.36546 34.811691 3.9232361 60 0 0 0 30.039989
13.322824 34.771931 3.9552817 53 0 0 0 30.44326
14.296874 34.733444 3.9906409 66 0 0 0 30.82608
17.084591 -28.506752 4.3723197 12 0 0 0 65.982872
1.3831559 -28.092781 4.3944855 9 0 0 0 73.793587
14.131903 -18.117676 4.173645 25 0 0 0 64.027443
1.7176218 -17.420418 4.0399237 26 0 0 0 73.018761
12.130759 -17.23542 4.3491015 54 0 0 0 64.815231
0.0034372478 -16.97374 4.3342261 16 0 0 0 74.586075
0.83233541 -16.89282 4.3192282 9 0 0 0 73.793587
2.0378706 -16.514992 4.2505903 57 0 0 0 72.624908
0.0029428662 -15.987914 4.4813585 32 0 0 0 74.586075
2.7215106 -15.686078 4.0685663 31 0 0 0 71.847519
11.807514 -15.93213 4.0945492 30 0 0 0 64.422035
2.2685659 -15.29425 4.3359699 65 0 0 0 72.232559
2.6797345 -15.446346 4.3961821 59 0 0 0 71.847519
1.2883186 -14.257648 4.2499118 85.666664 0 0 0 73.146584
1.7643224 -14.29603 4.2173309 66 0 0 0 72.624908
-0.6453082 -13.2365 4.045495 58 0 0 0 75.368324
-0.32256997 -13.273863 4.2186193 39 0 0 0 74.969078
-0.62761539 -12.824913 4.2381606 64 0 0 0 75.368324
5.9863563 -12.663703 4.2790375 26 0 0 0 67.543251
-21.364662 -12.118942 4.456831 35 0 0 0 91.395851
5.9281526 -11.790524 4.36024 79 0 0 0 67.154999
6.2011733 -11.609774 4.0235701 28 0 0 0 66.770988
6.8139677 -11.697847 4.1383009 19.5 0 0 0 66.179848
7.5376716 -11.910463 4.3075919 10 0 0 0 65.596489
8.5512886 -11.540919 4.0368915 230 0 0 0 64.422035
13.645754 -11.776231 4.1701965 68 0 0 0 60.89468
-21.360067 -11.432662 4.3969135 7 0 0 0 91.774658
7.7615223 -10.750804 4.3837757 67 0 0 0 64.618637
8.4175186 -10.793466 4.1856995 63 0 0 0 64.027443
9.618577 -10.622319 4.029191 149 0 0 0 62.847919
47.314892 -10.615864 4.0186973 9 0 0 0 53.086761
-21.245747 -10.062853 4.2683945 40 0 0 0 92.555244
11.369768 -10.312749 4.3152184 83 0 0 0 61.288391
7.340158 -9.9027233 4.3799119 83 0 0 0 64.422035
7.6341023 -9.7946234 4.10812 141 0 0 0 64.027443
8.8180561 -9.7366781 4.0197544 190 0 0 0 62.847919
48.303623 -9.5979996 4.0815711 20 0 0 0 52.692341
7.9234934 -9.1943779 4.1659746 135.5 0 0 0 63.23851
8.4737158 -9.3542004 4.4857554 53 0 0 0 62.847919
9.871954 -8.9535933 4.0795045 35 0 0 0 61.288391
7.1641636 -7.9118605 4.0605855 51 0 0 0 62.847919
10.832413 -7.6334562 4.0587859 55 0 0 0 59.336433
9.2019539 -7.185452 4.1552091 30 0 0 0 60.113647
10.391858 -6.2352152 4.0166168 55 0 0 0 58.160713
11.72253 -5.9022989 4.0229568 212 0 0 0 56.988049
12.539546 -5.5584621 4.2034893 119 0 0 0 56.200207
11.409624 -5.0610657 4.1380558 122 0 0 0 56.200207
10.007167 5.3929591 4.0547071 10 0 0 0 41.761341
51.159466 5.0646381 4.2607231 14 0 0 0 48.01403
9.9377422 5.6759939 4.081346 24 0 0 0 41.370159
8.9660664 6.0433135 4.1229801 25 0 0 0 40.199322
9.0354576 6.4188967 4.2246504 53 0 0 0 39.812778
9.9548254 6.7059426 4.2768593 41 0 0 0 40.199322
50.795052 7.5639668 4.2547431 19 0 0 0 47.226158
-14.859841 8.8167677 4.3764143 144 0 0 0 8.18538
-14.18238 8.8892717 4.2405744 185 0 0 0 8.5778999
-13.696997 9.0581179 4.1612444 266 0 0 0 8.9734201
-13.396156 9.3377991 4.1386795 212 0 0 0 9.3564501
-13.080464 9.6013145 4.1131654 119 0 0 0 9.7463102
-12.729856 9.8315945 4.2767215 221.5 0 0 0 10.14099
-12.512115 10.162141 4.2865086 213 0 0 0 10.53689
-12.287836 10.755283 4.1418791 229.5 0 0 0 11.114796
-12.191479 11.488683 4.2489796 170 0 0 0 11.69748
47.609489 11.960986 4.0652919 12 0 0 0 45.671352
-12.300057 12.176144 4.389904 79 0 0 0 12.08752
0.55816376 13.051645 4.3044586 126 0 0 0 25.35672
1.243613 13.465959 4.4561214 182 0 0 0 26.14389
1.2643487 13.701818 4.193306 152 0 0 0 26.14389
-0.78119189 14.094771 4.29702 181 0 0 0 23.79689
-0.32154474 14.354005 4.2537084 154.33333 0 0 0 24.314369
0.95627254 14.133248 4.3152165 166 0 0 0 25.74885
2.3979559 14.309233 4.4215236 151 0 0 0 27.318689
3.5295691 14.415203 4.158813 171 0 0 0 28.489571
-13.797935 14.721945 4.1299376 96 0 0 0 12.67402
-0.085555002 14.530491 4.0665722 61 0 0 0 24.57769
0.27831623 14.816506 4.1472526 122 0 0 0 24.97245
1.3680958 14.742284 4.1453857 105 0 0 0 26.14389
1.7161694 14.601013 4.2982197 161.5 0 0 0 26.539539
2.3137059 14.898602 4.2226286 84 0 0 0 27.12019
2.8488059 14.735802 4.2041864 123 0 0 0 27.7034
3.1909845 14.574282 4.1800289 154 0 0 0 28.094299
-12.534531 15.912776 4.1475677 84 0 0 0 14.03787
-2.0617859 15.984691 4.1037641 160 0 0 0 22.62055
-1.6586201 15.931329 4.0792041 132 0 0 0 23.017771
-1.255663 15.81955 4.0423961 133 0 0 0 23.406919
-0.863554 15.784844 4.0276356 143 0 0 0 23.79689
-0.47256923 15.690084 4.0001364 164 0 0 0 24.182711
-2.4986537 16.229183 4.1797624 41 0 0 0 22.231649
-12.781025 17.076393 4.3664541 101 0 0 0 14.44202
-12.387865 17.42642 4.3773298 103 0 0 0 14.82575
-11.995518 17.782904 4.3919806 145 0 0 0 15.21332
-11.591993 18.128971 4.4062171 134 0 0 0 15.60989
-11.206428 18.512117 4.4314156 127 0 0 0 15.99824
-10.802172 18.875299 4.4538097 126 0 0 0 16.388229
-10.395556 19.24617 4.4799809 139 0 0 0 16.779829
-7.82587 21.586824 4.1396027 59 0 0 0 19.11426
-7.3672948 21.994974 4.1818457 64 0 0 0 19.50235
-6.9127812 22.457548 4.2360444 84 0 0 0 19.90333
-6.4315796 22.880554 4.2847447 90 0 0 0 20.287821
-5.9389153 23.313263 4.3373189 76 0 0 0 20.674669
-5.4389744 23.780554 4.3981824 82 0 0 0 21.067739
-4.9191952 24.235245 4.4587045 115 0 0 0 21.462959
23.941282 29.280706 4.0337682 40 0 0 0 35.506958
21.732107 30.98336 4.0323257 56 0 0 0 34.343021
22.84923 30.929071 4.097858 42 0 0 0 34.73579
23.907509 30.749702 4.1515484 33 0 0 0 35.11734
16.917839 33.788059 4.0183573 52 0 0 0 32.001919
15.287896 34.692482 4.0288601 59 0 0 0 31.213829
16.291433 34.636215 4.0685844 47 0 0 0 31.611389
1.4441239 -58.711948 4.8140936 21 0 0 0 74.190437
15.620142 -31.032925 4.5674481 6 0 0 0 67.154999
0.0044840588 -29.938501 4.6749101 10 0 0 0 74.586075
2.2074099 -29.88224 4.6795015 17 0 0 0 73.402245
0.003560015 -27.046545 4.8959303 8 0 0 0 74.586075
12.767566 -19.118153 4.7401624 71 0 0 0 65.204445
-2.5911229 -17.513424 4.9583454 21 0 0 0 76.928398
-0.41855204 -17.212236 4.8233614 29 0 0 0 74.969078
0.82169688 -16.6793 4.6797223 50 0 0 0 73.793587
0.80421984 -16.270466 4.9663038 23 0 0 0 73.793587
3.2555048 -16.368649 4.6781778 22 0 0 0 71.458687
12.83984 -16.457697 4.8196182 64 0 0 0 64.027443
-21.021479 -15.60916 4.7462544 64 0 0 0 89.432228
2.7372851 -15.761211 4.8785615 5 0 0 0 71.847519
14.20814 -15.680597 4.8867073 110 0 0 0 62.847919
0.19129358 -15.223516 4.6436195 28.5 0 0 0 74.38826
3.2525182 -15.353248 4.7874632 26.5 0 0 0 71.264328
1.4322995 -14.539285 4.8188353 24 0 0 0 73.018761
2.1966157 -14.802536 4.7523212 30 0 0 0 72.232559
3.7486706 -14.962264 4.7059398 51 0 0 0 70.673355
1.0682911 -14.47264 4.7866445 34 0 0 0 73.402245
3.9458742 -14.268485 4.8843164 31 0 0 0 70.280235
0.17232014 -13.640905 4.6676273 99 0 0 0 74.38826
3.0402317 -13.549015 4.5828357 18 0 0 0 71.069969
19.306517 -13.60206 4.8762622 25 0 0 0 59.336433
0.33302885 -13.33068 4.727345 71 0 0 0 74.190437
1.9952999 -13.426754 4.8126135 63 0 0 0 72.232559
5.4578762 -13.188617 4.7120185 34 0 0 0 68.327766
-1.7378454 -12.85413 4.758604 131 0 0 0 76.735809
-0.62343109 -12.830259 4.7117386 72 0 0 0 75.368324
14.325933 -12.9891 4.9459381 45 0 0 0 61.288391
7.4457855 -12.434263 4.7864227 19 0 0 0 65.982872
7.2903395 -11.525037 4.5062003 28 0 0 0 65.596489
14.030562 -11.519569 4.646307 78 0 0 0 60.508621
5.6565604 -11.242143 4.776525 33 0 0 0 67.154999
6.2458944 -11.030277 4.5009751 12 0 0 0 66.376823
6.7880664 -11.019105 4.7553501 32.5 0 0 0 65.78968
7.4496746 -11.153278 4.7618246 152 0 0 0 65.204445
8.5958052 -11.017898 4.9612513 117 0 0 0 64.027443
9.251709 -11.283689 4.8213882 33 0 0 0 63.63747
-21.314577 -10.743943 4.9204884 4 0 0 0 92.160927
7.3558722 -10.727406 4.7795277 62 0 0 0 65.009842
-21.255156 -10.067471 4.8492351 44 0 0 0 92.555244
7.6952634 -10.380822 4.9065876 122 0 0 0 64.422035
8.2335663 -10.037409 4.9302726 52 0 0 0 63.63747
7.5582132 -9.6907339 4.6686502 59 0 0 0 64.027443
7.9581413 -9.2313957 4.6312838 168 0 0 0 63.23851
-21.355921 -8.859375 4.7686744 38 0 0 0 93.341202
15.726342 -8.9108152 4.6299124 61 0 0 0 57.764511
-21.362556 -8.2533541 4.7242799 37 0 0 0 93.735123
11.743206 -7.0386453 4.8687782 62 0 0 0 58.160713
11.352097 -6.4311762 4.8021975 161.5 0 0 0 57.764511
11.992336 -5.6704903 4.7206392 154 0 0 0 56.592522
12.578893 -5.9525719 4.6085286 141 0 0 0 56.592522
-14.841511 8.8055506 4.7974625 155 0 0 0 8.18538
-14.158964 8.8742332 4.6464744 168 0 0 0 8.5778999
-13.659027 9.0307369 4.7542171 208 0 0 0 8.9734201
-13.425929 9.3546686 4.9520068 8 0 0 0 9.3564501
-12.689528 9.796299 4.8530197 240 0 0 0 10.14099
-12.487591 10.138056 4.8699636 230 0 0 0 10.53689
-12.271308 10.73819 4.7384477 180 0 0 0 11.114796
-12.179688 11.477184 4.6587129 200 0 0 0 11.69748
-12.275212 12.151054 4.8082628 130 0 0 0 12.08752
1.227383 13.349578 4.7462282 172 0 0 0 26.14389
-1.1049285 13.770517 4.7146788 138.5 0 0 0 23.406919
-0.77825588 13.980002 4.9511485 136 0 0 0 23.79689
-0.7769109 14.054408 4.6325645 163 0 0 0 23.79689
-0.31964803 14.259084 4.8103051 138 0 0 0 24.314371
0.95217645 14.081489 4.8213606 135 0 0 0 25.74885
2.2346478 14.407713 4.8037086 108.5 0 0 0 27.12019
2.727778 14.125885 4.7411995 124 0 0 0 27.7034
3.6816907 14.283456 4.6792727 159.5 0 0 0 28.680672
-13.78433 14.701596 4.6166091 81 0 0 0 12.67402
0.27780169 14.865811 4.7100682 102.5 0 0 0 24.97245
1.724628 14.662889 4.862484 133 0 0 0 26.539539
3.1891835 14.579404 4.5483437 75 0 0 0 28.094299
-13.249713 15.215932 4.6223893 130 0 0 0 13.26069
0.66267812 15.290016 4.6587009 92 0 0 0 25.35672
-12.698986 15.715038 4.6300306 96.5 0 0 0 13.844135
-2.5069723 16.283131 4.6022153 134 0 0 0 22.231649
-0.91666466 16.832333 4.7110114 115 0 0 0 23.79689
-12.766891 17.050718 4.8803911 75 0 0 0 14.44202
-12.369716 17.393808 4.8907228 86 0 0 0 14.82575
-11.972551 17.741451 4.90482 111 0 0 0 15.21332
-11.588698 18.116287 4.9286823 115 0 0 0 15.60989
-11.189073 18.475418 4.9505363 108 0 0 0 15.99824
-10.786431 18.839388 4.975935 117 0 0 0 16.388229
-9.9921856 19.638145 4.5129251 78 0 0 0 17.16815
-9.1444139 20.39242 4.5777817 100 0 0 0 17.944401
-8.2624359 21.152254 4.6517611 104 0 0 0 18.733641
-7.8258357 21.585861 4.7034054 91 0 0 0 19.11426
-6.9049516 22.430815 4.8076367 89 0 0 0 19.90333
-6.4209356 22.841116 4.8603778 104 0 0 0 20.287821
-5.9301243 23.277035 4.9208732 101 0 0 0 20.674669
-5.4272957 23.727322 4.9865642 68 0 0 0 21.067739
-4.3848796 24.704746 4.5239968 95 0 0 0 21.84774
-2.0775697 26.843269 4.8545437 69 0 0 0 23.406919
21.712408 30.968172 4.9605083 26 0 0 0 34.343021
17.560015 31.166391 4.6889229 60 0 0 0 32.786282
18.533854 31.08193 4.7441969 70 0 0 0 33.172329
19.57761 31.068836 4.81498 53 0 0 0 33.564129
20.625698 31.013901 4.8843699 36 0 0 0 33.94952
16.822933 31.652521 4.6970716 37 0 0 0 32.394058
16.996002 33.960102 4.9725485 43 0 0 0 32.001919
6.8515592 34.943775 4.6550159 59 0 0 0 27.7034
7.7470722 34.939625 4.6788888 65 0 0 0 28.094299
8.645092 34.9067 4.7019958 63 0 0 0 28.489571
9.5527401 34.874565 4.728333 57 0 0 0 28.871771
11.412177 34.841923 4.7950487 53 0 0 0 29.65406
12.345727 34.77766 4.8269444 63 0 0 0 30.039989
13.297976 34.727425 4.8647294 47 0 0 0 30.44326
14.27354 34.696041 4.9089956 57 0 0 0 30.82608
15.263163 34.654755 4.9557419 44 0 0 0 31.213829
-22.125534 -57.382999 5.0374517 18 0 0 0 80.448769
-20.820709 -28.100212 5.4567862 42 0 0 0 84.737152
-20.559101 -26.369633 5.2189384 60 0 0 0 85.133316
12.49587 -18.704992 5.1896768 43 0 0 0 65.204445
13.095024 -18.596931 5.2474093 25 0 0 0 64.815231
-2.217068 -18.027794 5.0862865 14 0 0 0 76.543228
13.031608 -17.575262 5.0496092 85 0 0 0 64.422035
-2.9407458 -17.006191 5.258606 35 0 0 0 77.320648
-2.2796988 -16.846823 5.1808586 35 0 0 0 76.735809
36.212715 -16.044529 5.2216134 12 0 0 0 56.200207
-21.042913 -15.625256 5.3961205 112 0 0 0 89.432228
-5.1197476 -15.527718 5.3878546 8 0 0 0 79.665154
0.78311658 -15.903172 5.248621 29 0 0 0 73.793587
-21.36986 -15.0687 5.3840094 28 0 0 0 89.82798
-5.4178791 -15.170935 5.309094 16 0 0 0 80.055351
-1.8607714 -15.127774 5.0247493 15 0 0 0 76.543228
2.8039775 -15.066733 5.0545816 51.5 0 0 0 71.653107
1.8404541 -14.87967 5.312151 47 0 0 0 72.624908
2.7191195 -14.585676 5.2581792 35 0 0 0 71.653107
3.7027993 -14.790826 5.029285 33 0 0 0 70.673355
-21.437048 -14.341607 5.3115778 26 0 0 0 90.224701
-0.34260076 -14.261316 5.2291021 30.5 0 0 0 74.969078
1.0561457 -14.242329 5.0610843 31 0 0 0 73.402245
2.1215804 -14.273785 5.4677172 9 0 0 0 72.232559
3.1582248 -14.050757 5.1047373 29 0 0 0 71.069969
-21.461746 -13.607801 5.2343345 22 0 0 0 90.622398
-3.8469422 -13.948535 5.4805355 81 0 0 0 78.879105
2.7747898 -13.933622 5.3840818 66 0 0 0 71.458687
3.0981233 -13.784387 5.3546109 23 0 0 0 71.069969
-5.0275402 -13.072758 5.3064103 45 0 0 0 80.448769
-1.6381598 -13.354281 5.0982823 16 0 0 0 76.543228
15.498254 -13.372595 5.2338924 59 0 0 0 60.89468
-21.334175 -12.803925 5.1262121 5 0 0 0 91.003395
30.472012 -12.617115 5.1717963 8 0 0 0 55.815033
-21.273251 -12.067303 5.0399365 32 0 0 0 91.395851
7.7208538 -12.194926 5.1212935 22 0 0 0 65.596489
7.1864152 -11.99282 5.3040457 35 0 0 0 65.982872
-21.416479 -11.463003 5.0063739 4 0 0 0 91.774658
7.7563896 -11.017394 5.1141706 88 0 0 0 64.815231
13.61131 -11.172115 5.3793039 61 0 0 0 60.508621
-21.32991 -10.107569 5.4446139 26 0 0 0 92.555244
9.8028364 -10.298995 5.0492382 60 0 0 0 62.46455
46.671021 -10.471508 5.127224 17 0 0 0 53.086761
10.661042 -9.6646843 5.4640093 111 0 0 0 61.288391
47.388435 -9.4162598 5.1794286 9 0 0 0 52.692341
-21.311968 -8.8456736 5.3244185 28 0 0 0 93.341202
-21.302042 -8.2344208 5.2706823 25 0 0 0 93.735123
-21.162239 -7.5885754 5.1894593 45 0 0 0 94.124565
11.315063 -6.7826104 5.0164971 142 0 0 0 58.160713
12.821872 -6.4519749 5.4563608 133 0 0 0 56.988049
12.153377 -5.7465191 5.1134257 219 0 0 0 56.592522
12.775398 -5.6602535 5.3138471 143 0 0 0 56.200207
12.910959 -4.9765816 5.2634568 53 0 0 0 55.428581
13.190826 -4.7152305 5.3286543 32 0 0 0 55.042461
13.745907 -4.9132094 5.1927466 22 0 0 0 55.042461
14.049911 -4.6354661 5.2628727 18 0 0 0 54.647541
50.55249 3.7532377 5.4347997 23 0 0 0 48.408169
49.625332 4.9132371 5.3464808 20 0 0 0 48.01403
50.235218 7.4810929 5.4430342 28 0 0 0 47.226158
-14.793506 8.7731495 5.2021952 149 0 0 0 8.18538
-14.135912 8.8575773 5.2517562 178.5 0 0 0 8.5778999
-13.637443 9.0176754 5.3493347 169 0 0 0 8.9734201
-12.684738 9.7958221 5.2462592 201 0 0 0 10.14099
-12.458217 10.117363 5.2542028 191 0 0 0 10.53689
-12.245823 10.717215 5.32898 194.5 0 0 0 11.114796
47.327469 10.661518 5.1984553 15 0 0 0 46.055752
-12.163095 11.458975 5.2667551 151 0 0 0 11.69748
-12.28789 12.159121 5.2356763 96 0 0 0 12.08752
47.880497 12.029557 5.2884526 8 0 0 0 45.671352
1.2351609 13.432323 5.1057553 149 0 0 0 26.14389
-1.2637004 13.616068 5.1700025 148.5 0 0 0 23.212345
3.1572418 13.915294 5.2865319 112.66666 0 0 0 28.226057
0.97413826 14.425576 5.4694824 121 0 0 0 25.74885
2.4064617 14.37673 5.1599445 125 0 0 0 27.318689
2.7229116 14.129139 5.2710848 141.5 0 0 0 27.7034
4.196559 14.119515 5.2172694 53 0 0 0 29.265089
-13.758921 14.674004 5.1002688 117.5 0 0 0 12.67402
0.27288225 14.836559 5.2477283 99 0 0 0 24.97245
1.7237934 14.700784 5.2375083 129 0 0 0 26.539539
2.0664673 14.529208 5.1939201 116 0 0 0 26.92169
-13.218613 15.17959 5.1040421 76 0 0 0 13.26069
-0.092925861 15.462176 5.4660444 78 0 0 0 24.57769
0.64972544 15.083819 5.3394227 72 0 0 0 25.35672
-12.862306 15.523125 5.1125002 108 0 0 0 13.6504
-12.484491 15.842295 5.1158056 106 0 0 0 14.03787
-12.745218 17.02113 5.3926096 74 0 0 0 14.44202
-12.36318 17.384081 5.4103456 79 0 0 0 14.82575
-12.023297 17.816639 5.4518213 34 0 0 0 15.21332
-11.587351 18.113649 5.4545908 93 0 0 0 15.60989
-11.174024 18.44986 5.4720449 100 0 0 0 15.99824
-10.381799 19.211878 5.0057683 118 0 0 0 16.779829
-9.5617857 19.982792 5.0785203 89 0 0 0 17.55792
-9.1239901 20.336256 5.1101017 109 0 0 0 17.944401
-8.2818794 21.190706 5.2163506 50 0 0 0 18.733641
-6.8753242 22.318575 5.3547544 6 0 0 0 19.90333
-6.4199042 22.820847 5.4357629 98 0 0 0 20.287821
-4.9112291 24.193689 5.0578518 96 0 0 0 21.462959
-4.3930078 24.749222 5.1499014 66 0 0 0 21.84774
23.950142 30.816799 5.1203566 34 0 0 0 35.11734
22.902355 31.013449 5.0570698 10 0 0 0 34.73579
16.333376 34.742565 5.0250683 61 0 0 0 31.611389
12.255061 -18.345215 5.6323051 22 0 0 0 65.204445
12.714513 -18.057442 5.6385298 44 0 0 0 64.815231
-3.0423539 -17.575636 5.8749237 15 0 0 0 77.320648
0.0037536963 -17.956398 5.9147286 30 0 0 0 74.586075
-15.415377 -17.035042 5.8579326 17 0 0 0 86.31179
-2.5761366 -17.411823 5.7977648 61 0 0 0 76.928398
14.078337 -17.158482 5.6680517 52 0 0 0 63.63747
-3.3585126 -16.922459 5.6834035 18 0 0 0 77.710121
-3.1722705 -16.013119 5.779388 16 0 0 0 77.710121
-2.2982481 -15.569963 5.5732064 25 0 0 0 76.928398
0.78647089 -15.859949 5.623723 48 0 0 0 73.793587
-5.4509177 -15.280272 5.744102 45 0 0 0 80.055351
-4.9785671 -15.117455 5.6358085 79 0 0 0 79.665154
-3.2349172 -15.345846 5.9381332 20.5 0 0 0 77.902222
0.19319814 -15.22585 5.7670784 54 0 0 0 74.38826
-21.261465 -14.998062 5.9946189 134 0 0 0 89.82798
-2.5680213 -14.865276 5.7125921 40 0 0 0 77.320648
0.73079574 -14.7457 5.5923834 58 0 0 0 73.793587
1.8027301 -14.576235 5.5641866 34 0 0 0 72.624908
-21.258795 -14.22799 5.8946867 163 0 0 0 90.224701
-4.2415094 -14.028156 5.550673 28 0 0 0 79.266434
-21.243711 -13.475036 5.7981005 135 0 0 0 90.622398
-21.185501 -12.719969 5.6963673 126 0 0 0 91.003395
-21.240616 -12.05388 5.6308103 25 0 0 0 91.395851
-21.310356 -11.411202 5.5741782 19 0 0 0 91.774658
-21.349295 -10.766268 5.5144215 20 0 0 0 92.160927
-21.172087 -10.033007 5.9802127 121 0 0 0 92.555244
11.169611 -9.6363926 5.601162 84 0 0 0 60.89468
-21.202299 -9.4170513 5.9224939 79 0 0 0 92.944481
-21.090708 -8.7540731 5.8305888 135 0 0 0 93.341202
-21.176573 -8.1861162 5.7977066 14 0 0 0 93.735123
-21.206295 -7.6045079 5.7537518 19 0 0 0 94.124565
12.336817 -7.8117652 5.5478735 27 0 0 0 58.557808
-20.495184 -6.7864985 5.5159583 132 0 0 0 94.52652
51.988049 6.440464 5.6136546 8 0 0 0 47.624779
-14.786495 8.7721672 5.6233306 149 0 0 0 8.18538
-14.091614 8.824131 5.8445859 147 0 0 0 8.5778999
-13.623465 9.0012989 5.7407732 189 0 0 0 8.9734201
-12.674527 9.7805681 5.631072 187 0 0 0 10.14099
-12.365098 10.288843 5.659502 168 0 0 0 10.72695
-12.165305 10.903375 5.74822 168 0 0 0 11.31258
-12.109057 11.401282 5.8527532 143 0 0 0 11.69748
-12.216791 12.092182 5.6296515 125 0 0 0 12.08752
-13.917642 14.482772 5.5893769 92 0 0 0 12.48137
-13.562469 14.823908 5.5916734 130 0 0 0 12.86667
-13.203911 15.162194 5.5960937 104 0 0 0 13.26069
-12.833816 15.488107 5.5991669 106 0 0 0 13.6504
0.28474182 15.367012 5.8104768 70 0 0 0 24.97245
0.6495508 15.085381 5.7096643 93 0 0 0 25.35672
-12.473456 15.827767 5.6102476 92 0 0 0 14.03787
-0.09336412 15.572291 5.8859506 30 0 0 0 24.57769
1.8382243 15.644005 5.9572859 52 0 0 0 26.539539
2.2275031 15.629587 5.9715629 115 0 0 0 26.92169
-12.729966 17.000162 5.9121394 52 0 0 0 14.44202
-12.334296 17.34272 5.9248085 94 0 0 0 14.82575
-11.982536 17.755337 5.9639277 31 0 0 0 15.21332
-11.566157 18.079773 5.9762998 86 0 0 0 15.60989
-11.1609 18.427496 5.9993567 91 0 0 0 15.99824
-10.774104 18.817141 5.5012412 109 0 0 0 16.388229
-10.321095 19.098129 5.5081401 19 0 0 0 16.779829
-9.9403133 19.525721 5.5595994 65 0 0 0 17.16815
-9.1350489 20.360405 5.6629763 50 0 0 0 17.944401
-8.6999369 20.740631 5.7077861 64 0 0 0 18.33972
-8.2739964 21.169554 5.7682586 68 0 0 0 18.733641
-7.8184013 21.551626 5.8184457 68 0 0 0 19.11426
-5.9269042 23.245825 5.5009384 86 0 0 0 20.674669
-5.4307823 23.722023 5.5805755 90 0 0 0 21.067739
-4.9149528 24.188643 5.6604457 70 0 0 0 21.462959
-3.8452032 25.226404 5.8522477 5 0 0 0 22.231649
19.512459 30.96715 5.7056193 18 0 0 0 33.564129
20.591579 30.964119 5.7973495 48 0 0 0 33.94952
21.67136 30.911133 5.8862157 42 0 0 0 34.343021
22.773136 30.840212 5.9783282 30 0 0 0 34.73579
17.529312 31.113562 5.5652289 34 0 0 0 32.786282
18.548782 31.108343 5.6449656 23 0 0 0 33.172329
16.896204 31.791473 5.6088963 27 0 0 0 32.394058
17.047447 34.064274 5.9307375 35 0 0 0 32.001919
8.6415348 34.895172 5.5901785 57 0 0 0 28.489571
9.5410881 34.834831 5.6169157 64 0 0 0 28.871771
10.458075 34.801414 5.6517472 75 0 0 0 29.265089
11.386887 34.767334 5.6904073 54 0 0 0 29.65406
12.326621 34.726196 5.7319798 63 0 0 0 30.039989
13.285752 34.697659 5.7802973 53 0 0 0 30.44326
14.251826 34.645405 5.829248 53 0 0 0 30.82608
15.244894 34.615295 5.8864813 39 0 0 0 31.213829
16.310816 34.696548 5.9675951 54 0 0 0 31.611389
17.773342 -28.070827 6.0164981 9 0 0 0 65.596489
1.7831597 -18.021664 6.4096584 17 0 0 0 73.018761
-21.063618 -15.646513 6.0445385 90 0 0 0 89.432228
1.5774676 -15.950731 6.0692606 41 0 0 0 73.018761
2.738498 -15.753041 6.0552363 58 0 0 0 71.847519
-15.467779 -15.493116 6.1283565 9 0 0 0 87.101799
-5.3747644 -15.066942 6.0561585 20 0 0 0 80.055351
-21.229733 -13.466356 6.4118762 167 0 0 0 90.622398
14.342769 -13.004736 6.3889451 56 0 0 0 61.288391
-21.215002 -12.737845 6.3121243 153 0 0 0 91.003395
-21.209538 -12.036432 6.2217164 130 0 0 0 91.395851
14.379262 -12.408756 6.2689056 41 0 0 0 60.89468
13.680197 -11.798161 6.4076982 25 0 0 0 60.89468
15.728007 -11.668234 6.464344 43 0 0 0 59.722721
-21.198034 -11.351275 6.1357241 162 0 0 0 91.774658
-21.214331 -10.69843 6.0635014 194 0 0 0 92.160927
15.0212 -10.033027 6.4101281 25 0 0 0 58.939758
46.193211 -10.355915 6.2399983 16 0 0 0 53.086761
47.672947 -9.4641075 6.4062824 9 0 0 0 52.692341
-21.126236 -8.7689629 6.4090228 166 0 0 0 93.341202
-21.161077 -8.1802855 6.3575454 174 0 0 0 93.735123
-21.147232 -7.5834966 6.296401 179 0 0 0 94.124565
-20.4219 -6.7623954 6.0312557 163 0 0 0 94.52652
-21.11298 -6.4201183 6.1864505 62 0 0 0 94.910484
-14.750147 8.7431364 6.2352619 136.5 0 0 0 8.18538
-14.080359 8.8167715 6.2447252 157 0 0 0 8.5778999
-13.611979 8.9933958 6.1334701 148 0 0 0 8.9734201
-13.406155 9.833353 6.2520037 5 0 0 0 9.7463102
-12.641929 9.7549706 6.0057425 187 0 0 0 10.14099
-12.345152 10.271907 6.0418797 180 0 0 0 10.72695
-12.148725 10.888116 6.1381373 172 0 0 0 11.31258
-12.109509 11.401404 6.2585735 114 0 0 0 11.69748
