# .PCD v0.7 - Point Cloud Data file format
VERSION 0.7
FIELDS x y z intensity normal_x normal_y normal_z curvature
SIZE 4 4 4 4 4 4 4 4
TYPE F F F F F F F F
COUNT 1 1 1 1 1 1 1 1
WIDTH 914
HEIGHT 1
VIEWPOINT 0 0 0 1 0 0 0
POINTS 914
DATA ascii
23.180798 4.0599298 -0.89398193 779 0 0 0 46.81879
-10.138886 4.7318225 -0.70244646 277.33334 0 0 0 6.6357837
-7.3765874 4.7289896 -0.75281161 341.5 0 0 0 8.7797146
-5.7114568 4.7212601 -0.80920613 358 0 0 0 10.722595
-4.56494 4.5845385 -0.85870767 367.5 0 0 0 12.281855
2.2657528 4.6303477 -0.54405665 126.33334 0 0 0 31.989077
2.7524202 4.5702906 -0.56403756 151.75 0 0 0 33.356163
4.2823567 4.9155502 -0.53523016 938.5 0 0 0 36.088821
4.7897415 4.8528533 -0.56140417 495.66666 0 0 0 37.069176
5.3264847 4.7665939 -0.59015441 585 0 0 0 38.048218
5.822444 4.712533 -0.62024617 556 0 0 0 38.833282
6.2614164 4.5741787 -0.64348692 345.5 0 0 0 39.610062
10.385698 4.9521623 -0.69051671 189 0 0 0 42.530071
10.800856 4.826448 -0.71181136 287 0 0 0 42.919369
24.457184 4.9058423 -0.94762957 51 0 0 0 46.42392
37.088402 4.6302662 -0.53404421 25 0 0 0 47.596581
-16.31613 5.3239465 -0.68832266 190 0 0 0 4.6894498
-9.727108 5.2843766 -0.69318026 237 0 0 0 7.61095
-7.1710224 5.2408118 -0.76311922 370.33334 0 0 0 9.7491236
-5.6131606 5.2524033 -0.84102231 388.33334 0 0 0 11.701247
3.8645546 5.1644325 -0.52950209 504 0 0 0 34.917519
4.0793386 5.0495706 -0.53289044 729 0 0 0 35.505112
13.570721 5.2741456 -0.88664192 196 0 0 0 43.707993
17.875957 5.4618073 -0.69451833 92 0 0 0 44.866779
-16.006016 5.6590114 -0.67950273 248 0 0 0 5.0723701
-15.71359 5.9914083 -0.67181623 195 0 0 0 5.4580698
-9.3887424 5.7113037 -0.68687749 246 0 0 0 8.3866949
-6.9525251 5.7645059 -0.77595443 347.5 0 0 0 10.722595
-5.4957008 5.6695938 -0.8646937 322 0 0 0 12.47324
2.7345548 5.7372284 -0.52267939 217 0 0 0 31.792635
3.2027385 5.767097 -0.54345304 214.66667 0 0 0 32.771618
3.7037392 5.6419353 -0.55626339 546.66669 0 0 0 33.940727
10.870801 5.5149918 -0.7329821 326 0 0 0 42.146481
-15.394188 6.3045497 -0.66322094 226 0 0 0 5.8547702
-9.1785097 6.2172146 -0.6924144 225 0 0 0 9.1674252
-6.79918 6.223052 -0.79232848 349.5 0 0 0 11.506635
-15.071684 6.6068826 -0.65477687 228 0 0 0 6.2437601
-14.783438 6.9159503 -0.64822602 205 0 0 0 6.6363602
-8.9128513 6.6961584 -0.69566393 221.5 0 0 0 9.9449043
-6.6359377 6.7000451 -0.81119907 335.5 0 0 0 12.281855
-14.483766 7.2122154 -0.641442 224 0 0 0 7.0272298
-8.7154274 7.2404394 -0.7069484 195.5 0 0 0 10.722595
4.6285782 7.2190146 -0.50456357 1430.5 0 0 0 33.74588
5.1612139 7.2347536 -0.52372253 1345 0 0 0 34.527676
5.723525 7.2363949 -0.54466856 1206 0 0 0 35.30761
6.1855307 7.2521772 -0.56358832 1127 0 0 0 35.895554
6.8308101 7.2493982 -0.59028184 1167 0 0 0 36.684101
7.1620603 7.2338338 -0.60394973 1221 0 0 0 37.067806
7.7434545 7.2585297 -0.63119042 980 0 0 0 37.654724
8.335515 7.254425 -0.65854579 959 0 0 0 38.242599
8.7780313 7.2659497 -0.68023628 898 0 0 0 38.637562
9.2299271 7.2630911 -0.702277 813 0 0 0 39.028999
9.7620964 7.2983155 -0.73026752 726 0 0 0 39.415001
10.236158 7.2655907 -0.75326836 830 0 0 0 39.805119
10.794754 7.2677898 -0.78241521 678 0 0 0 40.191658
11.411651 7.2799964 -0.8155095 581 0 0 0 40.581631
12.053267 7.2766085 -0.67773998 532.5 0 0 0 40.974689
12.759853 7.2794218 -0.70955932 463.5 0 0 0 41.356552
13.546293 7.2906218 -0.74555349 299 0 0 0 41.74448
15.338603 7.3024864 -0.62048388 321 0 0 0 42.530071
16.182854 7.2203088 -0.6500206 348 0 0 0 42.919369
17.564323 7.3222761 -0.70211583 290 0 0 0 43.312687
18.940283 7.3528938 -0.75362211 187 0 0 0 43.707993
20.395325 7.3444343 -0.80815661 156 0 0 0 44.094139
22.124268 7.3561854 -0.87379396 131 0 0 0 44.476913
-14.212008 7.5158143 -0.63628674 258 0 0 0 7.41505
-13.905351 7.7942762 -0.62975717 233 0 0 0 7.80685
-8.4192324 7.721436 -0.71230161 162 0 0 0 11.506635
-13.628797 8.0832481 -0.62497705 252 0 0 0 8.1912498
-13.107227 8.2126284 -0.60829097 137 0 0 0 8.58214
-12.382176 8.1847372 -0.58125764 202 0 0 0 8.9772902
-11.683862 8.1384544 -0.55517405 230 0 0 0 9.3575602
-11.060626 8.1111155 -0.53256404 238 0 0 0 9.7448101
-10.471997 8.0785179 -0.51140368 308 0 0 0 10.145
-8.2077427 8.304492 -0.72822106 121 0 0 0 12.281855
-7.8998556 8.8178587 -0.73819339 80 0 0 0 13.061305
-3.9166939 -22.564203 -0.36551684 90 0 0 0 77.294159
-3.3478012 -22.558594 -0.36498156 43 0 0 0 76.898087
12.189969 -21.522549 -0.41902724 61 0 0 0 66.345528
12.859912 -21.458998 -0.42425206 80 0 0 0 65.953033
-5.9466138 -19.601303 -0.31784323 58 0 0 0 79.245789
-3.9460516 -19.832205 -0.31744343 157 0 0 0 77.682327
-3.7684805 -15.042653 -0.23337513 293 0 0 0 78.456497
-3.3201857 -14.78239 -0.22792353 106 0 0 0 78.070328
-8.1312323 -12.843776 -0.21811669 249 0 0 0 83.543808
-8.3158941 -12.448907 -0.21357614 335 0 0 0 83.931129
-10.119807 -9.6378613 -0.19190523 145 0 0 0 87.462303
-12.005818 -8.9054022 -0.2056568 247 0 0 0 89.404755
-8.1274548 -8.9717531 -0.16272445 307 0 0 0 86.286064
-3.9021106 -8.8057632 -0.24470377 684.5 0 0 0 81.194382
-0.0040120566 -8.6984253 -0.22487114 587.5 0 0 0 74.551903
0.20937605 -8.7057762 -0.22564578 634.5 0 0 0 74.168686
-10.171769 -8.3506041 -0.17744818 215 0 0 0 88.624992
-5.236455 -8.2720184 -0.36672884 210 0 0 0 83.543808
21.532333 -8.2923794 -0.36014402 47 0 0 0 55.404221
-10.210853 -7.9713578 -0.17375205 258 0 0 0 89.021294
-5.4234915 -7.7041445 -0.35074073 142 0 0 0 84.315048
-2.5388525 -7.6841249 -0.49862966 419 0 0 0 79.630806
21.491772 -7.6756306 -0.3537924 46 0 0 0 55.01799
-5.5516024 -7.4890513 -0.34625393 212 0 0 0 84.716843
-2.5530484 -7.1356573 -0.46422678 371 0 0 0 80.021606
9.6231928 -7.1442828 -0.47199824 116 0 0 0 59.702381
-2.5732083 -6.6723757 -0.43561327 189 0 0 0 80.416466
-0.80973363 -6.5523448 -0.079959981 78 0 0 0 76.508766
5.754858 -6.8527718 -0.23609063 291 0 0 0 63.410923
6.3194294 -6.9846396 -0.135592 196 0 0 0 62.820271
7.5304132 -6.8365092 -0.39691782 266 0 0 0 61.260311
8.0270309 -6.9344234 -0.41519359 235 0 0 0 60.862659
10.388539 -6.581708 -0.182073 114 0 0 0 58.522659
-2.5164495 -6.0780478 -0.39742282 408 0 0 0 80.813011
-0.47858939 -6.4467568 -0.2360028 525.33331 0 0 0 75.735367
5.3559599 -6.380609 -0.21733418 312 0 0 0 63.410923
5.6680589 -6.2683716 -0.32443711 455 0 0 0 62.820271
7.469862 -6.1390924 -0.13813899 240 0 0 0 60.472401
7.6297011 -6.2716179 -0.38349211 225 0 0 0 60.472401
9.3990841 -6.2850637 -0.16513874 285 0 0 0 58.912239
9.7110367 -6.3237762 -0.4533667 206.5 0 0 0 58.717449
-9.3563461 -5.7686987 -0.14103681 330.5 0 0 0 90.779457
-8.4947758 -5.6796045 -0.12883595 382 0 0 0 90.199905
-5.733685 -5.7401543 -0.096612066 501 0 0 0 87.07515
-5.0120072 -5.5351014 -0.2689746 450 0 0 0 86.286064
-4.7372098 -5.7747378 -0.26967368 341 0 0 0 85.49543
-2.5912433 -5.8492727 -0.38518697 290 0 0 0 81.194382
-1.8288721 -5.537138 -0.49293187 333 0 0 0 79.630806
0.78552502 -5.5267725 -0.36471862 186.2 0 0 0 72.291565
1.3783424 -5.5349936 -0.34588853 308 0 0 0 70.65461
3.8364983 -5.6408434 -0.2218765 504.60001 0 0 0 65.01693
5.6455045 -5.9431562 -0.21366826 311 0 0 0 62.4254
6.1729922 -5.6060328 -0.11475074 158 0 0 0 61.260311
7.8361492 -5.8191137 -0.13867144 158 0 0 0 59.702381
-20.144024 -5.0361362 -0.29817334 105 0 0 0 95.64579
-5.6065893 -5.0863576 -0.27222613 334 0 0 0 87.846817
-5.3954439 -5.2694197 -0.27142471 429 0 0 0 87.268723
-2.4108112 -5.1026788 -0.19710474 641.33331 0 0 0 81.593971
0.88484293 -5.4003887 -0.33020601 180.66667 0 0 0 71.955193
1.1776745 -5.4011574 -0.30737093 42.799999 0 0 0 71.123909
3.9457562 -5.4299254 -0.35997579 705.33331 0 0 0 64.523499
4.1861596 -5.4477582 -0.21534544 520.5 0 0 0 64.093994
5.8416643 -5.3068509 -0.49303564 108 0 0 0 61.260311
6.3037348 -5.4480844 -0.11431962 143 0 0 0 60.862659
8.3734713 -5.0250087 -0.37515444 105 0 0 0 58.138161
8.9428577 -5.2162595 -0.1462709 108.5 0 0 0 57.937431
9.016592 -5.1128035 -0.39975393 88 0 0 0 57.736698
9.6236601 -5.1470919 -0.28861642 96.5 0 0 0 57.349194
10.271009 -5.1718884 -0.30519125 304 0 0 0 56.965618
11.099545 -5.2501369 -0.32664317 362.5 0 0 0 56.570099
11.596166 -5.1388121 -0.18320002 460 0 0 0 56.178928
-17.922247 -4.9522324 -0.26299882 167 0 0 0 95.26577
-16.077852 -4.8714781 -0.23397449 176 0 0 0 94.880463
-14.524674 -4.7942047 -0.20969662 200 0 0 0 94.485291
-6.7360268 -4.5042577 -0.29285049 1043 0 0 0 90.199905
-6.4396491 -4.5405722 -0.091323689 213 0 0 0 89.797981
-5.1339445 -4.5449505 -0.15990674 503.5 0 0 0 88.039017
-4.3567371 -4.5828533 -0.14492305 372 0 0 0 86.68203
-3.7340209 -4.5537915 -0.061137278 71 0 0 0 85.49543
-3.2780509 -4.7103128 -0.28509951 267.20001 0 0 0 84.244736
-2.7210915 -4.809515 -0.19199136 485.55554 0 0 0 82.764603
-2.2690148 -4.5140033 -0.17221291 187.33333 0 0 0 81.980919
-1.6156068 -4.5182738 -0.39875019 138 0 0 0 80.021606
-1.2450759 -4.5020161 -0.044559613 31 0 0 0 78.851517
-0.67221582 -4.5184326 -0.15517183 24 0 0 0 76.898087
-0.27029353 -4.529985 -0.17670286 324.60001 0 0 0 75.494858
0.34838834 -4.5356879 -0.11917774 169.33333 0 0 0 73.317024
0.72919291 -4.5690551 -0.047151215 903 0 0 0 72.019501
1.2065128 -4.602354 -0.050044868 427.5 0 0 0 70.456627
1.6949672 -4.6563449 -0.14032589 30.571428 0 0 0 68.968079
2.289866 -4.6615195 -0.12230235 24.666666 0 0 0 67.260406
2.9390261 -4.6608095 -0.26663417 15.75 0 0 0 65.567551
4.8484979 -4.7669387 -0.28703597 154.39999 0 0 0 61.882835
5.052907 -4.823523 -0.090311855 22 0 0 0 61.647831
6.247467 -4.8857679 -0.20303611 155.5 0 0 0 60.088718
7.0569425 -4.9784617 -0.22345838 157.5 0 0 0 59.304798
12.063128 -4.9941602 -0.18858545 431 0 0 0 55.792938
-7.8871651 -4.4698648 -0.33154744 159 0 0 0 91.362358
-7.2984385 -4.4973688 -0.31174564 949.5 0 0 0 90.779457
-6.7288971 -4.4997211 -0.4907715 1082 0 0 0 90.199905
-6.2086687 -4.4897237 -0.36902744 1156.25 0 0 0 89.601364
-5.750185 -4.4922009 -0.34987193 1380 0 0 0 89.021294
-5.3325195 -4.4908247 -0.2908667 986.25 0 0 0 88.428101
-4.8315277 -4.4926171 -0.39423347 1443 0 0 0 87.654556
-4.2662663 -4.4836903 -0.36806369 1268 0 0 0 86.681084
-3.7639194 -4.4786816 -0.41852391 1259.5 0 0 0 85.692001
-3.3586202 -4.4747033 -0.43326712 1072.25 0 0 0 84.809113
-2.7529268 -4.4697313 -0.43802109 1156 0 0 0 83.348892
-2.2492175 -4.4715285 -0.41655198 948 0 0 0 81.982689
-1.8498466 -4.4697623 -0.28319845 487 0 0 0 80.809982
-1.2147964 -4.4719748 -0.36045319 165 0 0 0 78.772133
-0.70732045 -4.4600763 -0.44134378 153 0 0 0 77.056282
-0.28572589 -4.4798417 -0.40431568 161.71428 0 0 0 75.56234
0.16116145 -4.4795809 -0.37242809 310 0 0 0 73.967651
-2.7948265 2.9887714 -0.42472777 183 0 0 0 12.86253
-2.6983366 3.2386017 -0.32006845 159.66667 0 0 0 13.777733
-2.3153291 3.4157784 -0.22864659 114.2 0 0 0 15.369678
-2.5594456 3.9131632 -0.37828147 250 0 0 0 15.60061
-2.2978556 3.5011635 -0.23182528 64 0 0 0 15.60061
-1.708831 3.6789277 -0.42125443 67 0 0 0 17.943823
-1.3245856 3.778841 -0.41537082 77 0 0 0 19.50848
-2.2724347 4.0995069 -0.37948734 241.8 0 0 0 16.77261
-1.7335279 4.1360927 -0.36100435 172.5 0 0 0 18.530529
-1.2320569 4.2483907 -0.30710301 124.85714 0 0 0 20.343458
-0.75782549 4.2964072 -0.27926925 108.54546 0 0 0 22.056917
-0.27108502 4.0857482 -0.32525814 106.8 0 0 0 23.797443
0.13733558 4.175324 -0.33208504 88.333336 0 0 0 25.356911
0.7433598 4.3426409 -0.35184786 109.75 0 0 0 27.505762
17.6199 4.4509754 -0.23220813 259 0 0 0 45.650448
-3.2926745 4.5545239 -0.32634652 142 0 0 0 14.82312
-2.7754929 4.753758 -0.31838381 396 0 0 0 16.382998
-2.2733917 4.7841725 -0.30445206 362.5 0 0 0 17.747604
-1.7486988 4.6672287 -0.28360495 236.33333 0 0 0 19.118076
-1.4448445 4.5127964 -0.26733801 214 0 0 0 19.89753
-0.75079703 4.5693331 -0.14693952 93 0 0 0 22.235474
-0.23891546 4.5893025 -0.25667417 170.25 0 0 0 23.99226
0.16322553 4.7153716 -0.26391956 185.66667 0 0 0 25.356911
0.66834366 4.9681492 -0.28207186 190 0 0 0 26.91647
9.8173132 4.9839406 -0.11839724 504 0 0 0 42.146481
15.562037 4.7585883 -0.20131393 146 0 0 0 44.866779
17.458628 4.8704185 -0.23001076 134 0 0 0 45.263599
20.495083 4.6422143 -0.27621186 161 0 0 0 46.038471
23.683727 4.7537026 -0.32525489 161 0 0 0 46.42392
30.570108 4.5834265 -0.43231508 18 0 0 0 47.211559
0.80027574 5.0057845 -0.28549999 191 0 0 0 27.30937
1.2846109 5.3994923 -0.3157008 41 0 0 0 28.47576
4.8805718 5.458437 -0.24393541 888 0 0 0 36.282089
9.7170792 5.2383213 -0.11813065 430 0 0 0 41.74448
13.898279 5.0119171 -0.177001 248 0 0 0 44.094139
15.337578 5.1062789 -0.19846779 81 0 0 0 44.476913
29.427536 5.1551681 -0.41388208 84 0 0 0 46.81879
-3.2282107 5.8783455 -0.23418069 658.66669 0 0 0 16.772703
-2.6954544 5.8928928 -0.22429328 646.33331 0 0 0 17.943823
-2.2270265 5.7724495 -0.21180376 583.5 0 0 0 18.922874
-1.8047609 5.6870995 -0.20240593 362 0 0 0 19.896837
-1.3340588 5.5986295 -0.19331975 199.66667 0 0 0 21.065489
-0.61672634 5.5139685 -0.18351172 286 0 0 0 23.018181
-0.3608295 5.884542 -0.19697599 424.33334 0 0 0 23.79693
9.9684315 5.6944013 -0.12371312 334 0 0 0 41.356552
10.882823 5.5204868 -0.43431291 319 0 0 0 42.146481
14.273143 5.5474205 -0.18373102 152 0 0 0 43.707993
-0.072774239 6.0909953 -0.2041876 383 0 0 0 24.578251
0.16277479 6.3432889 -0.2139014 389 0 0 0 25.163559
10.707861 6.4693599 -0.13763307 375 0 0 0 40.974689
-3.6926503 6.9468684 -0.090706304 915.5 0 0 0 16.968029
-3.1124766 6.8281574 -0.083938077 809 0 0 0 17.941099
-2.8246784 6.8514748 -0.082001686 986 0 0 0 18.53307
-2.0713422 6.5601935 -0.07236053 155 0 0 0 19.89753
-1.9218616 6.6526504 -0.072863504 42 0 0 0 20.2845
0.41656461 6.6282506 -0.22521789 436 0 0 0 25.74361
0.95669651 6.932898 -0.23840734 387 0 0 0 26.91647
-18.400784 7.0161304 -0.31509295 110 0 0 0 5.4580698
-4.2324991 7.3111901 -0.10087971 531 0 0 0 16.38205
-3.4684944 7.1487513 -0.091566078 501 0 0 0 17.555099
1.1549131 7.0683007 -0.24454132 76 0 0 0 27.30937
3.2671082 7.1677785 -0.2215053 1401.5 0 0 0 31.501202
3.7393577 7.1752129 -0.25168449 1464.75 0 0 0 32.333027
4.2848783 7.1949158 -0.28615811 1569.8334 0 0 0 33.225327
4.8299503 7.2042484 -0.15589239 1605.6666 0 0 0 34.068901
5.1779556 7.1969075 -0.23220138 1445.6666 0 0 0 34.593426
5.7062278 7.2162971 -0.20467527 1466.25 0 0 0 35.30761
6.149682 7.2117538 -0.21162301 1563 0 0 0 35.895554
6.8138003 7.2326169 -0.22333233 1507 0 0 0 36.684101
7.1466608 7.2194667 -0.22905369 1417.5 0 0 0 37.067806
7.7018085 7.2209187 -0.2394616 1282.25 0 0 0 37.654728
8.3057985 7.2296362 -0.25113744 1076.5 0 0 0 38.242599
8.6590214 7.1688643 -0.2563034 845.5 0 0 0 38.637562
9.1920395 7.2342534 -0.26923212 919 0 0 0 39.028999
9.6567173 7.2206936 -0.27867547 976.5 0 0 0 39.415001
10.198783 7.2399073 -0.2905786 840.5 0 0 0 39.805119
10.762359 7.246747 -0.30296627 757.5 0 0 0 40.191658
11.346134 7.2389956 -0.31578138 691 0 0 0 40.581631
15.140766 7.2110038 -0.20140855 268 0 0 0 42.530071
16.218954 7.2388606 -0.21672998 327 0 0 0 42.919369
17.484385 7.2916217 -0.23499897 247 0 0 0 43.312687
-19.075159 7.814455 -0.33071944 25 0 0 0 5.8547702
-2.8360519 7.6882963 -0.094508059 437 0 0 0 19.11488
-0.45844483 7.7479563 -0.082779974 569 0 0 0 23.798651
-22.990694 8.1343479 -0.4016296 41 0 0 0 5.0723701
-10.521697 8.1132383 -0.19098708 39 0 0 0 10.145
-9.9142799 8.0404329 -0.49150863 275 0 0 0 10.52857
-9.1763897 8.3159914 -0.39917302 354.25 0 0 0 11.408697
-0.80387235 8.4158993 -0.094497889 505 0 0 0 23.2127
-8.6771011 8.7814856 -0.47175473 464.5 0 0 0 12.281855
-0.18534398 8.6563301 -0.096178159 441 0 0 0 24.381584
0.2374236 8.5408916 -0.093366601 437 0 0 0 25.163559
0.55965358 8.6334 -0.094267018 671 0 0 0 25.74361
-27.59923 9.0158157 -0.48784196 59 0 0 0 4.6894498
-21.388086 9.3840885 -0.37912092 139 0 0 0 6.2437601
-8.3553171 9.1010847 -0.47140324 478 0 0 0 12.86253
1.3059676 9.3249512 -0.10445855 329 0 0 0 26.91647
-21.160828 9.9090767 -0.37807363 155 0 0 0 6.6363602
-21.081579 10.509109 -0.38026223 79 0 0 0 7.0272298
-10.392586 10.789842 -0.21673763 29 0 0 0 12.47324
-21.064049 11.152948 -0.38403043 67 0 0 0 7.41505
-13.175431 11.248249 -0.2601254 209 0 0 0 10.91662
-12.48291 11.194724 -0.24967824 70 0 0 0 11.30837
-11.331505 11.206944 -0.23390284 93 0 0 0 12.09047
-21.397636 12.010777 -0.39535758 69 0 0 0 7.80685
-16.465637 13.388255 -0.3290098 64 0 0 0 10.52857
-22.80324 13.548401 -0.42942011 68 0 0 0 8.1912498
-12.494632 13.644048 -0.27660891 62 0 0 0 12.86253
-22.645227 14.216841 -0.4318727 108 0 0 0 8.58214
-22.182373 14.695783 -0.42825973 25 0 0 0 8.9772902
-21.734257 15.177831 -0.42519391 63 0 0 0 9.3575602
-21.460054 15.782763 -0.42618042 24 0 0 0 9.7448101
1.9277805 -26.10498 0.20428488 67 0 0 0 73.377991
1.2785485 -25.980778 0.20427553 22 0 0 0 73.766609
10.374313 -21.932341 0.18275207 16 0 0 0 67.522369
-28.070112 -17.770212 0.31308463 46 0 0 0 90.585075
6.7532392 -17.511597 0.15041101 207 0 0 0 68.697411
9.9525976 -17.570803 0.15797952 34 0 0 0 66.345528
10.296701 -17.181009 0.15700288 18 0 0 0 65.953033
7.2805662 -16.42992 0.14509033 107 0 0 0 67.912285
-10.465523 -14.866882 0.17769055 30 0 0 0 84.315048
-8.2296524 -12.659262 0.15261988 234 0 0 0 83.737473
-10.578386 -12.269775 0.16506523 45 0 0 0 85.892563
-10.655714 -11.76309 0.16308126 45 0 0 0 86.286064
-10.791498 -10.280163 0.15696536 46 0 0 0 87.462303
45.450176 -10.155662 0.398981 17 0 0 0 53.057831
39.692772 -9.9002113 0.35112271 11 0 0 0 53.445099
-3.9964869 -9.0206041 0.35502267 618 0 0 0 81.194382
-10.892815 -8.9446774 0.15168813 17 0 0 0 88.624992
-8.6875086 -8.6944609 0.13528365 84 0 0 0 87.07515
-0.002567505 -8.741745 0.20250461 340.5 0 0 0 74.551903
0.21146496 -8.7325792 0.20218439 600.5 0 0 0 74.168686
-33.856308 -7.5867028 0.32535669 19 0 0 0 96.03157
6.3531914 -7.2576237 0.17596562 264.33334 0 0 0 63.085423
22.072754 -7.2737393 0.2093 440 0 0 0 54.627621
-0.96622562 -6.5055099 0.2449342 22 0 0 0 76.898087
5.1755276 -6.6473947 0.29810238 370 0 0 0 63.994846
6.2426853 -6.5672574 0.092565924 167 0 0 0 62.4254
9.80126 -6.5517535 0.11439955 168 0 0 0 58.912239
-0.39662838 -6.4123917 0.27663529 464 0 0 0 75.537125
5.2386794 -6.3971481 0.19071841 471.5 0 0 0 63.603848
8.505928 -6.3166904 0.36982009 71 0 0 0 59.702381
9.6237879 -6.4366922 0.40218616 94 0 0 0 58.912239
-8.6585541 -5.7908196 0.12242773 393 0 0 0 90.199905
-0.86761272 -5.8407817 0.36774552 24 0 0 0 76.898087
0.79199004 -5.6134386 0.31636998 159.75 0 0 0 72.311386
1.3556908 -5.6301131 0.16805738 280.66666 0 0 0 70.785301
1.5248524 -5.5342016 0.071904272 36 0 0 0 70.257439
3.8811302 -5.625433 0.19012356 781.33331 0 0 0 64.915016
4.2933364 -5.5154901 0.079245463 298 0 0 0 63.994846
5.3369288 -5.8069592 0.41149744 183.33333 0 0 0 62.688648
5.6755791 -5.6902428 0.38532734 79 0 0 0 62.036613
9.7728939 -5.8627567 0.39810213 190 0 0 0 58.138161
10.22141 -5.7945209 0.41015342 289 0 0 0 57.736698
-20.414972 -5.1065722 0.2116801 114 0 0 0 95.64579
-2.3878384 -5.0556302 0.28498411 826 0 0 0 81.593971
0.86979866 -5.4434948 0.14028096 101 0 0 0 72.019463
1.1806986 -5.2847996 0.070161186 95 0 0 0 71.046684
1.5540342 -5.1484232 0.13600498 119 0 0 0 69.867752
4.0271783 -5.4465027 0.24594158 867 0 0 0 64.391441
5.9592681 -5.413703 0.28821722 288 0 0 0 61.260311
6.0081697 -5.4585509 0.48899478 438 0 0 0 61.260311
6.6474061 -5.4662576 0.30637616 316 0 0 0 60.472401
7.9795055 -5.0588737 0.21775246 225 0 0 0 58.522659
8.9907026 -5.0955725 0.10712689 85 0 0 0 57.736698
9.0023279 -5.3986502 0.10744249 156 0 0 0 58.138161
9.9571648 -5.3260584 0.39653176 49 0 0 0 57.349194
10.292566 -5.3409863 0.11695161 78 0 0 0 57.157406
10.547999 -5.312149 0.41393048 95 0 0 0 56.965618
11.23831 -5.313458 0.12414953 137 0 0 0 56.570099
11.897793 -5.2724676 0.29256672 163.5 0 0 0 56.178928
-18.015818 -4.9805675 0.19228557 138 0 0 0 95.26577
-16.101683 -4.8809972 0.17684686 167 0 0 0 94.880463
-14.60611 -4.8232045 0.16486444 257 0 0 0 94.485291
-7.2864509 -4.6178613 0.32299215 329 0 0 0 90.585075
-6.7068233 -4.6033478 0.40387475 285.5 0 0 0 89.998947
-6.2881751 -4.5485325 0.29081815 145.5 0 0 0 89.601364
-5.7266402 -4.5648646 0.31306764 182.39999 0 0 0 88.862778
-5.1386328 -4.5495462 0.17773381 111.25 0 0 0 88.039017
-4.7649813 -4.5406599 0.37396145 104 0 0 0 87.461639
-4.2490921 -4.5581374 0.27073255 178.60001 0 0 0 86.523643
-3.7020242 -4.5445042 0.2461409 109.5 0 0 0 85.445786
-3.2875984 -4.5785313 0.32905403 30.799999 0 0 0 84.47934
-2.7039442 -4.7179809 0.27801284 433.75 0 0 0 82.86216
-2.2172043 -4.5645752 0.28379309 165.33333 0 0 0 81.763725
-1.7135181 -4.5568738 0.25226912 165.5 0 0 0 80.286079
-1.1763809 -4.5536819 0.20880535 116.9 0 0 0 78.578384
-0.73346978 -4.555398 0.067837171 90.75 0 0 0 77.095833
-0.32120013 -4.5429425 0.21159543 134 0 0 0 75.674316
0.38840747 -4.5654507 0.25448936 116.5 0 0 0 73.188759
0.7881549 -4.5759583 0.23795611 33 0 0 0 71.824707
1.2162173 -4.6868248 0.33063272 193.8 0 0 0 70.496216
1.725806 -4.6800394 0.24540064 39.888889 0 0 0 68.904648
2.3458869 -4.6814213 0.26206928 13.25 0 0 0 67.128845
2.8389113 -4.7139993 0.24627464 34.142857 0 0 0 65.901436
3.2388039 -4.738328 0.21462926 326 0 0 0 64.978714
4.8010392 -4.8148122 0.24786377 214.66667 0 0 0 62.039509
5.1678324 -4.8503437 0.13899358 36 0 0 0 61.518658
5.7719398 -4.9057999 0.14713295 234.33333 0 0 0 60.732574
6.2987795 -4.9251585 0.18843685 104 0 0 0 60.088718
6.6854711 -4.9657478 0.090731926 73 0 0 0 59.702381
7.0530043 -4.9751244 0.2012248 86.5 0 0 0 59.304798
12.046663 -4.9859023 0.13055725 261 0 0 0 55.792938
39.044548 1.0141728 0.38031465 17 0 0 0 49.156158
35.415108 1.7920506 0.35224468 1000 0 0 0 48.776501
-2.7827785 3.2850292 0.071241535 142 0 0 0 13.64825
-2.4038305 3.294415 0.17036439 189 0 0 0 14.82312
40.495224 3.048125 0.40173045 25 0 0 0 48.382072
-1.7043483 3.8559277 0.31857428 177.84616 0 0 0 18.246004
-1.431022 3.8547046 0.3751477 118.75 0 0 0 19.21328
0.52243125 3.9853525 0.27430612 77 0 0 0 26.91647
1.385775 3.7630281 0.077922605 126 0 0 0 30.42522
38.611675 3.8630774 0.38924944 14 0 0 0 47.986198
-0.12635195 4.3146944 0.23846456 147.5 0 0 0 24.381584
0.1389972 4.2642932 0.1124284 91.666664 0 0 0 25.356909
0.52473754 4.007093 0.37600169 172 0 0 0 26.91647
4.3794327 4.4445381 0.41307947 854 0 0 0 37.067806
4.6321464 4.362566 0.42066318 679 0 0 0 37.654724
5.6186724 4.4371309 0.46852133 711 0 0 0 39.028999
10.507332 4.3883247 0.43768385 611 0 0 0 43.312687
-1.5483902 4.8407845 0.4553434 294 0 0 0 19.89753
0.040371224 4.5669651 0.3046211 192 0 0 0 24.97274
3.9851708 4.9363551 0.41863039 898 0 0 0 35.505112
4.114645 4.8463306 0.41962907 818 0 0 0 35.895554
5.4058437 4.6055007 0.46503282 693.5 0 0 0 38.440079
6.2688584 4.9463277 0.3219071 743 0 0 0 39.028999
9.8278475 4.9909029 0.15131268 681 0 0 0 42.146481
10.0802 4.655282 0.42892206 661.5 0 0 0 42.72472
13.687691 4.938107 0.18236998 447 0 0 0 44.094139
14.333839 4.7749949 0.18673395 236 0 0 0 44.476913
15.080379 4.6136723 0.19199483 320 0 0 0 44.866779
17.467833 4.8751626 0.21353839 175 0 0 0 45.263599
20.603218 4.6690869 0.23888431 162 0 0 0 46.038471
23.868179 4.7934017 0.26732823 154 0 0 0 46.42392
38.836094 4.8523545 0.39589214 9 0 0 0 47.596581
3.9578111 5.2927313 0.35113266 849.5 0 0 0 34.917519
4.8422008 5.2443976 0.28762072 813.33331 0 0 0 36.543995
5.0723238 5.3988352 0.30096072 412 0 0 0 36.684101
5.975265 5.4784551 0.3260389 541 0 0 0 37.853832
6.2341399 5.2630715 0.18986566 635.33331 0 0 0 38.505905
9.7635365 5.264946 0.15270939 572 0 0 0 41.74448
13.505906 5.2520995 0.18283646 418 0 0 0 43.707993
29.823057 5.2276988 0.32043225 47 0 0 0 46.81879
34.582916 5.1879702 0.36099702 65 0 0 0 47.211559
3.9907944 5.7638798 0.19803914 835.5 0 0 0 34.330421
4.2929001 5.5854659 0.15627754 658 0 0 0 35.112564
4.7617569 5.5986695 0.23760553 667.33331 0 0 0 35.894253
6.3206992 5.5126534 0.33603287 473 0 0 0 38.242599
9.829277 5.7799802 0.30182022 585 0 0 0 41.165619
10.876833 5.5181141 0.46842071 444 0 0 0 42.146481
13.65213 5.6996293 0.18690163 151 0 0 0 43.312687
5.420022 6.3644347 0.33414593 562 0 0 0 35.895554
9.8823528 6.3091002 0.45393825 678 0 0 0 40.581631
10.355294 6.2592683 0.16434209 434 0 0 0 40.974689
13.834626 6.1798286 0.19152372 326 0 0 0 42.919369
25.159323 6.3537521 0.28679803 64 0 0 0 45.650448
-17.654194 6.7255335 0.15872553 104 0 0 0 5.4580698
-3.7538295 6.8549895 0.19740176 730.25 0 0 0 16.773804
-2.4748592 6.6811886 0.1842403 476.5 0 0 0 19.11488
-0.076197721 6.7694416 0.43252119 356 0 0 0 24.578251
0.26351541 6.896174 0.27260011 166 0 0 0 25.35438
-3.6181886 7.2327986 0.20403399 576.5 0 0 0 17.357025
-3.4700665 7.1478424 0.10138073 503 0 0 0 17.555099
2.2737715 7.0983949 0.3879467 1482 0 0 0 29.64744
2.7947459 7.1158319 0.34055862 1746 0 0 0 30.66151
3.1743512 7.13164 0.27034357 1807 0 0 0 31.366888
3.7485192 7.1432776 0.21994306 1747 0 0 0 32.382355
4.3384089 7.1555853 0.22769073 1713.5 0 0 0 33.354767
4.7207947 7.1728625 0.23305112 1706 0 0 0 33.938141
6.7762957 7.1967492 0.14115205 1349 0 0 0 36.684101
7.3525524 7.1872535 0.23188704 1344.6666 0 0 0 37.326347
7.8477602 7.1835461 0.14943323 1047 0 0 0 37.853832
9.1370716 7.1946254 0.15991914 1015 0 0 0 39.028999
9.6168842 7.1929522 0.31407246 934 0 0 0 39.415001
10.143217 7.2024937 0.3237322 773.5 0 0 0 39.805119
10.703028 7.2087736 0.33421072 735.5 0 0 0 40.191658
11.31289 7.2212782 0.17823865 626 0 0 0 40.581631
15.159564 7.2223539 0.20915765 242 0 0 0 42.530071
-18.6071 7.6168442 0.16743854 96 0 0 0 5.8547702
-0.46004075 7.7455497 0.10631385 541 0 0 0 23.798651
-22.946005 8.1124439 0.19159752 64 0 0 0 5.0723701
-17.140207 8.0145216 0.16196327 132 0 0 0 6.6363602
-27.523676 8.9839401 0.21872479 49 0 0 0 4.6894498
-21.353962 9.3631029 0.18904465 123 0 0 0 6.2437601
-4.526475 9.9955606 0.12542276 831 0 0 0 17.941099
-0.20330876 9.7372952 0.12436995 484.5 0 0 0 24.381584
0.15211613 9.5190563 0.123372 585 0 0 0 24.97274
2.0683398 9.5557718 0.37444448 1370 0 0 0 28.091789
-21.003796 10.464054 0.1925095 74 0 0 0 7.0272298
-14.43978 10.060786 0.15979566 77 0 0 0 9.3575602
-9.4655905 10.314116 0.48893535 73 0 0 0 12.86253
-4.221303 10.32025 0.12752624 1276.5 0 0 0 18.53307
1.4318508 10.1986 0.13346259 1040 0 0 0 26.91647
1.6667613 10.069161 0.13323385 198 0 0 0 27.30937
-13.751593 10.616874 0.15996136 57 0 0 0 10.145
-13.252467 10.758385 0.15868925 56 0 0 0 10.52857
-10.53184 10.930389 0.1490021 120 0 0 0 12.47324
-10.00332 10.902165 0.14690979 181 0 0 0 12.86253
-9.4518509 10.819251 0.1444343 208 0 0 0 13.26008
-21.07398 11.151915 0.1962201 126 0 0 0 7.41505
-12.691284 11.377419 0.16013193 94 0 0 0 11.30837
-11.626107 11.494914 0.15669248 50 0 0 0 12.09047
-13.848228 11.820396 0.16748339 58 0 0 0 10.91662
-12.665355 11.927898 0.16340816 68 0 0 0 11.7049
-21.4147 12.013802 0.20217164 123 0 0 0 7.80685
-17.622482 12.944004 0.18996595 42 0 0 0 9.7448101
-22.848154 13.567947 0.21689618 55 0 0 0 8.1912498
-22.621122 14.194287 0.21915555 79 0 0 0 8.58214
-22.152105 14.668219 0.21958531 58 0 0 0 8.9772902
1.9203701 -26.069105 0.85633385 97 0 0 0 73.377991
1.2714868 -25.932798 0.85185403 56 0 0 0 73.766609
-3.8659446 -22.271646 0.75570184 28 0 0 0 77.294159
7.6813803 -16.254393 0.59357083 111 0 0 0 67.522369
4.4043708 -15.935075 0.55065262 80 0 0 0 70.257439
-4.4642048 -14.716428 0.5294866 220 0 0 0 79.245789
-2.9387054 -14.769226 0.70121384 216 0 0 0 77.682327
-4.6775494 -14.159903 0.88002819 21 0 0 0 79.630806
-4.3657231 -14.39192 0.88644755 169 0 0 0 79.245789
-3.6179488 -14.441925 0.69390035 195.5 0 0 0 78.456497
6.3011932 -14.231016 0.51890498 158 0 0 0 67.912285
6.6425757 -14.060656 0.89881933 196 0 0 0 67.522369
5.3906937 -13.992287 0.50165147 64 0 0 0 68.697411
-8.2537003 -12.690475 0.7162689 200.75 0 0 0 83.737473
6.6351442 -11.085784 0.75284582 273 0 0 0 65.953033
8.7067032 -11.169245 0.82249999 244 0 0 0 63.994846
23.767902 -11.231501 0.8770448 44 0 0 0 56.570099
7.0271816 -10.531845 0.73868781 352 0 0 0 65.169807
13.156137 -10.272928 0.96872866 153 0 0 0 60.088718
5.6241231 -9.9417782 0.95397133 309 0 0 0 66.345528
-3.9969959 -9.0217438 0.59631526 514 0 0 0 81.194382
22.893059 -9.4721546 0.83289623 17 0 0 0 55.792938
-0.0023923956 -8.8189077 0.74756771 128 0 0 0 74.551903
0.21280853 -8.7810602 0.74404591 571.66669 0 0 0 74.168686
21.795137 -7.7874937 0.78465331 5513 0 0 0 55.01799
-10.792295 -7.2120056 0.78556699 54 0 0 0 90.199905
10.46933 -7.0018406 0.74265295 85 0 0 0 58.912239
22.039106 -7.2687879 0.78877741 3809 0 0 0 54.627621
-0.64731258 -6.5637841 0.56985652 483 0 0 0 76.122955
-0.48386914 -6.5582342 0.88871634 64 0 0 0 75.735367
5.3764458 -6.5650778 0.71896482 501 0 0 0 63.603848
5.5928135 -6.6630316 0.51979113 490 0 0 0 63.410923
8.2753782 -6.8016062 0.63444734 144 0 0 0 60.472401
9.0034676 -6.6844568 0.94309175 82 0 0 0 59.702381
-8.7597809 -6.1740522 0.92132878 86 0 0 0 89.797981
-0.7431379 -6.2460017 0.74817139 119.83334 0 0 0 76.445045
-0.47832024 -6.4675264 0.63933635 107 0 0 0 75.735367
5.34582 -6.2095208 0.76090193 364 0 0 0 63.214039
6.0437169 -6.0559435 0.72569573 286 0 0 0 62.039513
8.7962103 -6.203301 0.63939887 33 0 0 0 59.304798
9.7245903 -6.164567 0.68297058 97 0 0 0 58.522659
-8.886507 -5.6304407 0.77470338 198 0 0 0 90.585075
0.42048347 -5.7515249 0.50103891 270 0 0 0 73.377991
0.64375085 -5.6237969 0.67345792 134 0 0 0 72.734543
1.3090074 -5.8562856 0.5189113 323 0 0 0 71.046684
1.6794345 -5.5565319 0.67899746 183.25 0 0 0 69.866013
3.8638883 -5.5740719 0.7876007 1037 0 0 0 64.883171
4.3108416 -5.5389729 0.85758656 248 0 0 0 63.994846
5.6860085 -5.9850736 0.70121711 437 0 0 0 62.4254
6.5074215 -5.6254072 0.51632816 877 0 0 0 60.862659
8.852129 -5.9211302 0.89906895 33 0 0 0 58.912239
9.917099 -5.9499278 0.68669605 117 0 0 0 58.138161
10.474236 -5.938426 0.71429932 89 0 0 0 57.736698
-20.710932 -5.1756301 0.7473917 71 0 0 0 95.64579
-18.364969 -5.0726209 0.6711579 68 0 0 0 95.26577
-16.550665 -5.0129786 0.61267442 60 0 0 0 94.880463
-2.3555856 -5.0729151 0.80042243 807.75 0 0 0 81.494072
0.39789647 -5.4345751 0.74103028 24 0 0 0 73.377991
0.73379403 -5.3290434 0.70366752 214 0 0 0 72.371384
1.2570714 -5.1850433 0.70593822 244.85715 0 0 0 70.764748
1.7988385 -5.2626648 0.75491285 106 0 0 0 69.282578
4.0363579 -5.4582086 0.74719697 1176.3334 0 0 0 64.391441
5.7364707 -5.473877 0.67557991 200 0 0 0 61.647831
6.6035819 -5.1632957 0.7139169 318 0 0 0 60.088718
10.053558 -5.3783598 0.67932206 148 0 0 0 57.349194
-7.272994 -4.6103868 0.95687044 67 0 0 0 90.585075
-6.8701582 -4.5959764 0.8192513 128 0 0 0 90.199905
-6.2264614 -4.6242599 0.76976293 47.5 0 0 0 89.404755
-5.6450782 -4.5619831 0.75282592 42 0 0 0 88.757088
-5.0373993 -4.5735631 0.67920381 9.5 0 0 0 87.846817
-4.6776571 -4.5712519 0.65401399 130.75 0 0 0 87.268723
-4.2587385 -4.5697622 0.67227823 75.599998 0 0 0 86.523643
-3.8072221 -4.5693688 0.62237215 59 0 0 0 85.627136
-3.367744 -4.5504613 0.50041127 55 0 0 0 84.716843
-2.7517314 -4.8023753 0.70847869 472.75 0 0 0 82.862045
-2.2806637 -4.6779132 0.71762699 175.75 0 0 0 81.784286
-1.6293719 -4.5629888 0.60715449 53 0 0 0 80.021606
-1.0362879 -4.6223621 0.65112597 10 0 0 0 78.070328
-0.79178363 -4.5680704 0.63752317 8 0 0 0 77.294159
-0.2252952 -4.5524626 0.57045352 181 0 0 0 75.33783
0.4561514 -4.6690784 0.64263952 17 0 0 0 72.996994
0.79326671 -4.5967298 0.58164555 32.5 0 0 0 71.824028
1.2192256 -4.8918371 0.81176925 22 0 0 0 70.65461
1.7366796 -4.6860757 0.55919158 23 0 0 0 68.882553
-5.7505546 -4.4947858 0.63831079 13 0 0 0 89.021294
-3.5873089 -4.4914351 0.71862423 14 0 0 0 85.29686
-1.0089111 -4.496623 0.52139455 24 0 0 0 78.070328
-1.8738248 4.0432997 0.50931805 242 0 0 0 17.941099
-0.675017 4.4609337 0.81980187 229 0 0 0 22.458204
0.46834052 4.3850102 0.94784576 82 0 0 0 26.526621
0.72269332 4.2220936 0.93271595 115.44444 0 0 0 27.527946
4.2884808 4.3553805 0.55827695 970 0 0 0 37.06918
4.6237607 4.2507181 0.64977443 1055.75 0 0 0 37.851471
5.3815122 4.3608079 0.62767172 1118.5 0 0 0 38.833282
5.8800173 4.4123979 0.66368663 929 0 0 0 39.415001
-1.5846504 4.7509809 0.56984627 257.5 0 0 0 19.703005
-1.2938454 4.8433857 0.94027817 426 0 0 0 20.68222
-0.63487661 4.5261202 0.80703217 240.5 0 0 0 22.626137
0.35143581 4.7037692 0.97042722 276 0 0 0 26.010309
0.62252051 4.8094945 0.81486118 181.42857 0 0 0 26.86165
3.9808934 4.9328961 0.57659966 1038 0 0 0 35.505112
4.2076097 4.7564263 0.83846456 694.83331 0 0 0 36.221703
5.8233585 4.5986056 0.85038656 710 0 0 0 39.028999
6.1940227 4.6446271 0.50340325 992 0 0 0 39.415001
9.8669147 4.8565483 0.97037435 544 0 0 0 42.338276
10.305769 4.606998 0.99383128 566 0 0 0 42.919369
10.672299 4.7684879 0.73588341 257 0 0 0 42.919369
11.069641 4.6215148 0.75330532 629 0 0 0 43.312687
14.939071 4.8364596 0.71296573 252.66667 0 0 0 44.606869
17.494942 4.8782821 0.6678828 205 0 0 0 45.263599
21.834005 4.9419303 0.81038749 130 0 0 0 46.038471
24.419764 4.8978662 0.89506608 152 0 0 0 46.42392
-0.59576833 5.2572932 0.79970241 345.5 0 0 0 23.018181
-0.4645412 5.2458487 0.86052352 67 0 0 0 23.407221
0.3648631 5.0935874 0.77647328 280.5 0 0 0 25.943634
3.8915563 5.2056766 0.58984256 968.5 0 0 0 34.917519
5.0931206 5.4224486 0.85171419 382 0 0 0 36.684101
5.8617821 5.1168613 0.88960111 496 0 0 0 38.242599
9.7090635 5.336906 0.88504219 485.33334 0 0 0 41.61517
14.094766 5.2769833 0.93342578 267 0 0 0 43.901066
20.218874 5.1032095 0.75931406 254 0 0 0 45.650448
4.9718199 5.5624495 0.76324606 478 0 0 0 36.282089
5.4416261 5.787868 0.51487267 628 0 0 0 36.684101
5.8707094 5.9422865 0.95156854 608 0 0 0 37.067806
9.7200546 5.7116714 0.71426994 520.5 0 0 0 41.165619
10.847507 5.5027246 0.76568812 401 0 0 0 42.146481
11.881635 5.6615887 0.82442391 199 0 0 0 42.530071
-2.5766773 6.4509521 0.94525951 310 0 0 0 18.730869
-2.1226192 6.4291615 0.92348468 882 0 0 0 19.703005
-1.8471935 6.371254 0.824696 731.5 0 0 0 20.2845
5.1912174 6.2546973 0.92624748 485.5 0 0 0 35.700333
17.352957 6.2515817 0.68196684 125 0 0 0 44.094139
-18.891518 6.6765738 0.6626572 56 0 0 0 5.0723701
-17.594809 6.7050753 0.62604517 111 0 0 0 5.4580698
-0.24079841 6.636754 0.58941698 74 0 0 0 24.184919
-17.907015 7.3314185 0.64338923 22 0 0 0 5.8547702
-16.434093 7.2002354 0.60032195 59 0 0 0 6.2437601
2.2720587 7.1003575 0.75559735 1501 0 0 0 29.64744
2.7596765 7.0828762 0.77077329 1714.75 0 0 0 30.622129
3.2022119 7.1026354 0.73178893 1814.4 0 0 0 31.44364
3.7309299 7.1116357 0.71494424 1721.1111 0 0 0 32.382355
4.3124352 7.1143107 0.74020892 1666.8334 0 0 0 33.354767
4.8172145 7.1253757 0.7649188 1707 0 0 0 34.134281
5.2158933 7.1290121 0.56664336 747 0 0 0 34.72493
10.10494 7.1735001 0.78177732 816 0 0 0 39.805119
10.64407 7.167201 0.80802709 743 0 0 0 40.191658
11.219132 7.1578979 0.83637935 658 0 0 0 40.581631
12.648288 7.216733 0.5533663 313 0 0 0 41.356552
13.346153 7.1838775 0.57348245 499 0 0 0 41.74448
18.593468 7.2190294 0.73572302 219 0 0 0 43.707993
-16.383125 7.661159 0.60582411 84 0 0 0 6.6363602
2.102905 7.8716378 0.72107315 937 0 0 0 28.862129
-12.02958 8.374033 0.68210202 352 0 0 0 9.3575602
-11.560014 8.4725828 0.84291393 430 0 0 0 9.7448101
-27.455755 8.9651327 0.93696606 83 0 0 0 4.6894498
-11.297603 8.7127123 0.83999491 379 0 0 0 10.145
-5.7105675 8.8607893 0.63776225 28 0 0 0 15.60061
2.1114397 8.7369194 0.68018377 807 0 0 0 28.47576
-18.10714 9.0181503 0.67424262 53 0 0 0 7.0272298
-11.907561 9.1874247 0.51732761 201 0 0 0 10.145
-11.215202 9.0960283 0.85053009 301 0 0 0 10.52857
-5.5166039 9.0392857 0.64105678 79 0 0 0 15.98984
-5.2406559 9.3459501 0.64908218 82.5 0 0 0 16.579578
-4.9464941 9.6354303 0.65649366 211 0 0 0 17.158951
1.760061 9.894289 0.87897015 590 0 0 0 27.507395
2.069293 9.5665054 0.73639834 808 0 0 0 28.091789
-14.145448 10.381409 0.59635067 40 0 0 0 9.7448101
-10.026142 10.403002 0.85469067 129 0 0 0 12.47324
-9.1624575 10.486601 0.82649475 132 0 0 0 13.26008
-13.261104 10.767958 0.58331901 88 0 0 0 10.52857
-12.602148 10.752804 0.76884472 84 0 0 0 10.91662
-10.84799 10.721811 0.89949131 158 0 0 0 12.09047
-10.399716 10.794778 0.52012098 65 0 0 0 12.47324
-9.9615059 10.857512 0.87168592 73 0 0 0 12.86253
-8.8515844 10.645704 0.82262468 83 0 0 0 13.64825
-21.057463 11.146178 0.78872889 153 0 0 0 7.41505
-9.8616142 11.294642 0.52169329 139 0 0 0 13.26008
-8.7483368 11.346897 0.67537385 154 0 0 0 14.233635
-13.120214 11.766973 0.60236663 107 0 0 0 11.30837
-12.403585 11.681233 0.99972969 84 0 0 0 11.7049
-21.411894 12.015399 0.81297612 100 0 0 0 7.80685
-9.9833279 12.019695 0.54279196 95 0 0 0 13.64825
-7.3057694 12.707877 0.51639587 232 0 0 0 16.38205
-9.0216322 13.329173 0.95363373 110 0 0 0 15.21741
-22.76363 13.521066 0.87513465 16 0 0 0 8.1912498
-9.78444 13.724007 0.99607545 101 0 0 0 14.82312
-22.570665 14.166081 0.88196772 84 0 0 0 8.58214
-0.43576461 14.105024 0.51398206 644 0 0 0 24.184919
-22.132355 14.658707 0.88014263 46 0 0 0 8.9772902
2.425612 16.969522 0.62389559 408 0 0 0 26.91647
2.9446981 17.502176 0.64569348 368 0 0 0 27.30937
3.5091643 18.10944 0.67070109 309 0 0 0 27.70542
-19.689245 18.586674 0.90641397 37 0 0 0 11.7049
-19.220764 19.057045 0.90737993 42 0 0 0 12.09047
-16.4172 21.936213 0.92575252 73 0 0 0 14.42827
-27.46871 -27.456633 1.3198832 33 0 0 0 87.07515
7.2738552 -18.871593 1.1587558 23 0 0 0 68.697411
9.3060141 -17.422739 1.1316564 82 0 0 0 66.741249
7.3168669 -16.521639 1.0386618 111 0 0 0 67.912285
9.5729275 -16.910723 1.1138848 71 0 0 0 66.345528
5.8885427 -16.474735 1.0075253 158 0 0 0 69.081421
4.8037672 -15.846591 1.3681378 194 0 0 0 69.867752
6.5824924 -14.86008 1.342298 60 0 0 0 67.912285
-3.7894835 -14.389357 1.2465018 28 0 0 0 78.654007
7.4828129 -14.00931 1.3123115 87 0 0 0 66.741249
4.9946947 -13.971602 1.2290925 183 0 0 0 69.081421
22.937408 -11.539207 1.4842772 26 0 0 0 56.965618
8.6898546 -11.144605 1.1725941 214 0 0 0 63.994846
3.6474533 -10.615752 1.4868896 274 0 0 0 69.274475
5.0640945 -10.722195 1.2768075 752 0 0 0 67.522369
6.3547678 -10.614926 1.0303029 330 0 0 0 65.953033
7.2462454 -10.8562 1.0852066 82 0 0 0 65.169807
12.527659 -10.811027 1.3708082 129 0 0 0 60.862659
14.170118 -10.513761 1.0229698 89 0 0 0 59.702381
5.6672249 -10.018485 1.2404406 107 0 0 0 66.345528
6.4195318 -10.150933 1.2929512 594 0 0 0 65.567551
6.8255448 -10.228003 1.3229951 321 0 0 0 65.169807
12.6393 -10.376967 1.356106 57 0 0 0 60.472401
5.3640361 -9.7588282 1.338273 253 0 0 0 66.543388
5.8001108 -9.6896458 1.3557298 534.5 0 0 0 65.953033
22.3193 -9.8861122 1.4170077 27 0 0 0 56.178928
-3.9892447 -9.0084829 1.0795081 103 0 0 0 81.194382
2.0641966 -9.2083111 1.4895552 273 0 0 0 71.046684
40.315586 -9.0197887 1.390097 17 0 0 0 53.057831
0.21594423 -8.8295031 1.2894889 643.5 0 0 0 74.168686
24.07457 -8.6029596 1.4889456 20 0 0 0 55.01799
-31.907282 -7.1427083 1.1252228 51 0 0 0 96.03157
22.024986 -7.2659559 1.3564423 533 0 0 0 54.627621
-0.82506812 -6.6859179 1.0768703 46.5 0 0 0 76.510521
-0.48262936 -6.5409207 1.2103987 10 0 0 0 75.735367
-9.0777578 -6.3996024 1.4965791 233 0 0 0 89.797981
-8.9082565 -6.2782512 1.2010852 156 0 0 0 89.797981
-1.270574 -6.4000449 1.0982364 129.33333 0 0 0 77.682274
-0.6810506 -6.3888397 1.1873292 132 0 0 0 76.251556
-0.34689268 -6.4078393 1.277131 529.79999 0 0 0 75.417336
10.058267 -6.3744769 1.1463439 38.5 0 0 0 58.522659
-5.672739 -5.6822138 1.3872653 387 0 0 0 87.07515
3.960741 -5.6398392 1.2681278 984 0 0 0 64.787621
4.1422334 -5.5049491 1.2098531 867.33331 0 0 0 64.259247
10.449247 -5.9228039 1.0118873 34 0 0 0 57.736698
-20.91477 -5.2254725 1.2823718 71 0 0 0 95.64579
-18.585339 -5.1325164 1.1509987 65 0 0 0 95.26577
-16.695847 -5.0561075 1.0449715 45 0 0 0 94.880463
-2.5540054 -5.087636 1.4095365 540.5 0 0 0 81.980919
-2.2752607 -5.1480989 1.2960534 805.29999 0 0 0 81.19986
4.1934772 -5.47962 1.3264524 860.33331 0 0 0 64.127045
8.6622171 -5.4907484 1.3696018 801 0 0 0 58.522659
-2.6412122 -4.8564324 1.0757492 618.66669 0 0 0 82.504967
-2.4311998 -4.9414449 1.0715858 807.66669 0 0 0 81.851936
42.858402 0.048558656 1.479995 20 0 0 0 49.551861
37.865135 0.97411007 1.3162652 24 0 0 0 49.156158
35.450588 1.7849863 1.2393702 297 0 0 0 48.776501
37.044907 2.7795129 1.2988828 14 0 0 0 48.382072
-1.8741804 3.8597753 1.3264561 187 0 0 0 17.683767
-0.16982953 3.849787 1.1598639 98 0 0 0 24.184919
0.43939427 3.8891461 1.1016455 102.66666 0 0 0 26.65657
0.58941078 3.921104 1.1099318 131 0 0 0 27.231419
36.649632 3.6578999 1.2916214 28 0 0 0 47.986198
-1.7408123 4.0939283 1.1603371 154.66667 0 0 0 18.463751
-1.318014 4.1606116 1.1142313 133.75 0 0 0 19.99592
-0.73613095 4.3226495 1.1128911 114.33334 0 0 0 22.169157
0.36453184 4.2616463 1.1052719 121.8 0 0 0 26.216833
0.68780136 4.0842533 1.2507761 60.5 0 0 0 27.507395
4.4090853 4.4770613 1.1150362 936.5 0 0 0 37.067806
4.7039714 4.3756909 1.1807811 1076.25 0 0 0 37.751919
5.2037172 4.4344158 1.1254179 932 0 0 0 38.440079
-1.5883982 4.7527905 1.0611165 443 0 0 0 19.703005
-1.3666762 4.8757505 1.134197 420.25 0 0 0 20.48336
-0.19014867 4.634984 1.1048532 352 0 0 0 24.187273
0.099749826 4.7389917 1.129735 274.5 0 0 0 25.163559
3.9966118 4.9539289 1.0490572 1030 0 0 0 35.505112
4.192481 4.7491403 1.2036369 1104.9 0 0 0 36.209034
5.2403812 4.6925812 1.0669988 889 0 0 0 38.048218
5.6210108 4.6710477 1.0185589 480 0 0 0 38.637562
10.611668 4.7425456 1.3052089 385 0 0 0 42.919369
11.435721 4.7754025 1.0862267 359 0 0 0 43.312687
14.639372 4.8737397 1.3390739 281 0 0 0 44.476913
17.45787 4.8668628 1.1109136 239 0 0 0 45.263599
20.841482 4.7163711 1.2991409 191 0 0 0 46.038471
37.275131 4.6482816 1.3200167 10 0 0 0 47.596581
-1.2101426 5.0270262 1.1583647 353 0 0 0 21.064739
0.18053147 5.2165279 1.1131958 337 0 0 0 25.35438
3.9388032 5.1361279 1.0657592 1006 0 0 0 35.110111
4.1083937 5.3564072 1.4017262 865.5 0 0 0 35.112564
5.5375319 5.2120466 1.0579174 745.5 0 0 0 37.654724
9.9083576 5.183919 1.2591519 605.5 0 0 0 41.94548
10.559698 5.0352468 1.3142004 213 0 0 0 42.530071
14.822294 5.3433928 1.36777 136 0 0 0 44.094139
17.15587 5.2413268 1.101438 288 0 0 0 44.866779
20.472923 5.1658664 1.2859651 260 0 0 0 45.650448
29.963638 5.2448359 1.0818682 101 0 0 0 46.81879
-2.213943 5.7906723 1.4037014 1190.6666 0 0 0 18.986876
3.9893453 5.765728 1.3244079 805 0 0 0 34.330421
4.1312885 5.6661968 1.2359498 630.5 0 0 0 34.72493
9.7519722 5.7331529 1.1356421 632.5 0 0 0 41.165619
14.470473 5.6233582 1.3494262 123 0 0 0 43.707993
37.351795 5.5934997 1.3304279 16 0 0 0 47.211559
-19.325596 6.3016915 1.1657882 52 0 0 0 4.6894498
-16.774685 6.3900094 1.0356789 40 0 0 0 5.4580698
-2.5417709 6.3591156 1.2676659 1002 0 0 0 18.730869
-2.1408172 6.3202791 1.1735514 842.59998 0 0 0 19.585379
-1.8347219 6.3225536 1.0616714 781 0 0 0 20.2845
-16.508564 6.7507024 1.4719987 35 0 0 0 5.8547702
-2.609946 6.5344558 1.3033631 761 0 0 0 18.730869
0.091455847 6.9919949 1.3065112 828 0 0 0 24.97274
2.4186699 6.9704728 1.2026911 1251 0 0 0 30.03643
-18.079676 7.401145 1.1251494 55 0 0 0 5.8547702
-15.807594 7.3873453 1.2251337 52 0 0 0 6.6363602
-2.1219332 7.3488879 1.4166012 305 0 0 0 20.2845
-0.69092953 7.06388 1.3222976 648 0 0 0 23.2127
-0.080849223 7.0725045 1.3203708 377 0 0 0 24.578251
0.26538953 7.0272646 1.3144476 96 0 0 0 25.35438
2.242264 7.0923824 1.211729 1348.125 0 0 0 29.598816
2.7406833 7.0402074 1.231222 1599.3334 0 0 0 30.622129
3.2626143 7.052958 1.2667544 1688 0 0 0 31.599552
3.7907765 7.0626116 1.2665982 1644.2 0 0 0 32.539967
4.2828522 7.0705891 1.245136 1562.25 0 0 0 33.354767
4.789578 7.0888906 1.2881651 1576.25 0 0 0 34.134281
5.3352442 7.1085253 1.1178031 1464.25 0 0 0 34.917519
8.5829887 7.1085548 1.2566305 990 0 0 0 38.637562
9.5045862 7.1094208 1.3358043 819 0 0 0 39.415001
10.034212 7.1255541 1.2333763 800.5 0 0 0 39.805119
10.569458 7.1191845 1.2755368 758 0 0 0 40.191658
11.109858 7.0904455 1.3174155 426 0 0 0 40.581631
-17.444298 7.6436782 1.0988743 68 0 0 0 6.2437601
-16.043344 7.9799714 1.4818413 37 0 0 0 7.0272298
-1.4597915 7.9165502 1.1943734 365 0 0 0 21.84466
2.1158478 7.928637 1.22981 893 0 0 0 28.862129
-22.772371 8.0521917 1.3800302 50 0 0 0 5.0723701
-16.349804 8.1379356 1.0572557 75 0 0 0 7.0272298
0.7195164 8.1303883 1.3194512 236 0 0 0 26.14366
-11.657673 8.7612591 1.2185934 339.5 0 0 0 9.9449043
2.1318188 8.8299685 1.2447165 758.66669 0 0 0 28.47576
-11.418426 9.257556 1.2292405 310 0 0 0 10.52857
-0.97791904 9.0670805 1.0141857 361 0 0 0 23.018181
2.0551279 9.5140133 1.2096829 436 0 0 0 28.091789
-9.7951727 10.156812 1.1851666 52 0 0 0 12.47324
-8.850481 10.121283 1.2947793 97 0 0 0 13.26008
-8.2071848 10.367314 1.4353346 97 0 0 0 14.039
-11.195563 10.531693 1.2863067 63 0 0 0 11.7049
-10.045125 10.944218 1.2467046 53 0 0 0 12.86253
-8.8003407 10.57854 1.1588453 133 0 0 0 13.64825
-21.014572 11.121775 1.3670449 76 0 0 0 7.41505
-11.500542 11.365961 1.3522246 58 0 0 0 12.09047
-8.2592144 11.562926 1.1978281 114 0 0 0 14.82312
-6.4754534 11.912851 1.3120046 290.5 0 0 0 16.777109
-21.414169 12.014992 1.4119954 95 0 0 0 7.80685
-10.474613 13.258968 1.4159929 91 0 0 0 14.039
-8.9665613 13.240512 1.3444322 181 0 0 0 15.21741
-10.147194 13.512716 1.4169786 115 0 0 0 14.42827
-8.77209 13.665044 1.3655413 188 0 0 0 15.60061
-8.4910431 13.970107 1.3753927 102 0 0 0 15.98984
-8.1380587 14.160456 1.3749502 187 0 0 0 16.38205
3.5127242 18.131155 1.1235476 306 0 0 0 27.70542
-27.061195 -38.409893 1.5753477 12 0 0 0 84.315048
-22.688654 -19.562874 1.7626317 23 0 0 0 88.231216
7.2418647 -18.78017 1.654268 98 0 0 0 68.697411
7.8726406 -16.653177 1.5163671 184 0 0 0 67.522369
6.1827316 -16.038681 1.8352489 82 0 0 0 68.697411
6.7494063 -15.237192 1.7800226 113 0 0 0 67.912285
6.9829669 -13.884207 1.6622297 122 0 0 0 67.128845
14.605138 -13.240122 1.6250682 47 0 0 0 61.260311
-8.7010927 -12.68854 1.6724408 132 0 0 0 84.123093
5.7632127 -12.588173 1.8251381 97.5 0 0 0 67.717331
11.09389 -12.248012 1.7674644 73 0 0 0 62.820271
11.502634 -11.509941 1.7419944 166 0 0 0 62.039513
14.107234 -11.581495 1.9526604 70 0 0 0 60.472401
3.7419441 -11.338551 1.874535 237 0 0 0 69.467522
5.241415 -11.093199 1.924698 281 0 0 0 67.522369
5.8975019 -11.044212 1.9633714 109 0 0 0 66.741249
14.545274 -11.3545 1.9747812 73 0 0 0 60.088718
24.294924 -11.482346 1.553776 18 0 0 0 56.570099
4.3031931 -10.773613 1.8221292 168 0 0 0 68.497498
4.5388908 -10.968867 1.5699742 298 0 0 0 68.297585
5.3564086 -10.65215 1.576573 348 0 0 0 67.128845
11.984089 -10.868397 1.7333686 189 0 0 0 61.260311
12.193982 -10.524669 1.7266951 172 0 0 0 60.862659
-2.2867513e-05 -10.061811 1.8376386 17 0 0 0 74.551903
3.5869029 -10.038197 1.6771395 383 0 0 0 69.081421
5.3883629 -10.09219 1.5142373 212 0 0 0 66.741249
5.7850213 -10.223521 1.8443384 306 0 0 0 66.345528
6.5582533 -10.367339 1.9247519 262 0 0 0 65.567551
13.98644 -10.376446 1.8670156 74 0 0 0 59.702381
14.474804 -10.196881 1.8987216 22 0 0 0 59.304798
0.47772768 -9.7415953 1.5404639 10 0 0 0 73.766609
0.73148715 -9.9318686 1.5718281 16 0 0 0 73.377991
1.4176799 -9.5735092 1.6476384 367 0 0 0 72.212273
5.8608298 -9.7899618 1.7926081 381 0 0 0 65.953033
6.1807671 -9.7712069 1.5301689 576 0 0 0 65.567551
21.739847 -9.6270647 1.9734653 20 0 0 0 56.178928
-8.1486883 -9.0004406 1.628661 167 0 0 0 86.286064
-3.8717937 -9.3607674 1.8582004 55 0 0 0 80.813011
0.4508644 -9.2009716 1.797508 127.5 0 0 0 73.766609
0.76612526 -9.3608027 1.793698 237.33333 0 0 0 73.250992
1.1392967 -9.255249 1.7038388 126 0 0 0 72.603317
1.7775627 -9.3523598 1.6584802 255.66667 0 0 0 71.566071
24.096045 -9.2845745 1.5012356 25 0 0 0 55.404221
-8.2854176 -8.9274578 1.9355208 299 0 0 0 86.484047
0.21659498 -8.8592396 1.7312012 732 0 0 0 74.168686
0.86950558 -8.8494625 1.8450187 156 0 0 0 72.996994
21.39155 -8.8508348 1.9245409 20 0 0 0 55.792938
0.32855415 -6.7097912 1.7311645 167 0 0 0 73.766609
0.5939312 -6.9102359 1.9580002 542 0 0 0 73.187492
1.1900405 -6.87638 1.9690926 310 0 0 0 71.826653
-9.0854101 -6.2410088 1.7586365 27.5 0 0 0 89.998947
-0.14973935 -6.0934725 1.6494874 583 0 0 0 74.942413
0.77070653 -6.2681828 1.9409091 236 0 0 0 72.60463
1.4309222 -6.3907189 1.68727 64 0 0 0 71.046684
-5.6447768 -5.6540604 1.6761802 365 0 0 0 87.07515
-0.00081783731 -5.7737341 1.9200784 563 0 0 0 74.551903
0.097539864 -5.8218212 1.9328548 259.66666 0 0 0 74.290138
1.2459469 -5.5702772 1.8972133 489 0 0 0 71.046684
3.9796493 -5.6658936 1.7834768 789.33331 0 0 0 64.787621
4.1931758 -5.5252681 1.7874092 695.33331 0 0 0 64.193146
8.884922 -5.6327343 1.7949322 704 0 0 0 58.522659
