# .PCD v0.7 - Point Cloud Data file format
VERSION 0.7
FIELDS x y z intensity normal_x normal_y normal_z curvature
SIZE 4 4 4 4 4 4 4 4
TYPE F F F F F F F F
COUNT 1 1 1 1 1 1 1 1
WIDTH 961
HEIGHT 1
VIEWPOINT 0 0 0 1 0 0 0
POINTS 961
DATA ascii
8.4108725 -18.98065 3.2548125 35 0 0 0 67.997444
5.9971156 -18.158661 3.4731343 18 0 0 0 69.551163
6.0510898 -18.322077 3.0266824 26 0 0 0 69.551163
6.5163846 -18.217386 3.0349834 25 0 0 0 69.170288
-20.951122 -16.36466 3.4957571 19 0 0 0 89.083954
-5.3455644 -16.191404 3.0986836 76 0 0 0 79.712967
-5.4607091 -15.27117 3.3477039 101 0 0 0 80.102547
6.7821612 -15.305329 3.456903 11 0 0 0 67.997444
-19.95207 -14.810853 3.2696486 32 0 0 0 89.482872
-5.6870766 -14.752328 3.2643638 97 0 0 0 80.487686
6.8925791 -14.578072 3.3312275 41 0 0 0 67.605728
5.9230013 -14.304 3.1992505 38 0 0 0 68.383553
8.5253763 -14.229032 3.4265373 21 0 0 0 66.038971
-4.1071539 -13.556726 3.2746387 142 0 0 0 79.318817
7.8266411 -13.82101 3.2822442 43 0 0 0 66.429565
-22.186466 -13.312313 3.4030778 43 0 0 0 91.047592
-6.964047 -13.042429 3.4162669 88 0 0 0 82.449661
-6.3155479 -13.367411 3.4161098 112 0 0 0 81.660896
-5.9363918 -13.406897 3.3882556 262 0 0 0 81.272018
-4.2939982 -13.014042 3.1690753 148 0 0 0 79.712967
-3.6133909 -13.074624 3.1372333 157 0 0 0 78.932701
-4.5348582 -12.689079 3.1166139 224 0 0 0 80.102547
-4.2454538 -12.866921 3.4660466 256 0 0 0 79.712967
-3.8324096 -12.649914 3.3820567 62 0 0 0 79.318817
-1.8566705 -12.542037 3.2456326 230 0 0 0 76.984673
8.6808062 -12.996859 3.2308609 33 0 0 0 65.254028
-7.0428019 -12.445187 3.3051379 199 0 0 0 82.842941
-0.58774143 -12.025748 3.382736 49 0 0 0 75.418526
0.74890518 -12.178429 3.2783794 101 0 0 0 73.656631
7.4323454 -12.39994 3.3442264 34 0 0 0 66.038971
-13.275912 -11.747841 3.2197592 81 0 0 0 88.113541
-5.4720016 -11.582047 3.2784545 99 0 0 0 81.660896
-1.4697378 -11.944252 3.3810501 133 0 0 0 76.59024
0.0027092015 -11.709342 3.0000889 94 0 0 0 74.627472
0.71860743 -11.667311 3.1398072 166.5 0 0 0 73.656631
6.2973347 -11.780869 3.0922763 77 0 0 0 66.823357
6.9577971 -11.608272 3.4648714 30 0 0 0 66.038971
9.8173151 -11.967622 3.2009037 48 0 0 0 63.69334
10.81014 -11.932571 3.3286023 84 0 0 0 62.908878
-15.413532 -11.441845 3.0084884 54 0 0 0 89.482872
-11.681388 -11.130243 3.3300824 53 0 0 0 87.530151
-7.4166412 -11.111225 3.0897794 234 0 0 0 84.007927
-5.7692819 -11.473777 3.2867785 211 0 0 0 82.059692
-5.0512185 -11.40789 3.193974 252 0 0 0 81.272018
-4.2509089 -11.032793 3.3220665 247 0 0 0 80.487686
-3.7254891 -11.29113 3.3406181 215 0 0 0 79.712967
-3.3108201 -11.432709 3.3444123 220.5 0 0 0 79.125763
-1.6770762 -11.329 3.2190757 92 0 0 0 76.984673
-0.27443713 -11.291103 3.1752226 241 0 0 0 75.023056
0.14246738 -11.366861 3.1959031 137 0 0 0 74.43454
7.2247691 -11.40925 3.1262197 51 0 0 0 65.641396
7.5371246 -11.280389 3.1406639 144 0 0 0 65.254028
8.2276249 -11.094294 3.1972585 52 0 0 0 64.469276
9.5425329 -11.063514 3.3806832 171 0 0 0 63.298447
13.080542 -11.289077 3.146028 40 0 0 0 60.955391
-13.25606 -10.888201 3.1165154 154 0 0 0 88.691345
-7.5832162 -10.778454 3.0484853 338 0 0 0 84.392365
-7.4706616 -10.618481 3.3222444 100 0 0 0 84.392365
-6.6977949 -10.587907 3.2070839 210 0 0 0 83.619049
-5.7236938 -10.719556 3.413358 184 0 0 0 82.449661
-1.8827519 -10.881618 3.3765175 58 0 0 0 77.364204
-0.66203868 -10.842336 3.322118 77.5 0 0 0 75.610855
10.83729 -10.842522 3.1711411 18 0 0 0 62.121201
-17.130733 -10.278812 3.1295652 27 0 0 0 91.047592
-13.406711 -10.471893 3.0908504 25 0 0 0 89.083954
-11.726756 -10.123909 3.1987128 174 0 0 0 88.306282
-10.945916 -10.433134 3.4928851 121 0 0 0 87.530151
-7.591557 -10.246653 3.2637584 23 0 0 0 84.786842
-2.5409589 -10.162427 3.3341596 175.5 0 0 0 78.536728
-2.3407631 -10.439907 3.0093324 87 0 0 0 78.144829
8.2436571 -10.045825 3.0103972 77 0 0 0 63.69334
9.4451427 -10.422278 3.2559788 56 0 0 0 62.908878
10.725301 -10.216515 3.0654991 25 0 0 0 61.733391
11.148341 -10.109433 3.1143014 30 0 0 0 61.337059
-18.00725 -9.6365089 3.1986156 56 0 0 0 91.813408
-11.651333 -9.5701485 3.1140132 48 0 0 0 88.691345
-4.0225339 -9.7222605 3.4783058 258 0 0 0 80.888977
-3.7319424 -9.6899195 3.3479221 232.66667 0 0 0 80.493065
-2.7775853 -9.7468252 3.2682865 177.66667 0 0 0 79.061409
-2.2341261 -9.9643431 3.3769572 148 0 0 0 78.144829
7.8403826 -9.5544271 3.1679816 65 0 0 0 63.69334
8.2895374 -9.6108952 3.2524838 48 0 0 0 63.298447
11.40264 -9.8410692 3.1171682 73 0 0 0 60.955391
11.831435 -9.7148819 3.1679964 28 0 0 0 60.5597
-18.240889 -9.1932077 3.1990736 87 0 0 0 92.198349
-13.542003 -9.0574303 3.36201 101 0 0 0 90.266197
-11.321984 -9.302948 3.3857689 40 0 0 0 88.691345
-4.1292963 -9.3281116 3.2456183 74 0 0 0 81.272018
-3.0867908 -9.3555079 3.2588596 140 0 0 0 79.712967
9.4973736 -9.4987221 3.4408503 58 0 0 0 62.121201
9.9415207 -9.4666634 3.1792417 128 0 0 0 61.733391
-13.946795 -8.8408155 3.0011249 124 0 0 0 90.65387
-4.2134151 -8.9222775 3.0199869 241 0 0 0 81.660896
-14.658031 -7.8442359 3.4300573 25 0 0 0 91.813408
-10.681085 -7.1466742 3.2886109 311 0 0 0 90.266197
-10.747594 -6.8155403 3.2569225 229 0 0 0 90.65387
-9.9015074 -5.7271609 3.3075759 397 0 0 0 91.306618
-11.047134 -5.2342973 3.4331412 59 0 0 0 92.592552
-9.5110683 -4.2240176 3.4403086 26 0 0 0 92.991447
36.70998 -1.817469 3.056421 7 0 0 0 50.406673
28.396381 -0.70746082 3.0605366 69 0 0 0 50.016659
22.908718 -0.0039393739 3.0387831 49 0 0 0 49.618038
23.187281 0.56545526 3.0766454 70 0 0 0 49.232166
22.765232 1.1149182 3.0243576 38 0 0 0 48.849998
23.001839 1.6934475 3.060396 36 0 0 0 48.450207
23.102234 2.2723196 3.0804017 26 0 0 0 48.063591
23.153543 2.8528955 3.0958421 28 0 0 0 47.674568
24.449528 3.6240008 3.2783637 22 0 0 0 47.279591
23.125116 4.0102601 3.1150932 28 0 0 0 46.893898
27.905972 5.5427351 3.0695527 29 0 0 0 46.4972
28.511417 6.3943782 3.1518772 63 0 0 0 46.10482
10.762726 -62.165707 3.6005268 9 0 0 0 71.906876
35.43042 -32.138309 3.9434044 13 0 0 0 61.337059
35.570095 -30.708097 3.8753169 23 0 0 0 60.955391
35.613541 -29.251499 3.8021889 25 0 0 0 60.5597
35.853203 -28.003632 3.7545426 19 0 0 0 60.164566
37.610733 -27.917824 3.8654878 17 0 0 0 59.775002
40.270218 -25.523979 3.9366732 6 0 0 0 58.601727
4.1926703 -24.166191 3.8369274 18 0 0 0 71.906876
2.7477186 -22.278267 3.5142903 12 0 0 0 72.675797
3.3338501 -22.476873 3.5570817 25 0 0 0 72.293411
9.9612188 -21.068022 3.6497118 37 0 0 0 67.605728
27.846191 -19.628719 3.6491771 21 0 0 0 59.389847
5.8526263 -19.298717 3.6606128 33 0 0 0 69.941132
8.3949633 -18.944773 3.7614532 38 0 0 0 67.997444
11.111004 -16.635134 3.6340768 26 0 0 0 65.254028
-5.3741059 -16.277845 3.5365794 106 0 0 0 79.712967
8.0984993 -16.094467 3.7183847 80 0 0 0 67.217712
-5.8149319 -15.091805 3.7341328 157 0 0 0 80.487686
7.7596822 -15.414479 3.9851873 23 0 0 0 67.217712
13.770981 -15.200657 3.726738 55 0 0 0 62.908878
-19.180267 -14.981496 3.8052571 27 0 0 0 89.083954
-6.1547008 -14.875266 3.7169149 138 0 0 0 80.888977
-5.818327 -14.062319 3.8889899 258 0 0 0 80.888977
-5.4785852 -14.218902 3.8939395 120 0 0 0 80.487686
-7.1076183 -12.559714 3.6893501 82 0 0 0 82.842941
-6.7526269 -12.646489 3.6653068 229 0 0 0 82.449661
-4.6452923 -12.998063 3.5303812 91 0 0 0 80.102547
-2.5807118 -12.995412 3.7190697 141 0 0 0 77.761032
-2.2330296 -12.892482 3.6732516 131 0 0 0 77.364204
-1.2684987 -12.915339 3.6435764 79 0 0 0 76.193779
6.8521361 -12.818735 3.7185247 72 0 0 0 66.823357
8.021451 -12.667303 3.8353095 76 0 0 0 65.641396
8.9728384 -12.74088 3.6028862 55 0 0 0 64.87011
10.060671 -12.892357 3.7796974 62 0 0 0 64.082687
-8.2476826 -12.356201 3.7968559 8 0 0 0 84.007927
-7.433507 -12.414848 3.6991463 43 0 0 0 83.233086
-4.3346643 -12.128936 3.6162031 105 0 0 0 80.102547
-1.7936083 -12.130693 3.7458899 79 0 0 0 76.984673
0.30695182 -12.305596 3.7602773 132 0 0 0 74.241615
0.60640544 -12.247516 3.7460942 119 0 0 0 73.851036
-16.517851 -11.644187 3.6655226 16 0 0 0 89.875954
-15.743566 -11.686851 3.5572848 30 0 0 0 89.482872
-2.6642437 -11.8922 3.7229059 86 0 0 0 78.144829
-1.771763 -11.968551 3.9954343 148 0 0 0 76.984673
-1.4133126 -11.502303 3.5418169 51 0 0 0 76.59024
-0.2834526 -11.746145 3.5906222 182 0 0 0 75.023056
6.7676291 -11.946189 3.8553669 89 0 0 0 66.429565
7.292809 -11.516724 3.8283088 47 0 0 0 65.641396
-12.137055 -11.013043 3.7828443 88 0 0 0 87.920792
-8.2991018 -11.201624 3.9110343 31 0 0 0 84.786842
-7.9979739 -11.367953 3.8995326 90 0 0 0 84.392365
-1.3826841 -11.236894 3.7407458 98 0 0 0 76.59024
-0.27862778 -11.463624 3.7884848 78 0 0 0 75.023056
0.0046580699 -11.459571 3.5027978 176 0 0 0 74.627472
6.7589879 -11.276616 3.6932018 50 0 0 0 66.038971
8.3075705 -11.2021 3.5702455 47 0 0 0 64.469276
-11.308009 -10.778265 3.9906836 79 0 0 0 87.530151
-6.418047 -10.723211 3.816478 100 0 0 0 83.233086
-5.6639972 -10.61221 3.6747789 130 0 0 0 82.449661
-3.1886392 -10.538337 3.9082236 153 0 0 0 79.318817
-2.9610324 -10.728851 3.9504366 152 0 0 0 78.932701
-1.8817164 -10.864364 3.6438565 75 0 0 0 77.364204
-1.1423517 -10.739863 3.7474425 136.66667 0 0 0 76.325935
-0.26069686 -10.882481 3.8646319 140 0 0 0 75.023056
0.0044453787 -10.935923 3.7476611 168 0 0 0 74.627472
7.1690359 -10.729548 3.6258841 52 0 0 0 65.254028
7.8811636 -10.627168 3.7171474 59 0 0 0 64.469276
11.119366 -10.588152 3.928875 58 0 0 0 61.733391
63.054939 -10.979025 3.6968493 12 0 0 0 52.358639
-14.11673 -10.479235 3.6254897 32 0 0 0 89.482872
-11.704216 -10.108032 3.9508562 47 0 0 0 88.306282
-7.8194699 -10.293094 3.9466677 110.5 0 0 0 84.984749
-7.1636109 -10.452967 3.7146392 134 0 0 0 84.20015
-6.6096058 -10.452535 3.7770317 100 0 0 0 83.619049
-5.6662741 -10.016918 3.5170629 90 0 0 0 82.842941
-5.4378304 -10.184203 3.8135428 139 0 0 0 82.449661
-4.7553935 -10.07443 3.9539211 154 0 0 0 81.660896
-2.526437 -10.115592 3.7026432 210 0 0 0 78.536728
-2.2960763 -10.257358 3.7325637 163 0 0 0 78.144829
8.032443 -10.289721 3.9888926 40 0 0 0 64.082687
8.8532677 -10.264446 3.8080482 55 0 0 0 63.298447
9.6758871 -10.164183 3.5931916 109 0 0 0 62.513119
11.432499 -10.363455 3.9485795 52 0 0 0 61.337059
-11.901481 -9.7791071 3.9353666 56 0 0 0 88.691345
-8.0094194 -9.773262 3.8583736 109 0 0 0 85.566727
-6.5628357 -9.8358583 3.6126537 140 0 0 0 84.007927
-6.1720099 -9.7567768 3.8134751 156 0 0 0 83.619049
-5.7592545 -9.8021727 3.8469496 84.333336 0 0 0 83.103035
-4.0098066 -9.7010651 3.9843948 163 0 0 0 80.888977
-3.9802527 -9.6295738 3.7001817 152 0 0 0 80.888977
-1.9808499 -9.9932461 3.6186414 193 0 0 0 77.761032
25.82443 -9.9686804 3.6573329 32 0 0 0 55.481739
-18.20273 -9.1740017 3.6967847 95 0 0 0 92.198349
-13.835853 -9.257473 3.841867 148 0 0 0 90.266197
-6.2715459 -9.152729 3.8030276 106 0 0 0 84.20015
-4.7783318 -9.2256489 3.9441333 132 0 0 0 82.254677
-4.119884 -9.3133936 3.6171157 145 0 0 0 81.272018
-3.5693519 -9.2736177 3.5301266 224 0 0 0 80.487686
9.762392 -9.2961006 3.788085 52 0 0 0 61.733391
25.863298 -9.2609816 3.6303005 13 0 0 0 55.090153
-6.6147261 -8.9347439 3.9454477 106 0 0 0 84.786842
-5.8168073 -8.7211075 3.7222738 103 0 0 0 84.007927
-4.4823804 -8.9222879 3.5469854 346 0 0 0 82.059692
-3.9050856 -8.8278513 3.6664069 95 0 0 0 81.272018
7.6071439 -8.8166828 3.5620847 83 0 0 0 63.298447
-11.882545 -8.3797207 3.7164838 47 0 0 0 89.875954
9.0341539 -8.1866665 3.7289066 36 0 0 0 61.337059
-13.559145 -7.2592297 3.5518856 31 0 0 0 91.813408
-10.591445 -7.0867095 3.5776174 176 0 0 0 90.266197
-10.254069 -7.2340126 3.8318481 118 0 0 0 89.875954
-14.470624 -6.8563504 3.6966476 28 0 0 0 92.592552
-10.753979 -6.8196015 3.5749328 54 0 0 0 90.65387
-10.376741 -6.5829287 3.7530031 83 0 0 0 90.65387
-9.6521254 -6.1208954 3.7752604 124 0 0 0 90.65387
-8.8084631 -6.2165046 3.8270514 105 0 0 0 89.875954
-10.351019 -5.5440521 3.5875058 459 0 0 0 91.813408
-9.8104534 -5.8901024 3.6359091 347 0 0 0 91.047592
-9.4811115 -5.6957436 3.9253566 308 0 0 0 91.047592
-10.667692 -5.2160807 3.9214263 110.5 0 0 0 92.395447
-10.261285 -5.4937029 3.8440607 149 0 0 0 91.813408
-9.6803885 -5.4924078 3.677197 490 0 0 0 91.436142
-9.8541107 -4.9729509 3.9173918 124 0 0 0 92.198349
-9.4387913 -4.4763117 3.7091515 136 0 0 0 92.592552
22.451878 -0.55504912 3.5350807 9 0 0 0 50.016659
29.079035 -0.71913713 3.8486009 20 0 0 0 50.016659
23.078133 -0.0037520388 3.6321034 21 0 0 0 49.618038
22.829159 0.556952 3.5947673 32 0 0 0 49.232166
22.725597 1.1132201 3.5822084 62 0 0 0 48.849998
22.733681 1.6739663 3.5892289 26 0 0 0 48.450207
22.981602 2.2607346 3.6359732 26 0 0 0 48.063591
27.594069 5.4862242 3.7276471 43 0 0 0 46.4972
28.40098 6.375288 3.8557937 42 0 0 0 46.10482
28.871571 7.2298484 3.9421296 33 0 0 0 45.719952
28.88118 7.9907217 3.969105 53 0 0 0 45.323406
26.152363 9.3569012 3.6821055 44 0 0 0 44.15202
28.139519 9.2949991 3.9260635 57 0 0 0 44.546368
27.13763 10.467874 3.8543723 31 0 0 0 43.762249
-20.405371 15.089622 3.8811078 57 0 0 0 9.7614603
-18.714165 15.314246 3.7025337 80 0 0 0 10.53693
35.275528 -33.612129 4.0152698 11 0 0 0 61.733391
6.4548001 -32.456764 4.3465676 15 0 0 0 71.510246
-42.317425 -25.381069 4.0470872 34 0 0 0 91.047592
6.9614854 -25.161827 4.0828009 11 0 0 0 70.341446
3.5019674 -23.610243 4.3253875 47 0 0 0 72.293411
4.1002846 -23.633587 4.3466668 8 0 0 0 71.906876
8.1950264 -22.910109 4.4102478 30 0 0 0 69.170288
8.657196 -22.449585 4.3617954 22 0 0 0 68.775848
7.5927005 -19.68926 4.3486037 38 0 0 0 68.775848
6.314548 -16.366411 4.4802094 22 0 0 0 68.775848
7.1321874 -16.08765 4.0627379 48 0 0 0 67.997444
10.422936 -16.465788 4.0200648 16 0 0 0 65.641396
7.3989573 -15.642016 4.4202714 56 0 0 0 67.605728
-6.3795643 -14.407714 4.4166532 154 0 0 0 81.272018
-5.9383793 -14.352454 4.3542218 111 0 0 0 80.888977
9.7275114 -14.179335 4.3944678 31.5 0 0 0 65.062073
-1.3135041 -13.397515 4.1092124 87 0 0 0 76.193779
6.6032891 -13.117455 4.121182 60 0 0 0 67.217712
-7.5541234 -12.616283 4.1237316 113 0 0 0 83.233086
-7.231441 -12.778508 4.1175961 66 0 0 0 82.842941
-0.92276001 -12.554489 4.1558809 95 0 0 0 75.803185
7.2249603 -12.748258 4.4727082 28 0 0 0 66.429565
-7.8067532 -12.340879 4.0952849 140 0 0 0 83.619049
-0.60592341 -12.397748 4.0982995 88 0 0 0 75.418526
0.30406967 -12.275716 4.0547786 27 0 0 0 74.241615
0.60501677 -12.262656 4.0541792 19 0 0 0 73.851036
6.0731602 -12.059188 4.1234603 24 0 0 0 67.217712
8.7119789 -12.370523 4.2461305 28 0 0 0 64.87011
-5.9168725 -11.772392 4.0220799 176 0 0 0 82.059692
-2.0663967 -11.955297 4.303669 88 0 0 0 77.364204
-1.4399518 -11.73599 4.4845505 136 0 0 0 76.59024
-0.56671119 -11.67922 4.4352694 58 0 0 0 75.418526
0.29114535 -11.590274 4.1141739 75 0 0 0 74.241615
6.3662386 -11.904822 4.1230264 58 0 0 0 66.823357
-1.6815395 -11.386547 4.0844388 143 0 0 0 76.984673
-1.1060457 -11.3021 4.3083043 199 0 0 0 76.193779
-0.68778348 -11.30953 4.0215702 100 0 0 0 75.610855
-15.111826 -10.657001 4.2638917 54 0 0 0 89.875954
-11.702545 -10.618787 4.0363503 77 0 0 0 87.920792
-7.645472 -10.86694 4.3841157 82 0 0 0 84.392365
-3.6869936 -10.743752 4.0312624 100 0 0 0 79.907761
-0.77916145 -10.651981 4.0537891 228 0 0 0 75.803185
6.5199304 -10.869246 4.497189 24 0 0 0 66.038971
9.7622252 -10.772148 4.0819554 69 0 0 0 62.908878
10.249352 -10.766551 4.1733799 26 0 0 0 62.513119
-7.7382898 -10.181633 4.221096 24 0 0 0 84.984749
7.9428782 -10.178663 4.2649021 22 0 0 0 64.082687
11.140882 -10.099123 4.222115 59 0 0 0 61.337059
11.648582 -10.049764 4.3192849 50 0 0 0 60.955391
25.164896 -10.430674 4.2732487 18 0 0 0 55.87624
-12.888669 -9.8189812 4.1381059 116 0 0 0 89.283417
-7.8846493 -9.6176043 4.1054049 14 0 0 0 85.566727
-6.0476446 -9.5675678 4.0165892 93 0 0 0 83.619049
-5.5618057 -9.8362446 4.0099893 189 0 0 0 82.842941
-5.4301977 -9.6035013 4.1859193 33 0 0 0 82.842941
-4.5255418 -9.5875082 4.0238323 174 0 0 0 81.660896
8.161829 -9.9461432 4.2504048 40 0 0 0 63.69334
9.6140642 -9.6120663 4.1538997 25 0 0 0 62.121201
10.063759 -9.5797005 4.244967 20 0 0 0 61.733391
12.366092 -9.652215 4.0146098 33 0 0 0 60.164566
25.78653 -9.9539785 4.3360229 56 0 0 0 55.481739
-18.2915 -9.2187672 4.2184076 41 0 0 0 92.198349
-11.654565 -9.3389549 4.1876035 67 0 0 0 88.88765
-5.5248151 -9.2345228 4.083673 142 0 0 0 83.233086
25.914101 -9.2790928 4.3185105 44 0 0 0 55.090153
-12.70472 -8.9595337 4.3573861 30 0 0 0 89.875954
-6.3426323 -8.7893047 4.1132154 106 0 0 0 84.5896
-5.8363023 -8.9853058 4.066371 80.5 0 0 0 83.813492
-6.5850887 -8.4529629 4.066308 69 0 0 0 85.182655
9.2856483 -8.4174938 4.1423612 22 0 0 0 61.337059
-10.777788 -7.6006765 4.3515077 31 0 0 0 89.875954
-10.132162 -7.9171028 4.2434983 66 0 0 0 89.083954
-10.322841 -6.9122353 4.4052925 50 0 0 0 90.266197
-15.609184 -6.0341129 4.2725582 68 0 0 0 93.777794
-10.014551 -5.6866422 4.3678837 171 0 0 0 91.436142
-9.9542875 -5.65241 4.0615311 410 0 0 0 91.436142
-9.4042492 -5.8082709 4.1937656 313.5 0 0 0 90.850731
-10.065025 -5.3931584 4.051569 186 0 0 0 91.813408
-9.9770041 -5.3460078 4.2935157 234 0 0 0 91.813408
-10.339693 -4.9035749 4.3404012 88 0 0 0 92.592552
22.406309 0.54686219 4.0836253 8 0 0 0 49.232166
22.507893 1.1027975 4.1060538 8 0 0 0 48.849998
22.491579 1.6563977 4.1096454 11 0 0 0 48.450207
27.475145 4.7649398 4.3847661 62 0 0 0 46.893898
27.518345 6.1776371 4.4350877 74 0 0 0 46.10482
26.431353 7.3134804 4.3141308 40 0 0 0 45.323406
27.063505 8.2088699 4.4480343 79 0 0 0 44.942112
25.71431 10.652051 4.3787613 31 0 0 0 43.379128
25.700647 12.15721 4.4721665 31 0 0 0 42.590126
24.224943 12.95112 4.3220296 13 0 0 0 41.812199
-19.124355 14.880222 4.3074288 46 0 0 0 10.15046
-21.227695 16.519072 4.11308 41 0 0 0 10.15046
-20.413433 17.559511 4.1208019 61 0 0 0 10.93038
-42.160275 -38.228302 4.6627593 26 0 0 0 87.920792
9.0493393 -36.135239 4.8891382 10 0 0 0 70.72757
30.729969 -33.931358 4.8847313 23 0 0 0 62.908878
35.897625 -28.038321 4.8656063 21 0 0 0 60.164566
37.168858 -27.589819 4.9449172 19 0 0 0 59.775002
2.5510123 -25.898659 4.7128954 18 0 0 0 73.06575
2.9007816 -23.519115 4.8774419 30 0 0 0 72.675797
7.4627814 -22.596413 4.8991618 13 0 0 0 69.551163
8.0429134 -22.484888 4.9164109 19 0 0 0 69.170288
7.5545907 -19.580284 4.8385339 31 0 0 0 68.775848
-4.7814021 -19.115049 4.5424519 23 0 0 0 78.536728
6.8059273 -19.016397 4.6575255 29 0 0 0 69.170288
7.8890018 -19.042292 4.7527981 23 0 0 0 68.383553
8.5221252 -18.016369 4.5971665 27 0 0 0 67.605728
9.9021788 -17.47893 4.6342101 25 0 0 0 66.429565
8.4734554 -16.832342 4.8113208 22 0 0 0 67.217712
9.5410995 -16.841616 4.9415436 33 0 0 0 66.429565
7.5532317 -15.968174 4.950459 22 0 0 0 67.605728
7.7900529 -14.573289 4.633472 65 0 0 0 66.823357
14.980973 -14.982728 4.888763 73 0 0 0 62.121201
-2.7059686 -13.626096 4.5829558 21 0 0 0 77.761032
8.6296968 -13.622561 4.9194875 24 0 0 0 65.641396
-6.2263875 -13.178688 4.8065009 88 0 0 0 81.660896
-0.31361005 -13.090077 4.9630637 83 0 0 0 75.023056
5.9789209 -13.486465 4.8668447 35 0 0 0 67.997444
6.9517069 -13.005055 4.8654437 61 0 0 0 66.823357
-6.5034037 -12.933696 4.7740874 94 0 0 0 82.059692
9.3861914 -12.651862 4.8071833 16 0 0 0 64.469276
-2.6873472 -12.005116 4.6645908 132 0 0 0 78.144829
8.5546436 -12.144892 4.7176867 57 0 0 0 64.87011
10.086484 -12.287025 4.8510675 74 0 0 0 63.69334
-3.7174873 -11.764439 4.6782408 89 0 0 0 79.515892
-3.26372 -11.8255 4.6514907 128 0 0 0 78.932701
-2.9218481 -11.698625 4.5725522 88 0 0 0 78.536728
-2.2119484 -11.921906 4.5983548 100.5 0 0 0 77.562622
-1.7369839 -11.761946 4.5092025 106 0 0 0 76.984673
7.5307293 -11.892453 4.6462865 27 0 0 0 65.641396
8.0012589 -11.975051 4.7533145 64 0 0 0 65.254028
-12.202836 -11.072747 4.6166692 18 0 0 0 87.920792
-11.560497 -11.022783 4.8689885 6 0 0 0 87.530151
-4.210146 -11.348084 4.5900555 94 0 0 0 80.29512
6.4458027 -11.368938 4.6359749 24 0 0 0 66.429565
8.2879858 -11.175729 4.5934868 55 0 0 0 64.469276
10.895969 -11.44176 4.8223171 27 0 0 0 62.513119
25.113129 -11.139031 4.9888353 24 0 0 0 56.263313
-12.560485 -10.847522 4.6496215 34 0 0 0 88.306282
-8.2973452 -10.650814 4.7851162 30 0 0 0 85.182655
6.3628349 -10.607388 4.6924977 37 0 0 0 66.038971
6.8530264 -10.248938 4.6776109 29 0 0 0 65.254028
7.4082456 -10.245514 4.7966943 33.5 0 0 0 64.669693
7.712491 -10.130739 4.5186157 48.5 0 0 0 64.275986
8.4624443 -10.305132 4.7307639 27 0 0 0 63.69334
9.9147377 -10.415072 4.7473149 85 0 0 0 62.513119
-12.774163 -9.985055 4.9416709 47 0 0 0 89.083954
8.4452152 -9.7844954 4.586638 40 0 0 0 63.298447
8.7301922 -9.6266804 4.611722 62 0 0 0 62.908878
9.4437857 -9.9134617 4.8572369 37 0 0 0 62.513119
11.181688 -9.6435804 4.5098577 46 0 0 0 60.955391
24.989309 -9.6461878 4.8660655 44 0 0 0 55.481739
-18.261103 -9.2074633 4.7121801 93 0 0 0 92.198349
-11.409982 -9.3752918 4.8689442 54 0 0 0 88.691345
8.6050539 -9.4887037 4.8597984 18 0 0 0 62.908878
11.304591 -9.2790079 4.8292222 15 0 0 0 60.5597
25.772457 -9.2282972 4.9727168 31 0 0 0 55.090153
-16.33535 -8.745554 4.7271657 32 0 0 0 91.813408
-18.74777 -8.3260679 4.726459 57 0 0 0 92.991447
-13.990849 -7.0574775 4.7769928 47 0 0 0 92.198349
-16.258204 -6.2850347 4.8816857 187 0 0 0 93.777794
-16.329515 -5.8563523 4.8586459 103 0 0 0 94.167267
28.75106 5.7166834 4.6080503 55 0 0 0 46.4972
28.895643 7.2363901 4.6826882 62 0 0 0 45.719952
27.364094 9.0394773 4.532135 26 0 0 0 44.546368
27.318033 9.774539 4.5628457 36 0 0 0 44.15202
25.0327 10.370382 4.9344883 32 0 0 0 43.379128
26.972952 10.405018 4.5467849 22 0 0 0 43.762249
24.61573 10.913352 4.9039392 36 0 0 0 42.985249
26.24165 11.633383 4.5148563 28 0 0 0 42.985249
-18.690712 14.541347 4.7919388 35 0 0 0 10.15046
-21.176743 15.658936 4.6773629 82 0 0 0 9.7614603
-21.172491 17.325348 4.8606668 43 0 0 0 10.53693
-20.73612 17.835516 4.8612828 61 0 0 0 10.93038
-19.871828 17.958916 4.7629724 48 0 0 0 11.32269
34.363667 -32.743282 5.0653648 27 0 0 0 61.733391
35.65163 -30.778484 5.0282187 18 0 0 0 60.955391
40.161396 -26.858749 5.1615663 22 0 0 0 58.996712
40.486622 -25.661108 5.1220455 17 0 0 0 58.601727
3.6706266 -24.747257 5.1474843 6 0 0 0 72.293411
7.1641574 -20.017309 5.4228458 17 0 0 0 69.170288
7.7562947 -18.722002 5.1708312 25 0 0 0 68.383553
8.2517319 -18.612862 5.1951241 16 0 0 0 67.997444
7.3259721 -16.524782 5.0648141 18 0 0 0 67.997444
7.6107626 -16.082561 5.4235568 31 0 0 0 67.605728
6.1225314 -15.860545 5.1831794 25 0 0 0 68.775848
12.216302 -15.654585 5.0700078 61 0 0 0 64.082687
6.8561935 -15.457913 5.1559663 34 0 0 0 67.997444
13.848557 -15.280941 5.2650032 158 0 0 0 62.908878
6.8853388 -14.556287 5.3096523 27 0 0 0 67.605728
16.216223 -14.699534 5.0499096 60 0 0 0 61.337059
16.825853 -14.5161 5.1271558 108 0 0 0 60.955391
7.1488953 -14.201291 5.2431564 18 0 0 0 67.217712
17.549103 -14.404215 5.2379546 63 0 0 0 60.5597
-18.423979 -13.681585 5.2837071 23 0 0 0 89.482872
8.2820349 -13.068775 5.4831772 16 0 0 0 65.641396
-6.6614704 -12.486243 5.0144963 97 0 0 0 82.449661
8.0339098 -12.014857 5.1243677 19 0 0 0 65.254028
7.4385824 -11.73792 5.2682676 78 0 0 0 65.641396
8.2273226 -11.673767 5.0640326 34 0 0 0 64.87011
-12.168694 -11.041785 5.4140954 49 0 0 0 87.920792
25.624281 -10.621015 5.0372553 19 0 0 0 55.87624
10.07302 -10.067378 5.0512309 30 0 0 0 62.121201
12.715468 -10.43328 5.0203934 25 0 0 0 60.5597
24.479385 -10.146429 5.4656992 30 0 0 0 55.87624
-10.876754 -9.8764353 5.204145 55 0 0 0 87.920792
24.668808 -9.5224085 5.4547253 22 0 0 0 55.481739
-18.270061 -9.2120075 5.2166729 82 0 0 0 92.198349
-13.680358 -9.1534939 5.4233484 14 0 0 0 90.266197
-11.447913 -9.4131565 5.2496181 60 0 0 0 88.691345
-10.805891 -9.3388519 5.2343349 102 0 0 0 88.306282
11.297252 -9.266387 5.1829162 14 0 0 0 60.5597
-11.697729 -8.6931362 5.3399372 32 0 0 0 89.482872
-11.150305 -8.7189312 5.3615203 12 0 0 0 89.083954
26.304073 -8.6964092 5.032671 13 0 0 0 54.702953
-19.698448 -8.1758356 5.4362617 21 0 0 0 93.375885
-18.903687 -8.3953409 5.2731681 18 0 0 0 92.991447
25.021465 -8.2723017 5.4373565 30 0 0 0 54.702953
-12.075727 -7.6637201 5.0668969 33 0 0 0 90.65387
-11.874042 -7.9509268 5.412601 60 0 0 0 90.266197
28.412033 4.9278231 5.2470703 43 0 0 0 46.893898
28.233145 5.6141562 5.2383637 34 0 0 0 46.4972
28.874006 6.4824233 5.3845968 29 0 0 0 46.10482
26.662853 8.0878954 5.0725498 31 0 0 0 44.942112
27.156 8.971324 5.2060499 30 0 0 0 44.546368
26.584648 9.5127668 5.1403751 66 0 0 0 44.15202
27.337296 10.546218 5.3332505 48 0 0 0 43.762249
24.936289 11.796427 5.0232162 43 0 0 0 42.590126
24.545034 12.357857 5.0041513 23 0 0 0 42.203369
24.93362 13.330785 5.1475511 49 0 0 0 41.812199
-21.628664 15.185352 5.3407063 54 0 0 0 9.37362
-21.089186 15.592805 5.3021998 45 0 0 0 9.7614603
-42.399776 -36.590919 5.9494271 25 0 0 0 88.306282
45.649906 -25.885031 5.6063128 10 0 0 0 57.824322
2.4441721 -24.769409 5.7302294 48 0 0 0 73.06575
3.0836771 -24.966089 5.7911968 17 0 0 0 72.675797
3.6904736 -24.851099 5.7838774 9 0 0 0 72.293411
7.5363517 -22.80582 5.5323033 11 0 0 0 69.551163
101.34303 -20.219809 5.9457207 22 0 0 0 52.751392
7.4287615 -19.254202 5.7776518 22 0 0 0 68.775848
7.8767219 -19.012697 5.761764 13 0 0 0 68.383553
6.9403386 -16.744305 5.5241189 43 0 0 0 68.383553
9.7074175 -16.189075 5.7529926 22 0 0 0 66.038971
12.236541 -15.680532 5.5723948 36 0 0 0 64.082687
12.731784 -15.514776 5.6228085 83 0 0 0 63.69334
6.3760352 -15.375372 5.895072 15 0 0 0 68.383553
8.7642145 -15.470406 5.8603549 24 0 0 0 66.429565
6.9509168 -14.681692 5.7541723 6 0 0 0 67.605728
16.885969 -14.567958 5.6928926 94 0 0 0 60.955391
17.585161 -14.433806 5.8072114 62 0 0 0 60.5597
-24.887569 -11.786656 5.6597762 22 0 0 0 92.592552
-13.761437 -11.884696 5.9878368 46 0 0 0 88.306282
-12.298635 -11.72249 5.5971727 12 0 0 0 87.530151
10.130583 -11.73701 5.8756542 19 0 0 0 63.298447
10.501028 -11.023211 5.7705278 26 0 0 0 62.513119
24.890268 -11.040132 5.6148386 30 0 0 0 56.263313
-14.554656 -10.808325 5.9700379 49 0 0 0 89.482872
-18.107758 -9.694479 5.7466531 36 0 0 0 91.813408
-18.27132 -9.2126675 5.7252078 78 0 0 0 92.198349
25.311825 -9.0632896 5.5459809 17 0 0 0 55.090153
26.568518 -8.065979 5.7274957 19 0 0 0 54.317398
-18.328978 -7.6074657 5.553401 17 0 0 0 93.375885
27.979113 5.5640831 5.8936367 50 0 0 0 46.4972
29.567064 7.4050446 5.5453925 40 0 0 0 45.719952
29.749908 8.2321825 5.6157985 16 0 0 0 45.323406
26.768452 8.8438797 5.8261123 42 0 0 0 44.546368
24.335476 10.789787 5.5036998 47 0 0 0 42.985249
25.749065 12.181631 5.8869772 25 0 0 0 42.590126
25.581255 12.880308 5.9189601 31 0 0 0 42.203369
25.259823 13.506013 5.9195113 24 0 0 0 41.812199
-21.075624 15.575742 5.9381967 36 0 0 0 9.7614603
-20.354118 15.829021 5.844697 60 0 0 0 10.15046
-19.83012 16.217669 5.8085995 59 0 0 0 10.53693
-20.264578 18.312246 5.5272169 46 0 0 0 11.32269
-42.082405 -42.098751 6.3214016 21 0 0 0 87.13768
-42.128853 -38.199841 6.0406742 26 0 0 0 87.920792
32.639698 -32.654175 6.0627127 21 0 0 0 62.121201
35.570621 -32.254158 6.3055062 24 0 0 0 61.337059
35.602127 -30.724901 6.1770658 12 0 0 0 60.955391
35.707672 -29.318365 6.0701356 26 0 0 0 60.5597
36.009861 -28.115854 6.0036063 15 0 0 0 60.164566
39.487286 -27.823877 6.3476596 32 0 0 0 59.389847
40.173737 -26.856834 6.351017 19 0 0 0 58.996712
52.209045 -26.306555 6.2438645 7 0 0 0 57.037479
40.534126 -25.681274 6.3075848 12 0 0 0 58.601727
3.0998755 -25.097126 6.4422088 14 0 0 0 72.675797
42.355305 -25.400291 6.4919243 20 0 0 0 58.21442
3.612659 -24.326992 6.2663178 8 0 0 0 72.293411
7.0355229 -15.854792 6.1421518 11 0 0 0 67.997444
8.0519199 -15.050594 6.0453258 19 0 0 0 66.823357
-17.371717 -12.900223 6.0522962 9 0 0 0 89.482872
10.393699 -12.65677 6.2046046 30 0 0 0 63.69334
-12.219073 -12.241136 6.1212325 19 0 0 0 87.13768
-12.301373 -11.733298 6.0169158 95 0 0 0 87.530151
-11.729807 -11.751001 6.2840314 6 0 0 0 87.13768
-12.146721 -11.305367 6.2808266 43.5 0 0 0 87.725471
25.110971 -11.132724 6.3362865 22 0 0 0 56.263313
-13.544889 -10.591323 6.0852613 17 0 0 0 89.083954
24.243723 -10.043739 6.0553727 77 0 0 0 55.87624
25.950445 -10.011833 6.4169054 20 0 0 0 55.481739
57.467274 -9.9951267 6.2417541 21 0 0 0 52.358639
25.71102 -9.2010794 6.3010559 31 0 0 0 55.090153
25.029427 -8.2700033 6.084044 20 0 0 0 54.702953
26.429729 -8.0187111 6.3735743 17 0 0 0 54.317398
-17.129862 -6.6289492 6.4983935 26 0 0 0 93.777794
-17.554478 -5.8138142 6.0889559 74 0 0 0 94.560646
-16.02243 -5.7526207 6.2335663 120.5 0 0 0 94.167267
-16.555883 -5.0422578 6.1247911 15 0 0 0 94.956871
29.755873 5.1613131 6.2369442 17 0 0 0 46.893898
27.321615 6.1398449 6.4719892 56 0 0 0 46.10482
28.878588 6.4839315 6.113915 20 0 0 0 46.10482
29.026993 7.2703094 6.1812234 28 0 0 0 45.719952
28.612103 7.9179058 6.1330094 20 0 0 0 45.323406
27.9806 8.4881392 6.0412555 26 0 0 0 44.942112
28.068394 10.828915 6.2154865 17 0 0 0 43.762249
27.259146 11.293333 6.0966158 23 0 0 0 43.379128
24.941183 11.805532 6.3795147 33 0 0 0 42.590126
24.243299 13.745228 6.4426332 23 0 0 0 41.42342
24.009502 14.403265 6.4723949 32 0 0 0 41.025249
-21.783169 15.28692 6.0279517 49 0 0 0 9.37362
-19.465021 15.917482 6.318171 41 0 0 0 10.53693
23.068588 19.912287 6.2936778 41 0 0 0 38.299431
22.710449 20.598022 6.3314834 18 0 0 0 37.898979
25.202909 22.856562 6.1849551 20 0 0 0 37.898979
25.25532 24.060621 6.3395228 36 0 0 0 37.50988
58.335815 -25.886923 6.8154387 20 0 0 0 56.263313
44.923069 -25.462492 6.7870607 34 0 0 0 57.824322
2.4288592 -24.613972 6.9160032 18 0 0 0 73.06575
13.380821 -15.513353 6.7498145 100 0 0 0 63.298447
13.926433 -15.366883 6.8326368 148 0 0 0 62.908878
-24.026072 -11.383855 6.768703 12 0 0 0 92.592552
-13.702271 -11.266806 6.711854 29 0 0 0 88.691345
23.973827 -9.9318733 6.6255698 11 0 0 0 55.87624
24.732243 -8.8507519 6.7075171 11 0 0 0 55.090153
25.287893 -8.3553143 6.8005729 28 0 0 0 54.702953
-19.253164 -7.4428821 6.7931066 44 0 0 0 93.777794
-16.383898 -6.8069592 6.712492 17 0 0 0 93.375885
-16.207333 -6.2719722 6.5757451 16 0 0 0 93.777794
-17.499763 -5.8024974 6.5226655 30 0 0 0 94.560646
-16.344473 -5.4194565 6.5158525 23 0 0 0 94.560646
28.400959 5.6535568 6.6912637 34 0 0 0 46.4972
29.19685 7.3187776 6.9545245 19 0 0 0 45.719952
28.610937 7.9234939 6.8600173 33 0 0 0 45.323406
27.989876 8.4968452 6.7598372 45 0 0 0 44.942112
26.841869 10.361794 6.6503153 30 0 0 0 43.762249
26.298386 10.901395 6.5804687 30 0 0 0 43.379128
24.583872 11.637149 6.9568048 34 0 0 0 42.590126
26.737171 11.860827 6.7602921 16 0 0 0 42.985249
25.689928 12.941441 6.6489058 25 0 0 0 42.203369
-21.030355 13.998726 6.967782 21 0 0 0 8.9773197
25.466618 13.623134 6.6755247 32 0 0 0 41.812199
-21.665682 15.203145 6.6439838 47 0 0 0 9.37362
22.704046 15.185496 6.985775 33 0 0 0 40.25256
-20.510153 15.948998 6.5257392 55 0 0 0 10.15046
-19.226748 15.721084 6.8566623 43 0 0 0 10.53693
-21.870838 16.162296 6.8273191 46 0 0 0 9.7614603
22.359884 20.288727 6.97475 25 0 0 0 37.898979
25.763605 25.781128 6.6218824 12 0 0 0 37.126232
-25.271208 26.470543 6.5037007 37 0 0 0 12.49011
-42.233997 -38.30864 7.4588318 32 0 0 0 87.920792
35.558926 -30.687613 7.3320861 14 0 0 0 60.955391
35.731441 -29.337873 7.21838 14 0 0 0 60.5597
35.989536 -28.099977 7.1303024 19 0 0 0 60.164566
37.980675 -28.182098 7.3851781 14 0 0 0 59.775002
40.513069 -25.6679 7.4913526 36 0 0 0 58.601727
26.21987 -11.624264 7.3189983 20 0 0 0 56.263313
24.276873 -10.762847 7.4389019 20 0 0 0 56.263313
25.933706 -10.005305 7.0954232 32 0 0 0 55.481739
23.737988 -9.8341179 7.1991715 10 0 0 0 55.87624
24.117628 -9.3046246 7.2431607 60 0 0 0 55.481739
-22.623779 -8.7503948 7.3774109 32 0 0 0 93.777794
25.413723 -8.3967981 7.4993477 7 0 0 0 54.702953
27.944601 4.853004 7.2506971 22 0 0 0 46.893898
45.301079 5.5821037 7.1541734 13 0 0 0 47.674568
26.957563 6.0584888 7.0649176 46 0 0 0 46.10482
28.106243 7.0459166 7.4077988 19 0 0 0 45.719952
27.300346 9.0260391 7.3520193 26 0 0 0 44.546368
26.131578 10.088264 7.1633596 33 0 0 0 43.762249
25.896069 11.488464 7.244669 21 0 0 0 42.985249
25.211527 12.701264 7.2192683 38 0 0 0 42.203369
24.933859 13.339008 7.2313046 40 0 0 0 41.812199
-20.73831 13.797884 7.4815993 16 0 0 0 8.9773197
24.411379 13.841383 7.1765223 31 0 0 0 41.42342
23.442636 14.859209 7.0981717 41 0 0 0 40.634998
-21.698309 15.224745 7.3108439 40 0 0 0 9.37362
-21.248053 15.700485 7.2884908 43 0 0 0 9.7614603
22.530933 15.884399 7.049974 32 0 0 0 39.86388
24.914234 19.462872 7.303093 14 0 0 0 39.074112
24.168133 19.855022 7.2252002 8 0 0 0 38.684818
-27.663563 22.637211 7.2191176 53 0 0 0 10.53693
-27.012333 23.233994 7.198216 52 0 0 0 10.93038
25.238974 24.046885 7.1937051 16 0 0 0 37.50988
24.844389 24.863371 7.2522192 13 0 0 0 37.126232
-25.14049 25.068789 7.1800361 47 0 0 0 12.09596
-24.522585 25.683418 7.1841836 35 0 0 0 12.49011
-23.898195 26.292259 7.1909342 29 0 0 0 12.88543
-23.260609 26.888138 7.1982875 41 0 0 0 13.2675
-22.625555 27.489767 7.2112331 39 0 0 0 13.66535
-5.5132241 31.499006 7.3174438 37 0 0 0 21.86293
-4.7159867 31.477638 7.2860293 60 0 0 0 22.26392
-3.9296632 31.488459 7.2665629 47 0 0 0 22.646311
-3.1440821 31.464195 7.2435055 52 0 0 0 23.03598
-1.587661 31.429346 7.2137303 67 0 0 0 23.829161
-0.81409186 31.412407 7.2054582 47 0 0 0 24.21703
-0.042322624 31.394991 7.2013793 62 0 0 0 24.60252
9.4251251 31.191404 7.4984422 41 0 0 0 29.28726
15.635254 31.113295 7.1708651 65 0 0 0 32.03281
16.566193 31.041044 7.2469687 57 0 0 0 32.41737
17.564211 31.049921 7.3485332 43 0 0 0 32.818069
3.9630597 -26.686455 7.5411568 11 0 0 0 72.293411
40.193947 -26.870319 7.5508337 26 0 0 0 58.996712
1.892332 -25.525078 7.7851887 7 0 0 0 73.462227
2.4884524 -25.172853 7.69449 10 0 0 0 73.06575
3.0477765 -24.639759 7.5527577 15 0 0 0 72.675797
1.7416583 -23.548143 7.7686582 19 0 0 0 73.462227
-19.098333 -15.698066 7.5183988 19 0 0 0 88.691345
-20.78632 -13.913247 7.6064153 28 0 0 0 90.266197
-16.467112 -11.621459 7.6215286 19 0 0 0 89.875954
-25.645559 -11.389519 7.8392935 23 0 0 0 92.991447
-24.175402 -10.039017 7.9588099 16 0 0 0 93.375885
59.478405 -10.333869 7.9437099 19 0 0 0 52.358639
23.676298 -9.8036652 7.8104343 8 0 0 0 55.87624
23.754269 -9.1596203 7.7603498 6 0 0 0 55.481739
25.588289 -9.1570024 7.6139035 15 0 0 0 55.090153
24.262777 -8.6778326 7.8546267 8 0 0 0 55.090153
59.249081 -8.8018732 7.8829684 16 0 0 0 51.972752
-19.96023 -8.2927752 7.641572 15 0 0 0 93.375885
59.840584 -7.3935776 7.9358716 10 0 0 0 51.580898
26.757204 6.0139127 7.694345 23 0 0 0 46.10482
30.473408 6.0665383 7.9404097 27 0 0 0 46.4972
28.83617 7.9864068 7.6488252 38 0 0 0 45.323406
29.706026 9.0183563 7.9349456 11 0 0 0 44.942112
25.703314 11.403677 7.8900313 9 0 0 0 42.985249
27.637724 11.457236 7.6489348 14 0 0 0 43.379128
24.08017 14.447503 7.8794293 33 0 0 0 41.025249
23.802605 15.088329 7.9073143 21 0 0 0 40.634998
-20.64488 16.045155 7.8568983 37 0 0 0 10.15046
-21.627783 16.816965 7.5586972 44 0 0 0 10.15046
23.962597 17.79055 7.6294312 29 0 0 0 39.46664
23.231735 20.063055 7.8449597 32 0 0 0 38.299431
-3.1377964 31.379742 7.9981546 47 0 0 0 23.03598
-2.3588777 31.349936 7.9759073 21 0 0 0 23.43111
-1.5862244 31.358971 7.9683223 52 0 0 0 23.829161
-0.81455213 31.349003 7.9607005 45 0 0 0 24.21703
-0.044309076 31.316208 7.9520621 50 0 0 0 24.60252
0.72494555 31.31105 7.9551601 40 0 0 0 24.993771
1.49613 31.332518 7.9697552 29 0 0 0 25.391159
13.738614 31.073128 7.8260269 45 0 0 0 31.24877
14.646601 31.041389 7.9076171 45 0 0 0 31.64241
3.9242165 -26.393095 8.114995 19 0 0 0 72.293411
3.0919862 -25.032911 8.2965899 12 0 0 0 72.675797
44.984894 -25.497482 8.0762033 33 0 0 0 57.824322
1.1923262 -23.998529 8.4939184 10 0 0 0 73.851036
-24.677856 -11.698022 8.3019657 21 0 0 0 92.592552
25.346022 -8.3694401 8.1357012 56 0 0 0 54.702953
28.457401 5.6656818 8.1385241 37 0 0 0 46.4972
28.952745 7.2586226 8.3719025 33 0 0 0 45.719952
28.520611 7.89956 8.3011494 33 0 0 0 45.323406
27.969563 8.491806 8.1996517 38 0 0 0 44.942112
27.661959 9.9061871 8.2425642 24 0 0 0 44.15202
27.408968 11.363132 8.3235188 18 0 0 0 43.379128
25.682552 12.939346 8.068469 38 0 0 0 42.203369
26.944948 12.755461 8.3629122 26 0 0 0 42.590126
25.493736 13.639357 8.1117449 19 0 0 0 41.812199
-21.121761 14.817506 8.386795 37 0 0 0 9.37362
25.697948 14.571703 8.2874632 28 0 0 0 41.42342
-21.831453 15.311234 8.0087233 33 0 0 0 9.37362
23.891533 15.980676 8.0640459 25 0 0 0 40.25256
23.376856 16.481792 8.0245638 13 0 0 0 39.86388
-21.38518 17.478992 8.2995949 49 0 0 0 10.53693
22.966494 17.052296 8.0248814 16 0 0 0 39.46664
24.410162 20.055244 8.073513 12 0 0 0 38.684818
-26.991081 23.205345 8.0610771 53 0 0 0 10.93038
-26.379034 23.829445 8.0529356 41 0 0 0 11.32269
25.113565 23.93759 8.0091257 18 0 0 0 37.50988
-25.744839 24.430113 8.0423994 33 0 0 0 11.70684
-24.479017 25.626146 8.0359402 36 0 0 0 12.49011
-23.858599 26.236666 8.0440474 36 0 0 0 12.88543
-23.236349 26.847649 8.0567932 32 0 0 0 13.2675
-22.599033 27.444649 8.0698223 24 0 0 0 13.66535
17.521486 30.990719 8.2052765 42 0 0 0 32.818069
18.450405 30.84005 8.2840061 37 0 0 0 33.199699
-5.501296 31.418236 8.0815506 41 0 0 0 21.86293
-4.7098789 31.422289 8.0530634 48 0 0 0 22.26392
-3.9212477 31.403624 8.0237913 49 0 0 0 22.646311
11.096806 31.119774 8.4176407 39 0 0 0 30.07115
11.954203 31.087872 8.4874363 52 0 0 0 30.4664
15.593195 31.047228 8.0054712 41 0 0 0 32.03281
16.541323 31.011368 8.0996923 47 0 0 0 32.41737
-11.594179 34.916939 8.3959522 31 0 0 0 19.532021
-10.649219 34.915142 8.3334084 38 0 0 0 19.92375
-9.712945 34.893818 8.2721357 29 0 0 0 20.311911
-8.7974997 34.900703 8.2232332 29 0 0 0 20.70318
-7.8933821 34.909508 8.1802759 21 0 0 0 21.09675
-7.0267191 35.057621 8.1750059 53 0 0 0 21.47715
37.917629 -28.135305 8.5419044 13 0 0 0 59.775002
39.972198 -28.165516 8.8460541 23 0 0 0 59.389847
40.19875 -26.873508 8.7488661 17 0 0 0 58.996712
48.882732 -26.142962 8.6567678 11 0 0 0 57.436619
3.8589766 -25.985352 8.6398106 5 0 0 0 72.293411
40.53838 -25.683905 8.6841307 26 0 0 0 58.601727
51.055569 -25.714029 8.9271326 18 0 0 0 57.037479
42.043365 -25.213142 8.871479 13 0 0 0 58.21442
3.0773063 -24.842707 8.8478861 22 0 0 0 72.675797
2.406352 -24.298769 8.6312256 6 0 0 0 73.06575
0.59330904 -23.624302 8.9332533 20 0 0 0 74.241615
25.791662 -12.194819 8.6906948 6 0 0 0 56.645752
24.664625 -10.934639 8.8886528 21 0 0 0 56.263313
24.68927 -10.22807 8.8052206 18 0 0 0 55.87624
25.207426 -8.3284674 8.7489042 11 0 0 0 54.702953
28.366079 7.1173177 8.9230261 34 0 0 0 45.719952
28.24531 7.8291559 8.9430876 36 0 0 0 45.323406
26.635914 12.615659 8.9934721 22 0 0 0 42.590126
26.064268 13.138161 8.9070501 28 0 0 0 42.203369
-22.237968 14.800488 8.6805496 30 0 0 0 8.9773197
-20.796564 14.577227 8.8769283 21 0 0 0 9.37362
23.647446 14.996743 8.5461111 38 0 0 0 40.634998
-21.52873 15.905193 8.701396 44 0 0 0 9.7614603
23.538311 15.751422 8.6434011 27 0 0 0 40.25256
23.156792 16.333797 8.6478653 28 0 0 0 39.86388
26.732126 20.884233 8.6670856 9 0 0 0 39.074112
-26.965771 23.181395 8.9248753 51 0 0 0 10.93038
-26.312035 23.766603 8.901351 36 0 0 0 11.32269
24.764282 23.606508 8.7389679 15 0 0 0 37.50988
-25.684551 24.370462 8.8911982 45 0 0 0 11.70684
-25.073397 24.98805 8.891923 43 0 0 0 12.09596
-24.450047 25.593122 8.893755 38 0 0 0 12.49011
-23.817297 26.18841 8.8975639 40 0 0 0 12.88543
-23.20306 26.8062 8.9140167 35 0 0 0 13.2675
14.618427 30.986053 8.7348404 42 0 0 0 31.64241
16.499163 30.936235 8.9410725 34 0 0 0 32.41737
-5.4930372 31.358351 8.8567324 51 0 0 0 21.86293
-4.7020426 31.35528 8.8232746 45 0 0 0 22.26392
-3.9170442 31.352449 8.7953806 51 0 0 0 22.646311
-3.1355705 31.335812 8.7690525 50 0 0 0 23.03598
-2.3560266 31.283443 8.738142 16 0 0 0 23.43111
-1.5853456 31.299349 8.7315264 44 0 0 0 23.829161
-0.81597769 31.322315 8.7320995 29 0 0 0 24.21703
-0.046354573 31.272429 8.7176552 54 0 0 0 24.60252
0.72183514 31.267256 8.7208395 57 0 0 0 24.993771
1.4893121 31.233601 8.7213144 51 0 0 0 25.391159
12.829267 31.062939 8.5655746 41 0 0 0 30.861959
13.716131 31.026915 8.6473904 40 0 0 0 31.24877
15.586973 31.038963 8.8562031 30 0 0 0 32.03281
10.66962 -42.605007 9.0131464 8 0 0 0 70.72757
36.223953 -28.282982 9.4452543 11 0 0 0 60.164566
24.764894 -10.249213 9.4882545 6 0 0 0 55.87624
26.077061 -10.060391 9.2084274 21 0 0 0 55.481739
25.752377 -9.2155609 9.0123768 18 0 0 0 55.090153
25.015158 -8.2551804 9.3275843 21 0 0 0 54.702953
29.616161 5.9021959 9.2120848 23 0 0 0 46.4972
29.504147 6.6371484 9.2255192 15 0 0 0 46.10482
28.669672 8.7103853 9.1419802 20 0 0 0 44.942112
27.180862 12.065566 9.0743113 40 0 0 0 42.985249
26.130177 13.986557 9.0437202 18 0 0 0 41.812199
-22.259918 14.027707 9.1922321 10 0 0 0 8.5851402
-20.380169 14.284015 9.3076258 39 0 0 0 9.37362
-21.969988 14.609807 9.2192926 34 0 0 0 8.9773197
24.19029 15.336033 9.4498892 23 0 0 0 40.634998
25.349987 15.21624 9.0218334 5 0 0 0 41.025249
-21.670433 15.996872 9.4147282 25 0 0 0 9.7614603
23.85758 15.960066 9.4700308 22 0 0 0 40.25256
-19.959457 16.304388 9.0129852 52 0 0 0 10.53693
25.419527 19.860308 9.0452499 19 0 0 0 39.074112
25.18154 20.69038 9.1379833 18 0 0 0 38.684818
24.632225 21.273882 9.1251774 14 0 0 0 38.299431
24.27844 22.032547 9.1911793 8 0 0 0 37.898979
11.886727 30.917786 9.2640963 20 0 0 0 30.4664
17.471468 30.905962 9.0547047 43 0 0 0 32.818069
18.432186 30.813105 9.1584797 48 0 0 0 33.199699
-11.498971 34.622292 9.2206268 15 0 0 0 19.532021
-10.587444 34.704121 9.1736326 13 0 0 0 19.92375
-9.6785955 34.761261 9.1263485 26 0 0 0 20.311911
-8.7709618 34.785431 9.0765772 28 0 0 0 20.70318
-7.8735394 34.810722 9.0331173 20 0 0 0 21.09675
-7.0081916 34.952797 9.0255594 42 0 0 0 21.47715
2.048661 -27.568321 9.7677259 15 0 0 0 73.462227
40.190632 -26.868055 9.9368572 19 0 0 0 58.996712
2.5407383 -25.655695 9.7432327 13 0 0 0 73.06575
3.1679642 -25.574478 9.7390509 16 0 0 0 72.675797
40.916325 -25.923321 9.9568281 10 0 0 0 58.601727
24.260628 -10.04047 9.9393291 7 0 0 0 55.87624
25.483604 -9.1092768 9.5813837 9 0 0 0 55.090153
29.518801 5.8779016 9.9267969 21 0 0 0 46.4972
28.601671 6.4293823 9.6697874 17 0 0 0 46.10482
26.418291 13.311645 9.7593584 18 0 0 0 42.203369
-21.668879 14.408299 9.7289305 40 0 0 0 8.9773197
-21.318853 15.73586 9.9096785 24 0 0 0 9.7614603
24.40288 20.059242 9.6353807 26 0 0 0 38.684818
-26.324421 23.775469 9.7848091 22 0 0 0 11.32269
-25.652872 24.337948 9.7568035 17 0 0 0 11.70684
-25.037767 24.949953 9.7555113 45 0 0 0 12.09596
-24.477297 25.61894 9.7819481 13 0 0 0 12.49011
-23.168823 26.763626 9.7783871 22 0 0 0 13.2675
-22.577972 27.412764 9.8129091 58 0 0 0 13.66535
-21.946583 28.020123 9.8373623 15 0 0 0 14.05299
-21.300631 28.615301 9.8626614 40 0 0 0 14.44885
39.997437 -28.183281 10.055764 15 0 0 0 59.389847
43.527821 -26.1033 10.43264 11 0 0 0 58.21442
48.952801 -26.180361 10.04361 7 0 0 0 57.436619
24.687166 -10.934217 10.219548 8 0 0 0 56.263313
25.629225 -9.8772125 10.396706 18 0 0 0 55.481739
25.918348 -9.2645922 10.419079 8 0 0 0 55.090153
28.425301 6.4006343 10.326114 19 0 0 0 46.10482
29.4265 7.378427 10.006147 24 0 0 0 45.719952
29.243608 8.1009007 10.008938 11 0 0 0 45.323406
-21.381678 16.607626 10.126484 19 0 0 0 10.15046
-1.6775931 32.969616 10.007468 11 0 0 0 23.829161
-42.182095 -40.191257 10.50508 8 0 0 0 87.530151
37.780983 -28.023666 10.819407 13 0 0 0 59.775002
44.876137 -25.435736 10.603407 13 0 0 0 57.824322
29.544975 5.8942943 10.675562 12 0 0 0 46.4972
28.969036 7.274992 10.584923 16 0 0 0 45.719952
29.223051 8.1067381 10.747124 12 0 0 0 45.323406
-26.363552 23.800179 10.669201 11 0 0 0 11.32269
-25.624472 24.300091 10.610872 16 0 0 0 11.70684
-24.996109 24.897202 10.603243 12 0 0 0 12.09596
-23.145964 26.724825 10.63424 27 0 0 0 13.2675
40.054863 -28.213268 11.268433 15 0 0 0 59.389847
40.246296 -26.895084 11.134542 16 0 0 0 58.996712
49.271233 -26.350592 11.4839 24 0 0 0 57.436619
40.621445 -25.726536 11.061446 20 0 0 0 58.601727
-26.23695 23.691841 11.492155 33 0 0 0 11.32269
-25.59683 24.279917 11.471855 35 0 0 0 11.70684
-24.965094 24.872408 11.461619 24 0 0 0 12.09596
-24.347258 25.477419 11.464477 33 0 0 0 12.49011
-23.742887 26.098064 11.480951 18 0 0 0 12.88543
-23.098421 26.676327 11.485395 22 0 0 0 13.2675
-15.943191 33.539661 11.203588 21 0 0 0 17.56572
45.125675 -25.566711 11.931009 10 0 0 0 57.824322
63.948807 7.8806109 11.680745 13 0 0 0 47.674568
63.769905 9.4533339 11.687901 17 0 0 0 47.279591
-30.631771 19.322268 11.756365 8 0 0 0 8.5851402
-28.099337 21.847269 11.563421 28 0 0 0 10.15046
-27.450489 22.444479 11.522048 33 0 0 0 10.53693
-26.849871 23.075169 11.50662 34 0 0 0 10.93038
-22.49725 27.308451 11.519236 28 0 0 0 13.66535
-21.873638 27.920351 11.550319 25 0 0 0 14.05299
-21.234032 28.518833 11.58176 27 0 0 0 14.44885
-20.597919 29.130667 11.624362 17 0 0 0 14.84527
-19.940807 29.722868 11.664821 15 0 0 0 15.23208
-19.298067 30.349279 11.724186 21 0 0 0 15.62486
-18.665926 31.010851 11.802142 17 0 0 0 16.01325
-17.973354 31.590128 11.85415 22 0 0 0 16.39572
-17.302595 32.226925 11.933136 25 0 0 0 16.795891
-15.94906 35.793671 11.823804 13 0 0 0 17.964359
38.382519 -28.469826 12.164883 8 0 0 0 59.775002
40.030624 -28.196177 12.464256 19 0 0 0 59.389847
40.217922 -26.876099 12.314791 16 0 0 0 58.996712
53.357113 -26.872997 12.27764 9 0 0 0 57.037479
40.653896 -25.747055 12.252192 27 0 0 0 58.601727
-28.083639 21.817417 12.423432 31 0 0 0 10.15046
-26.825201 23.035542 12.357231 41 0 0 0 10.93038
-26.203711 23.64296 12.337027 32 0 0 0 11.32269
-25.572002 24.237026 12.318495 34 0 0 0 11.70684
-24.960247 24.847717 12.316624 35 0 0 0 12.09596
-24.343657 25.453215 12.319829 27 0 0 0 12.49011
-23.712345 26.043432 12.323068 26 0 0 0 12.88543
-23.086506 26.640837 12.336861 28 0 0 0 13.2675
-22.460558 27.24143 12.358957 19 0 0 0 13.66535
-21.834148 27.846647 12.389642 14 0 0 0 14.05299
-21.189789 28.435234 12.419386 22 0 0 0 14.44885
-20.549803 29.037457 12.461369 23 0 0 0 14.84527
-16.621202 32.869217 12.019261 25 0 0 0 17.17972
-15.936959 33.535995 12.119366 19 0 0 0 17.56572
-15.231013 34.191444 12.220465 22 0 0 0 17.964359
-14.520661 34.876163 12.337089 23 0 0 0 18.357149
-13.779909 35.531349 12.4485 18 0 0 0 18.75168
35.598339 -29.218153 12.867118 9 0 0 0 60.5597
36.460854 -28.457676 12.923267 11 0 0 0 60.164566
55.607471 -26.315836 12.643187 8 0 0 0 56.645752
42.854462 -25.689253 12.721244 11 0 0 0 58.21442
-19.936106 29.689619 12.53043 15 0 0 0 15.23208
-19.28442 30.30039 12.587664 21 0 0 0 15.62486
-18.623457 30.911541 12.65087 20 0 0 0 16.01325
-17.962248 31.540409 12.726985 15 0 0 0 16.39572
-17.293306 32.177799 12.812082 17 0 0 0 16.795891
-16.6098 32.813019 12.901826 20 0 0 0 17.17972
-13.372968 40.22665 12.803108 14 0 0 0 19.532021
-42.56374 -49.37698 13.354583 27 0 0 0 85.95784
64.35408 4.7397141 13.284514 17 0 0 0 48.450207
64.154694 6.3120656 13.272441 13 0 0 0 48.063591
63.967495 7.8837376 13.270786 19 0 0 0 47.674568
63.766041 9.4536362 13.274131 15 0 0 0 47.279591
-35.792667 12.728137 13.241676 21 0 0 0 5.0819001
-27.429331 22.407131 13.241353 28 0 0 0 10.53693
-25.541584 24.205786 13.163636 16 0 0 0 11.70684
-24.924026 24.80912 13.158 17 0 0 0 12.09596
-24.314205 25.41975 13.164391 21 0 0 0 12.49011
-23.698841 26.025795 13.176064 16 0 0 0 12.88543
-23.060995 26.608444 13.183548 11 0 0 0 13.2675
-22.445103 27.219576 13.212442 10 0 0 0 13.66535
-21.813641 27.817215 13.241705 19 0 0 0 14.05299
-21.185875 28.426531 13.28327 18 0 0 0 14.44885
-20.546131 29.028633 13.328024 11 0 0 0 14.84527
-19.900505 29.63274 13.380156 14 0 0 0 15.23208
-19.274214 30.280273 13.457911 14 0 0 0 15.62486
-15.925686 33.476559 13.008138 28 0 0 0 17.56572
-15.243454 34.181305 13.135665 28 0 0 0 17.964359
-14.513965 34.819389 13.243074 30 0 0 0 18.357149
-13.771103 35.464973 13.359128 25 0 0 0 18.75168
40.232037 -26.885502 13.52169 15 0 0 0 58.996712
67.120369 3.289048 13.832109 12 0 0 0 48.849998
-34.811321 11.424996 13.665654 20 0 0 0 4.6877098
-36.194988 13.880058 13.513473 25 0 0 0 5.4633298
-30.594454 19.280731 13.507313 16 0 0 0 8.5851402
-17.275244 32.139301 13.690023 19 0 0 0 16.795891
-16.592239 32.773109 13.785466 18 0 0 0 17.17972
-15.915769 33.450138 13.904806 16 0 0 0 17.56572
36.528469 -28.500185 14.08534 11 0 0 0 60.164566
49.258125 -26.332392 14.219372 21 0 0 0 57.436619
