# .PCD v0.7 - Point Cloud Data file format
VERSION 0.7
FIELDS x y z intensity normal_x normal_y normal_z curvature
SIZE 4 4 4 4 4 4 4 4
TYPE F F F F F F F F
COUNT 1 1 1 1 1 1 1 1
WIDTH 955
HEIGHT 1
VIEWPOINT 0 0 0 1 0 0 0
POINTS 955
DATA ascii
6.0819311 -14.678349 2.1108127 68 0 0 0 68.197556
9.767046 -14.611333 2.3327029 43 0 0 0 65.077332
-10.120635 -14.381794 2.3216736 97 0 0 0 84.178566
-5.0490999 -14.125671 2.3584278 319 0 0 0 79.894051
-6.5211039 -13.800539 2.0208256 107 0 0 0 81.463371
-6.3845811 -13.511733 2.3488059 123 0 0 0 81.463371
-5.6862798 -13.741261 2.337909 205 0 0 0 80.683952
-5.3613739 -13.91266 2.3441076 352 0 0 0 80.28817
0.0021782808 -13.788922 2.1738362 192 0 0 0 74.436562
5.7432189 -13.861759 2.3664384 61 0 0 0 68.197556
6.1593304 -13.891531 2.396385 38 0 0 0 67.813202
13.109159 -13.765761 2.0530963 14 0 0 0 62.341152
-8.8819313 -13.304085 2.1151054 71 0 0 0 83.795341
-7.0353274 -13.17422 2.3470201 64 0 0 0 82.240677
-5.962389 -13.463815 2.315038 135 0 0 0 81.06456
-3.0177276 -13.455304 2.1717765 183 0 0 0 77.947395
-2.4927435 -12.548128 2.1756978 213 0 0 0 77.560486
-1.8832972 -12.715441 2.3452861 359 0 0 0 76.778473
-1.2708073 -12.928517 2.3703222 240 0 0 0 76.005165
0.0017526658 -12.730556 2.3244202 115 0 0 0 74.436562
7.2756743 -12.840569 2.3291142 178 0 0 0 66.250549
-10.351373 -12.010205 2.0961351 238 0 0 0 85.753281
-9.0270081 -12.18217 2.3813028 51 0 0 0 84.579712
-7.3697109 -12.306886 2.2552829 165 0 0 0 83.018082
-4.00949 -12.149858 2.01666 129 0 0 0 79.504051
-2.1541383 -12.43175 2.3024101 65 0 0 0 77.173317
5.7841039 -12.228084 2.4718373 116 0 0 0 67.424408
6.0637016 -12.045213 2.4645004 43 0 0 0 67.03199
27.153046 -12.019351 2.4569762 47 0 0 0 56.108353
-12.680785 -11.502372 2.2602203 48 0 0 0 87.70327
-11.617753 -11.627283 2.1714559 230 0 0 0 86.933395
-10.776628 -11.900083 2.121922 71 0 0 0 86.14595
-7.4875088 -11.834977 2.2024736 102 0 0 0 83.408951
-3.8638227 -11.708496 2.2495325 103 0 0 0 79.504051
-2.7644453 -11.65093 2.4808679 189.5 0 0 0 78.139984
-0.77376872 -11.846667 2.2662876 161.33333 0 0 0 75.485909
-0.28814673 -11.801046 2.1575446 114 0 0 0 74.826569
0.001368436 -11.775249 2.4419475 68 0 0 0 74.436562
6.9420285 -11.580655 2.4679751 149 0 0 0 65.858902
-3.6586535 -11.086849 2.4188328 191 0 0 0 79.504051
-3.4336429 -11.331647 2.1617894 129 0 0 0 79.119804
-2.8141568 -11.247738 2.1179302 291 0 0 0 78.332573
-1.92553 -11.111593 2.338624 200 0 0 0 77.173317
6.9931426 -11.042415 2.3903325 174 0 0 0 65.474129
7.306653 -11.233154 2.1183991 190.5 0 0 0 65.275726
8.7180147 -11.168523 2.2380486 45 0 0 0 63.90546
-8.7052107 -10.617254 2.4990096 181 0 0 0 85.352844
-2.3153219 -10.946117 2.1820366 133 0 0 0 77.753937
-1.5943595 -10.762914 2.2576735 223 0 0 0 76.778473
-1.1937516 -10.7768 2.2504263 134.5 0 0 0 76.197624
7.1743069 -10.736228 2.3620059 162 0 0 0 65.077332
8.0999393 -10.377472 2.4077237 148 0 0 0 63.90546
8.7765636 -10.172389 2.1241815 64 0 0 0 63.131191
-25.583197 -9.1529951 2.2399595 28 0 0 0 93.942436
6.6243329 -9.4065218 2.1083145 49 0 0 0 64.696045
8.5811586 -9.4662619 2.02178 111 0 0 0 62.734741
9.3321857 -9.3296766 2.0868027 65 0 0 0 61.95652
9.6541576 -9.1886292 2.1072192 208 0 0 0 61.565929
6.6364822 -8.9492111 2.0428724 62 0 0 0 64.30088
7.638361 -8.8544502 2.4304335 103 0 0 0 63.131191
9.0967579 -8.6585245 2.2984734 22 0 0 0 61.565929
10.390714 -8.5233326 2.4568052 45 0 0 0 60.393021
7.6689506 -8.0547714 2.039551 91 0 0 0 62.341152
9.223177 -8.3569498 2.2780664 146 0 0 0 61.179432
7.8181105 -7.8176403 2.1609066 84 0 0 0 61.95652
8.8421717 -7.6254382 2.1391499 90 0 0 0 60.782711
-16.923927 -6.5334525 2.394057 28 0 0 0 93.550011
24.766134 -6.8371334 2.1257014 61 0 0 0 53.779247
-6.714159 -6.4029832 2.2688432 148 0 0 0 87.319534
-6.3793859 -6.3899722 2.0977466 159 0 0 0 86.933395
-15.46934 -5.1148591 2.1541991 7 0 0 0 94.328865
-20.875519 1.4490618 2.2988327 27 0 0 0 0.79067999
-21.884655 2.0594614 2.4121244 23 0 0 0 1.16934
-16.462433 2.3643849 2.2365711 301 0 0 0 1.9525599
21.443207 2.1370256 2.298177 35 0 0 0 47.930019
-17.163565 2.8963184 2.338553 108 0 0 0 2.34231
21.108746 2.6292324 2.2680767 82 0 0 0 47.540848
-16.288267 3.1604881 2.2291698 199 0 0 0 2.7371099
20.427744 3.5716772 2.2101624 85 0 0 0 46.76413
20.347361 4.0755148 2.2106965 70 0 0 0 46.369961
19.757805 4.9789824 2.1695168 30 0 0 0 45.597527
20.237103 4.5736198 2.2093723 70 0 0 0 45.984928
3.8972263 5.3223605 2.0209246 5 0 0 0 34.681446
20.822439 5.7947741 2.2982745 28 0 0 0 45.211311
-6.7574525 6.3480177 2.3789842 30 0 0 0 11.69041
20.295033 6.1896052 2.2559316 35 0 0 0 44.815102
-5.1736665 6.53091 2.3436763 52 0 0 0 14.022
-1.16363 6.8742814 2.3041029 15 0 0 0 22.011265
-0.69478488 6.9140625 2.2540774 16.75 0 0 0 23.085592
2.9444423 7.2350531 2.1929362 52 0 0 0 30.77898
3.2690742 7.2478342 2.131515 9 0 0 0 31.364515
4.2225418 7.3339777 2.1637397 18.5 0 0 0 32.924404
8.4593029 7.7202168 2.0754685 31 0 0 0 37.809231
27.491173 8.380435 2.3447247 16 0 0 0 44.815102
25.187761 9.0539408 2.1838658 29 0 0 0 44.043701
27.252342 9.0454016 2.3414547 27 0 0 0 44.425999
21.612188 12.294654 2.0245001 42 0 0 0 41.309353
34.486069 -36.207672 2.8838723 18 0 0 0 62.341152
7.8632092 -31.37298 2.6779485 12 0 0 0 70.547607
35.385685 -30.509853 2.6946545 14 0 0 0 60.782711
36.549202 -29.980383 2.7252054 18 0 0 0 60.393021
36.61578 -28.560474 2.676903 28 0 0 0 60.009872
3.361619 -27.231997 2.9413576 17 0 0 0 72.491447
36.523575 -27.07305 2.620681 21 0 0 0 59.62402
5.3374829 -26.818533 2.9326911 21 0 0 0 71.32653
1.2891576 -26.189388 2.8110433 41 0 0 0 73.652542
36.401299 -25.622055 2.5658586 17 0 0 0 59.226952
2.5115995 -25.476692 2.746146 53 0 0 0 72.884285
3.7085755 -24.985945 2.7109115 15 0 0 0 72.101189
36.404652 -24.310112 2.5229349 22 0 0 0 58.834846
2.7845242 -22.531258 2.9977188 11 0 0 0 72.491447
1.0958365 -22.195303 2.933881 23 0 0 0 73.652542
1.6190056 -21.876751 2.8969676 16 0 0 0 73.264488
5.7231936 -20.662888 2.8350446 26 0 0 0 70.151588
7.5851731 -19.650673 2.7869639 25 0 0 0 68.596306
-43.785561 -19.395624 2.7268612 15 0 0 0 92.758553
-9.4116344 -18.713146 2.7601926 33 0 0 0 81.849388
-43.91053 -18.174889 2.7066333 19 0 0 0 93.158249
10.996099 -18.334982 2.8298688 43 0 0 0 65.858902
9.9665146 -17.583775 2.6770029 27 0 0 0 66.250549
6.1282945 -17.118023 2.8599148 26 0 0 0 68.979202
-8.7844181 -15.519737 2.7956812 97 0 0 0 82.63533
9.5413017 -15.911066 2.9192953 25 0 0 0 65.858902
-7.6271553 -15.165967 2.6633027 48 0 0 0 81.849388
6.9809232 -14.754781 2.5718212 47 0 0 0 67.424408
5.1791563 -14.469821 2.8029358 55 0 0 0 68.979202
6.2244024 -14.037895 2.8012846 40 0 0 0 67.813202
7.230042 -14.358971 2.5337043 63 0 0 0 67.03199
26.633341 -14.219966 2.5000074 27 0 0 0 57.275238
-9.565753 -13.593687 2.6074309 67 0 0 0 84.178566
-9.061492 -13.573007 2.5607929 73 0 0 0 83.795341
-8.5691671 -13.543947 2.912113 63 0 0 0 83.408951
-4.8463278 -13.558481 2.9752281 65 0 0 0 79.894051
5.3091116 -13.759722 2.6913662 103 0 0 0 68.596306
7.3605938 -13.766533 2.8477988 39 0 0 0 66.645317
13.089849 -13.740336 2.5164368 92 0 0 0 62.341152
27.208439 -13.679104 2.5205851 26 0 0 0 56.892689
28.69313 -13.552918 2.6241322 43 0 0 0 56.498367
-44.464836 -13.47347 2.6487019 7 0 0 0 94.723053
-7.2018313 -13.485942 2.7799373 159 0 0 0 82.240677
-6.7016835 -13.326328 2.7133067 148 0 0 0 81.849388
-6.3298965 -13.396072 2.6954749 183 0 0 0 81.463371
-5.9559646 -13.449334 2.6764157 252 0 0 0 81.06456
-13.9849 -12.684819 2.9561088 39 0 0 0 87.70327
-10.775144 -12.501745 2.5887392 140 0 0 0 85.753281
-9.5493402 -12.886814 2.9138796 123 0 0 0 84.579712
-0.78336203 -12.793196 2.8121862 156 0 0 0 75.419762
-11.555725 -12.147316 2.6290116 67 0 0 0 86.54097
-10.227111 -12.472256 2.5307629 119 0 0 0 85.352844
-9.460536 -12.13315 2.7963808 96 0 0 0 84.964485
-7.2692714 -12.139285 2.5750122 220 0 0 0 83.018082
-6.8411384 -12.087698 2.8699331 111 0 0 0 82.63533
-3.4416037 -12.450398 2.6731236 239 0 0 0 78.726486
-1.5288025 -12.433688 2.9010422 172 0 0 0 76.390083
-0.3025603 -12.397724 2.5698292 15 0 0 0 74.826569
-8.1497374 -11.582386 2.751019 389.5 0 0 0 84.178566
-7.6472816 -11.766016 2.7268136 280.5 0 0 0 83.602142
-6.7831397 -11.985217 2.5072975 143 0 0 0 82.63533
-3.309695 -11.981306 2.8774991 251 0 0 0 78.726486
-1.7410963 -11.76862 2.7564263 240 0 0 0 76.778473
-1.1696827 -11.919243 2.7751219 152 0 0 0 76.005165
-0.70998895 -11.636267 2.8445938 88 0 0 0 75.419762
-0.27980584 -11.539009 2.6763566 247 0 0 0 74.826569
0.0035024586 -11.914618 2.7618442 128 0 0 0 74.436562
6.6376815 -11.715634 2.7924397 222 0 0 0 66.250549
8.0090427 -11.983405 2.9871774 147 0 0 0 65.077332
10.117424 -11.7242 2.8265226 87 0 0 0 63.131191
-7.6731329 -11.494411 2.8554332 366 0 0 0 83.795341
-3.3584414 -11.090435 2.6845443 141 0 0 0 79.119804
-2.5565903 -11.407946 2.9954894 263 0 0 0 77.947395
-2.2557821 -11.365117 2.6850677 135 0 0 0 77.560486
-1.4082861 -11.452271 2.9576697 238 0 0 0 76.390083
5.4117861 -11.441953 2.6263545 78 0 0 0 67.424408
5.6824265 -11.288745 2.6226468 157 0 0 0 67.03199
-8.62463 -10.519118 2.810674 113 0 0 0 85.352844
-8.2827368 -10.623454 2.783793 188 0 0 0 84.964485
-2.7379107 -10.95102 2.7548676 161.5 0 0 0 78.332573
-2.3884943 -10.657675 2.5326941 114 0 0 0 77.947395
-1.743994 -10.869533 2.6888461 152 0 0 0 76.975891
-1.0512018 -10.709587 2.7607291 144 0 0 0 76.005165
6.5474277 -10.923093 2.6429806 77 0 0 0 65.858902
7.8884883 -10.634603 2.7471788 21 0 0 0 64.30088
8.9331732 -10.88221 2.5727663 91 0 0 0 63.515808
43.538277 -10.882386 2.5673704 18 0 0 0 53.381599
7.3143802 -10.380594 2.9467177 51 0 0 0 64.696045
8.610754 -10.489693 2.8150806 48 0 0 0 63.515808
-5.2320404 -9.8059521 2.8485732 84 0 0 0 82.242355
-25.460127 -9.1094055 2.8862267 17 0 0 0 93.942436
-4.5966325 -9.145915 2.8793542 282 0 0 0 81.849388
-4.2558546 -9.3050184 2.8786263 316.5 0 0 0 81.263962
-3.7702115 -9.1166296 2.7765887 355 0 0 0 80.683952
6.7310562 -9.0727558 2.7644639 64 0 0 0 64.30088
9.7512579 -9.2803707 2.7924795 20 0 0 0 61.565929
10.282328 -9.0857983 2.8457663 166 0 0 0 60.981071
10.911089 -8.9493351 2.9252982 79 0 0 0 60.393021
11.495879 -8.5199375 2.9652987 23 0 0 0 59.62402
7.1296697 -8.262538 2.5375934 103 0 0 0 63.131191
10.820221 -8.4394732 2.5076394 182 0 0 0 60.009872
7.677433 -7.6739697 2.790746 212 0 0 0 61.95652
11.301451 -7.9536166 2.8648889 38 0 0 0 59.226952
-17.739969 -7.3536687 2.531971 105 0 0 0 93.158249
24.566322 -7.4353595 2.7481897 38 0 0 0 54.166512
29.922966 -7.4739728 2.5435834 9 0 0 0 53.381599
-6.6303549 -6.6412621 2.6420555 8 0 0 0 86.933395
24.785379 -6.8417044 2.7521157 75 0 0 0 53.779247
-15.782146 -6.0932412 2.6536012 65 0 0 0 93.550011
-15.869876 -5.6834145 2.6444199 46 0 0 0 93.942436
-20.841007 0.93147004 2.8049927 8 0 0 0 0.3969
-20.289654 1.4058375 2.7338727 29 0 0 0 0.79067999
-20.041681 1.8832272 2.704809 32 0 0 0 1.16934
26.631655 1.993715 2.8408232 15 0 0 0 48.325272
-20.504072 2.4352202 2.7724922 22 0 0 0 1.56775
22.462393 2.2430325 2.9611461 42 0 0 0 47.930019
-16.504259 2.7857153 2.6625407 308 0 0 0 2.34231
21.021671 2.6227195 2.7801335 55 0 0 0 47.540848
-17.024128 3.3047647 2.7567391 148 0 0 0 2.7371099
20.270111 3.0368485 2.6900532 31 0 0 0 47.156433
20.07498 3.514256 2.6741111 75 0 0 0 46.76413
20.601919 4.130734 2.7549546 81 0 0 0 46.369961
20.367409 4.6073174 2.7372286 28 0 0 0 45.984928
20.508615 5.1722674 2.7710812 25 0 0 0 45.597527
21.457848 5.975965 2.9154446 19 0 0 0 45.211311
20.750467 6.3328133 2.8396444 15 0 0 0 44.815102
24.804985 8.2346001 2.7695138 40 0 0 0 44.425999
25.208292 9.0619535 2.8365757 55 0 0 0 44.043701
25.53363 9.8938551 2.8977802 24 0 0 0 43.657951
21.874113 13.165864 2.6972761 43 0 0 0 40.927834
7.1085329 -31.634964 3.4715579 13 0 0 0 70.938606
3.5928583 -24.178175 3.2254081 27 0 0 0 72.101189
4.1296802 -23.764013 3.1835613 12 0 0 0 71.716499
1.0745353 -21.765236 3.4167943 64 0 0 0 73.652542
3.2646782 -21.972622 3.4838526 26 0 0 0 72.101189
5.8891144 -17.81529 3.414382 28 0 0 0 69.36409
9.2165384 -17.233746 3.0729973 21 0 0 0 66.645317
7.0171208 -16.931959 3.3367887 25 0 0 0 68.197556
-6.1150308 -15.868011 3.0895131 129 0 0 0 80.28817
-5.6997342 -15.945659 3.076865 106 0 0 0 79.894051
8.9126139 -15.725585 3.2923341 27 0 0 0 66.250549
-6.400445 -15.466692 3.0413218 132 0 0 0 80.683952
-6.528089 -14.740932 3.3266623 223 0 0 0 81.06456
6.0939245 -14.706643 3.2941735 16 0 0 0 68.197556
7.8579006 -14.695269 3.4476748 46 0 0 0 66.645317
-6.7055826 -14.190928 3.2393618 148 0 0 0 81.463371
-5.6489763 -13.657928 3.4142675 36 0 0 0 80.683952
-5.3115668 -13.790638 3.414047 113 0 0 0 80.28817
-4.5140209 -13.686566 3.3306289 118 0 0 0 79.504051
5.3294497 -13.812174 3.0656457 37 0 0 0 68.596306
6.2008586 -13.984665 3.1670911 42 0 0 0 67.813202
12.686066 -13.988092 3.4392178 85 0 0 0 62.734741
-8.0156898 -13.385275 3.219521 156 0 0 0 83.018082
-4.7765465 -13.370644 3.281553 176 0 0 0 79.894051
-3.6187704 -13.100214 3.4766419 70 0 0 0 78.726486
8.3134174 -13.124002 3.2169483 98 0 0 0 65.474129
-5.9896722 -12.682054 3.2412353 159 0 0 0 81.463371
-4.1946168 -12.718228 3.4258537 126 0 0 0 79.504051
-2.5044723 -12.618617 3.2932558 293 0 0 0 77.560486
-2.1842961 -12.618896 3.278722 198 0 0 0 77.173317
7.1965194 -12.695239 3.3806548 18 0 0 0 66.250549
7.9572515 -12.557332 3.4436529 17 0 0 0 65.474129
8.9330044 -12.679451 3.2120643 30 0 0 0 64.696045
-8.9095907 -12.023954 3.0889876 118 0 0 0 84.579712
-6.1316257 -12.198513 3.1558614 238 0 0 0 81.849388
-1.8137424 -12.260048 3.4818776 89 0 0 0 76.778473
-0.29627168 -12.225584 3.4372954 47 0 0 0 74.826569
-3.6139357 -11.934097 3.1921918 281 0 0 0 79.119804
-2.6434593 -11.795664 3.3962636 123 0 0 0 77.947395
-1.9920521 -11.507581 3.2826819 167 0 0 0 77.173317
-0.57145905 -11.708469 3.1488633 290.5 0 0 0 75.221321
-0.2881622 -11.887443 3.0479186 248 0 0 0 74.826569
0.00338601 -11.71147 3.0026271 23 0 0 0 74.436562
5.8751349 -11.665751 3.0290029 54 0 0 0 67.03199
7.9392009 -11.87433 3.3102403 76 0 0 0 65.077332
9.238884 -11.834444 3.1105723 113 0 0 0 63.90546
-12.285088 -11.144084 3.4194572 33 0 0 0 87.70327
-8.7827978 -11.268601 3.2999132 45 0 0 0 84.964485
-7.9476166 -11.299565 3.1920915 64 0 0 0 84.178566
-3.111994 -11.265566 3.2843387 96 0 0 0 78.726486
-2.8364103 -11.345038 3.2864053 120 0 0 0 78.332573
-1.6454206 -11.134638 3.4416625 153 0 0 0 76.778473
-1.1080964 -11.300465 3.3315706 174 0 0 0 76.005165
-0.84208035 -11.467375 3.2332888 83 0 0 0 75.618202
4.5940671 -11.085934 3.0794959 39 0 0 0 68.197556
5.592092 -11.104222 3.4987655 25 0 0 0 67.03199
8.6671343 -11.098698 3.2643077 20 0 0 0 63.90546
-8.1043015 -10.941847 3.4807417 35 0 0 0 84.579712
-6.6630611 -10.536762 3.4993851 154 0 0 0 83.408951
-6.3883276 -10.673208 3.4917638 90 0 0 0 83.018082
-3.530576 -10.705051 3.1684296 74 0 0 0 79.504051
-3.2816663 -10.843716 3.4628897 188 0 0 0 79.119804
-2.2435331 -10.837471 3.2927864 153.66667 0 0 0 77.689453
-1.8981174 -10.975946 3.4060996 123 0 0 0 77.173317
5.8765631 -10.673994 3.4301481 74 0 0 0 66.447937
6.1811948 -10.600498 3.1495571 156 0 0 0 66.054726
10.110511 -10.61492 3.0381324 87 0 0 0 62.341152
-4.6984119 -10.276384 3.453263 175 0 0 0 81.263962
-4.1450858 -10.027734 3.3172884 301 0 0 0 80.683952
-3.9032328 -10.390074 3.2106407 203.66667 0 0 0 80.156799
-3.4174604 -10.368191 3.3377829 114 0 0 0 79.504051
6.1791329 -10.30494 3.3829958 87 0 0 0 65.858902
6.8504705 -10.247832 3.1638694 73 0 0 0 65.077332
8.4031591 -10.233256 3.0715742 113 0 0 0 63.515808
9.6717319 -10.150976 3.2505019 98 0 0 0 62.341152
-5.2996044 -9.9336548 3.440419 133 0 0 0 82.240677
6.2912083 -9.9310246 3.3108082 44 0 0 0 65.474129
7.6886096 -9.8470039 3.2065635 59 0 0 0 63.90546
9.0535107 -9.9823751 3.1256516 71 0 0 0 62.734741
12.385504 -9.6584949 3.2517262 14 0 0 0 60.009872
6.063519 -9.0685682 3.3430476 81 0 0 0 65.077332
8.200861 -9.0432243 3.1344109 46 0 0 0 62.734741
6.3174429 -8.9673738 3.0917308 60 0 0 0 64.696045
6.5073009 -8.7713537 3.0786011 48 0 0 0 64.30088
9.3955297 -8.9388618 3.0089073 68 0 0 0 61.565929
6.3885078 -8.1837397 3.4404802 34 0 0 0 63.90546
8.7093058 -8.286602 3.0869558 133 0 0 0 61.565929
9.2923479 -8.4157944 3.2177212 54 0 0 0 61.179432
-21.915339 -7.846406 3.0620122 15 0 0 0 93.942436
7.5448089 -7.5385575 3.2699707 109 0 0 0 61.95652
8.6272259 -7.8139806 3.2791839 150 0 0 0 61.179432
-17.706495 -7.3402319 3.238368 125.5 0 0 0 93.158249
7.42558 -7.4219947 3.4791858 32 0 0 0 61.95652
24.524176 -7.4172001 3.3736796 14 0 0 0 54.166512
24.820133 -6.8458796 3.3891776 33 0 0 0 53.779247
-17.967005 -5.9406366 3.4329307 27 0 0 0 94.328865
-21.161373 0.94691396 3.3707933 23 0 0 0 0.3969
-20.747398 1.4387326 3.308522 13 0 0 0 0.79067999
29.872063 1.4989288 3.1786799 14 0 0 0 48.719059
-20.806068 1.9563671 3.323077 19 0 0 0 1.16934
20.312033 2.029202 3.1865158 19 0 0 0 47.930019
-19.257393 2.7681515 3.0926244 30 0 0 0 1.9525599
20.561939 2.5660298 3.2331638 29 0 0 0 47.540848
-56.627541 3.9399614 3.4028399 15 0 0 0 0.79067999
20.060427 3.51227 3.1764364 24 0 0 0 46.76413
20.458363 4.1025558 3.2526214 28 0 0 0 46.369961
20.232759 4.5774555 3.2329741 13 0 0 0 45.984928
20.870819 5.8132625 3.373071 14 0 0 0 45.211311
24.480822 8.1324959 3.368571 54 0 0 0 44.425999
23.893276 9.9465284 3.3763623 45 0 0 0 43.263161
22.612165 12.143096 3.344629 60 0 0 0 41.696888
21.168283 13.466884 3.267499 35 0 0 0 40.535278
23.095076 13.143406 3.460551 47 0 0 0 41.309353
27.650454 15.725515 3.3530295 20 0 0 0 41.309353
32.394966 -35.716049 3.9833729 19 0 0 0 62.734741
32.050335 -32.026173 3.7441988 28 0 0 0 61.95652
32.046001 -30.486862 3.6554508 24 0 0 0 61.565929
2.8690078 -29.043531 3.8434577 16 0 0 0 72.884285
32.266651 -29.221689 3.5976686 27 0 0 0 61.179432
33.79792 -29.130098 3.6859949 20 0 0 0 60.782711
35.323616 -28.964079 3.7721114 24 0 0 0 60.393021
36.507313 -28.464584 3.8214521 12 0 0 0 60.009872
36.482132 -27.031403 3.7480547 27 0 0 0 59.62402
36.395157 -25.607168 3.6732492 28 0 0 0 59.226952
36.45554 -24.333803 3.6175697 21 0 0 0 58.834846
4.717535 -23.684849 3.785388 15 0 0 0 71.32653
37.811729 -23.917933 3.6910303 25 0 0 0 58.445911
40.599415 -22.970928 3.844584 13 0 0 0 57.661758
0.54077625 -21.810675 3.960263 36 0 0 0 74.053963
-43.640995 -19.341408 3.9067171 10 0 0 0 92.758553
-5.103519 -16.842272 3.6296582 80 0 0 0 79.119804
-6.1788568 -16.033619 3.5439479 113 0 0 0 80.28817
-6.5515904 -15.831879 3.5336752 104 0 0 0 80.683952
-7.7728767 -15.455721 3.5669594 89 0 0 0 81.849388
-6.846972 -15.468122 3.9026878 147 0 0 0 81.06456
7.0878892 -14.973162 3.8325579 61 0 0 0 67.424408
-6.6863179 -14.156623 3.9984989 95 0 0 0 81.463371
7.5529218 -14.119425 3.7060654 51 0 0 0 66.645317
-9.03269 -13.535216 3.7542298 68 0 0 0 83.795341
-8.1531954 -13.620247 3.663429 63 0 0 0 83.018082
-7.7182302 -13.64239 3.6179183 68 0 0 0 82.63533
-7.3353705 -13.741768 3.5958285 66 0 0 0 82.240677
7.3473964 -13.735449 3.9886184 94 0 0 0 66.645317
8.1686621 -13.618236 3.6761005 62 0 0 0 65.858902
12.684997 -13.986563 3.9035506 113 0 0 0 62.734741
-8.5150375 -13.463756 3.6761663 193 0 0 0 83.408951
-5.0310502 -13.062477 3.578948 135 0 0 0 80.28817
6.733644 -13.367671 3.8336878 40 0 0 0 67.03199
-5.245791 -12.683371 3.509722 87 0 0 0 80.683952
-1.5517032 -12.629095 3.7291288 87 0 0 0 76.390083
-9.2357283 -12.468503 3.5811286 88 0 0 0 84.579712
-8.2561951 -12.372218 3.7994344 152 0 0 0 83.795341
-6.622776 -12.407333 3.594892 64 0 0 0 82.240677
-3.742516 -12.358678 3.6251688 160 0 0 0 79.119804
-0.29826552 -12.398883 3.7903776 255 0 0 0 74.826569
-9.0610847 -11.625546 3.7650974 61 0 0 0 84.964485
-8.091856 -11.504604 3.5945449 172 0 0 0 84.178566
-7.0787725 -11.826132 3.5233347 78 0 0 0 83.018082
-3.187397 -11.538521 3.9532337 221 0 0 0 78.726486
-1.1288877 -11.502597 3.8194175 94 0 0 0 76.005165
7.7777228 -11.632667 3.9347944 115 0 0 0 65.077332
-12.664485 -11.492228 3.9429753 53 0 0 0 87.70327
-7.5843649 -11.365982 3.8322752 105 0 0 0 83.795341
-4.1374984 -11.150307 3.9275203 176 0 0 0 80.09111
-2.8088791 -11.243218 3.541821 140 0 0 0 78.332573
-2.3358283 -11.052357 3.7330806 204 0 0 0 77.753937
-1.9371606 -11.190224 3.7528214 175 0 0 0 77.173317
-9.223856 -10.707022 3.9620616 76 0 0 0 85.753281
-7.540329 -10.720934 3.6772747 145 0 0 0 84.178566
-7.0469937 -10.565123 3.8761864 226 0 0 0 83.795341
-6.518558 -10.895036 3.8753226 55 0 0 0 83.018082
-3.8763502 -10.857175 3.5228305 214 0 0 0 79.894051
-3.4945428 -10.595809 3.6863501 241 0 0 0 79.504051
5.4766469 -10.870457 3.7253907 106 0 0 0 67.03199
5.6193109 -10.508358 3.942816 22 0 0 0 66.645317
-7.7229223 -10.427289 3.6406999 162 0 0 0 84.579712
-7.3011827 -10.385005 3.8746028 50 0 0 0 84.178566
-5.6604552 -10.006671 3.7964985 175 0 0 0 82.63533
-5.2197256 -10.38735 3.6963139 169.5 0 0 0 81.849388
-3.1485407 -10.397306 3.5903125 168 0 0 0 79.119804
5.858561 -10.333291 3.6367171 95 0 0 0 66.250549
6.0121765 -10.0228 3.5790071 63 0 0 0 65.858902
8.2760925 -10.078253 3.6698289 129 0 0 0 63.515808
-6.9456558 -9.8759985 3.9851685 121 0 0 0 84.178566
-6.0730648 -9.6043425 3.7526553 86 0 0 0 83.408951
-5.085721 -9.5289755 3.5688226 248 0 0 0 82.240677
5.7529845 -9.5872622 3.9759536 35 0 0 0 65.858902
7.5804076 -9.7047043 3.7700024 45 0 0 0 63.90546
8.6115084 -9.9766121 3.7085099 78 0 0 0 63.131191
6.9761343 -9.4002676 3.7302308 48 0 0 0 64.30088
7.7018709 -9.3763838 3.7154233 66 0 0 0 63.515808
11.412344 -8.8965569 3.7082624 77 0 0 0 60.009872
6.2554216 -8.0076151 3.6172006 30 0 0 0 63.90546
-17.452637 -7.742898 3.932173 97 0 0 0 92.758553
7.9787054 -7.5862379 3.9168365 19 0 0 0 61.565929
8.1447296 -7.7494917 3.7232044 30 0 0 0 61.565929
8.556284 -7.7468596 3.5359151 55 0 0 0 61.179432
9.827301 -7.8568716 3.5418429 29 0 0 0 60.201447
23.945896 -7.8887343 3.9453435 14 0 0 0 54.561592
8.5768185 -7.390132 3.8869793 39 0 0 0 60.782711
24.443426 -7.3920536 3.9948795 45 0 0 0 54.166512
-18.612141 -6.6650424 3.5845251 27 0 0 0 93.942436
-17.476362 -6.7474332 3.8592505 158 0 0 0 93.550011
24.459261 -6.7456636 3.9685485 10 0 0 0 53.779247
-17.724365 -5.8607688 3.8463945 20 0 0 0 94.328865
-11.427082 -5.7642016 3.9070346 129 0 0 0 91.983444
68.116936 -1.6236222 3.8527477 10 0 0 0 49.8787
-20.800991 1.4435688 3.8320539 16 0 0 0 0.79067999
29.603571 1.4915031 3.8796606 7 0 0 0 48.719059
-19.230471 1.8089341 3.550015 33 0 0 0 1.16934
-19.65785 2.3366961 3.6366155 26 0 0 0 1.56775
-62.072384 2.7896674 3.726198 9 0 0 0 0.3969
-20.526278 2.9522161 3.8072305 44 0 0 0 1.9525599
19.976236 2.9940071 3.6519399 12 0 0 0 47.156433
20.256762 2.5285754 3.6912701 7 0 0 0 47.540848
19.903381 3.9919746 3.6680942 27 0 0 0 46.369961
20.193302 3.5360613 3.7049367 33 0 0 0 46.76413
24.525061 7.4838161 3.9844215 40 0 0 0 44.815102
24.164164 8.6930561 3.9882541 52 0 0 0 44.043701
25.312452 9.1049986 3.5100958 65 0 0 0 44.043701
23.533739 9.7976332 3.9571772 46 0 0 0 43.263161
25.464952 9.8730354 3.5621669 52 0 0 0 43.657951
-25.525093 11.93235 3.7490249 66 0 0 0 6.6274099
24.296816 14.628349 3.6899402 23 0 0 0 40.927834
32.312317 -37.431797 4.0841093 11 0 0 0 63.131191
7.9212604 -31.580397 4.2869744 6 0 0 0 70.547607
6.7732186 -30.119118 4.0660901 15 0 0 0 70.938606
3.4207847 -27.670477 4.363627 11 0 0 0 72.491447
4.8267217 -27.769608 4.4119058 16 0 0 0 71.716499
2.7062447 -27.398222 4.3088617 27 0 0 0 72.884285
1.8976276 -25.63155 4.0242753 60 0 0 0 73.264488
2.9130635 -23.569138 4.309545 35 0 0 0 72.491447
4.0362549 -23.226665 4.2790685 24 0 0 0 71.716499
1.1330843 -22.946627 4.1689825 16 0 0 0 73.652542
1.6430275 -22.200134 4.040894 28 0 0 0 73.264488
7.0315166 -19.63744 4.3053222 16 0 0 0 68.979202
-9.2036457 -17.233198 4.0235901 35 0 0 0 82.240677
7.1374159 -16.086275 4.0691357 49 0 0 0 67.813202
-6.8672605 -15.513973 4.3305125 38 0 0 0 81.06456
6.0253539 -15.604634 4.2795138 51 0 0 0 68.596306
6.9535613 -15.672154 4.3861737 30 0 0 0 67.813202
-5.4371285 -15.219477 4.1274099 57 0 0 0 79.894051
7.2836885 -15.386063 4.3553209 63 0 0 0 67.424408
-3.8217754 -13.844518 4.3817611 57 0 0 0 78.726486
-0.98872393 -13.50257 4.134232 20 0 0 0 75.618202
13.718456 -13.703143 4.4821014 83 0 0 0 61.95652
-8.4846487 -13.41579 4.0527167 168 0 0 0 83.408951
-0.97347796 -13.261964 4.3899708 104 0 0 0 75.618202
9.1841097 -13.030103 4.0820985 68 0 0 0 64.696045
-6.765861 -12.675331 4.0285635 188 0 0 0 82.240677
-3.1650205 -12.659582 4.3068538 103 0 0 0 78.332573
-1.5547531 -12.644853 4.2066989 122 0 0 0 76.390083
-7.0391049 -12.442542 4.0082765 91 0 0 0 82.63533
-5.7706394 -12.218556 4.457149 103 0 0 0 81.463371
-5.3361201 -12.055843 4.3496432 99 0 0 0 81.06456
-1.7945542 -12.130162 4.0498261 199 0 0 0 76.778473
-0.60064006 -12.398354 4.4043579 17 0 0 0 75.221321
-0.30146977 -12.44229 4.1112785 26 0 0 0 74.826569
6.5831652 -12.302964 4.2661061 49 0 0 0 66.645317
-8.5893831 -11.6008 4.4011264 7 0 0 0 84.579712
-2.0092294 -11.630932 4.1883583 119 0 0 0 77.173317
-0.8552891 -11.703689 4.1652088 193 0 0 0 75.618202
6.9824905 -11.642211 4.4877391 67 0 0 0 65.858902
8.112401 -11.506586 4.3051038 37 0 0 0 64.696045
-8.782526 -11.270488 4.181179 46 0 0 0 84.964485
-7.0543904 -11.159634 4.0284357 86 0 0 0 83.408951
-4.7373061 -11.454314 4.0914569 148 0 0 0 80.683952
-2.3482533 -11.135443 4.0393958 183 0 0 0 77.753937
-1.9847225 -11.488946 4.4230733 136 0 0 0 77.173317
-1.1193691 -11.446511 4.0826039 143 0 0 0 76.005165
7.2043848 -11.367748 4.2814331 121 0 0 0 65.474129
-5.7305951 -10.745697 4.3181872 141 0 0 0 82.240677
5.4919233 -10.895663 4.3352971 52 0 0 0 67.03199
5.5344419 -10.989579 4.0699458 59 0 0 0 67.03199
6.1793051 -10.902359 4.1449604 19 0 0 0 66.250549
-6.9019318 -10.343908 4.1035476 88 0 0 0 83.795341
-6.0179138 -10.062785 4.445498 36 0 0 0 83.018082
-5.8131585 -10.284908 4.3328977 127 0 0 0 82.63533
-5.1562471 -10.267833 4.0759368 180 0 0 0 81.849388
5.4910917 -10.260202 4.1364722 58 0 0 0 66.645317
5.6968441 -10.044086 4.1049514 10 0 0 0 66.250549
7.3414135 -10.418059 4.215682 34 0 0 0 64.696045
8.7619333 -10.146831 4.1016417 31 0 0 0 63.131191
-8.2335644 -9.5583296 4.1623721 37 0 0 0 85.753281
-7.8424788 -9.5695057 4.082829 144 0 0 0 85.352844
-7.2875695 -9.59272 4.1226597 137 0 0 0 84.772095
-6.7418661 -9.84692 4.2320414 105 0 0 0 83.986954
-6.1162672 -9.6801643 4.2021046 71 0 0 0 83.408951
-5.9546075 -9.9569387 4.1150079 172 0 0 0 83.018082
5.6007824 -9.8748293 4.3144741 76 0 0 0 66.250549
10.201026 -9.6999407 4.3049526 17 0 0 0 61.565929
-7.6223717 -9.3077908 4.2656589 148 0 0 0 85.352844
-7.3652163 -9.4579258 4.2504954 110 0 0 0 84.964485
-6.648603 -9.4609919 4.3845015 88 0 0 0 84.178566
-6.2359824 -9.3535604 4.2634168 153 0 0 0 83.795341
6.6707196 -9.4604378 4.1158166 79 0 0 0 64.696045
7.4644165 -9.0840731 4.1804256 95 0 0 0 63.515808
8.1881018 -9.4862766 4.1462221 30 0 0 0 63.131191
10.783087 -9.2923279 4.0024629 67 0 0 0 60.782711
11.223629 -9.1975346 4.4363832 35 0 0 0 60.393021
-6.6396132 -8.9722462 4.2332325 43 0 0 0 84.579712
6.9587526 -8.9061928 4.2967429 38 0 0 0 63.90546
10.422254 -8.9782829 4.2075577 97 0 0 0 60.782711
10.61446 -8.2743597 4.4501281 30 0 0 0 60.009872
-17.716019 -7.8636508 4.4656973 27 0 0 0 92.758553
-18.001892 -7.4630437 4.0128956 109 0 0 0 93.158249
-17.273235 -6.6728058 4.2683067 84 0 0 0 93.550011
-11.506124 -6.9074078 4.4265842 119 0 0 0 90.824814
-17.686621 -6.337903 4.3304229 142 0 0 0 93.942436
24.91844 -6.2177343 4.0157108 9 0 0 0 53.381599
-17.469065 -5.7800884 4.242126 40 0 0 0 94.328865
24.026686 -5.9946246 4.4864964 32 0 0 0 53.381599
-19.512299 1.8365765 4.0829287 17 0 0 0 1.16934
25.716515 8.5431805 4.2076321 43 0 0 0 44.425999
25.476982 9.8783464 4.240283 57 0 0 0 43.657951
24.925913 11.102745 4.2322216 48 0 0 0 42.870327
-24.564167 12.22785 4.3276806 51 0 0 0 7.0179801
-23.338808 12.340577 4.1628451 26 0 0 0 7.4056001
24.065485 12.170733 4.1810336 19 0 0 0 42.09832
23.752232 12.755065 4.1788025 49 0 0 0 41.696888
22.999619 13.848805 4.1594644 20 0 0 0 40.927834
23.857918 13.577502 4.25316 48 0 0 0 41.309353
22.455555 14.285105 4.1227527 44 0 0 0 40.535278
22.069096 14.81373 4.116601 27 0 0 0 40.145561
19.195087 17.481056 4.0173721 21 0 0 0 37.809231
32.008568 -30.450365 4.7245545 25 0 0 0 61.565929
33.802593 -29.133169 4.770678 17 0 0 0 60.782711
35.461147 -29.075798 4.9007983 22 0 0 0 60.393021
36.55159 -28.498051 4.9521179 20 0 0 0 60.009872
36.512875 -27.053125 4.855268 13 0 0 0 59.62402
2.6308129 -26.635595 4.8522902 22 0 0 0 72.884285
36.424057 -25.626442 4.7581854 18 0 0 0 59.226952
3.7414608 -25.176319 4.616879 20 0 0 0 72.101189
36.467159 -24.340506 4.6839652 34 0 0 0 58.834846
37.615891 -23.793015 4.7535152 47 0 0 0 58.445911
39.905392 -23.88938 4.9645319 34 0 0 0 58.062241
0.57830089 -23.313717 4.8045611 18 0 0 0 74.053963
3.4560726 -23.25835 4.8461328 25 0 0 0 72.101189
40.735069 -23.046473 4.9944696 30 0 0 0 57.661758
1.6322809 -22.055124 4.5587249 25 0 0 0 73.264488
1.0817591 -21.910662 4.5218816 15 0 0 0 73.652542
40.699764 -21.724918 4.9225783 25 0 0 0 57.275238
52.958591 -20.389128 4.6599107 10 0 0 0 55.335953
7.3722973 -19.088818 4.7254729 15 0 0 0 68.596306
7.6516323 -18.451668 4.6139326 27 0 0 0 68.197556
6.5176644 -15.719536 4.7760749 30 0 0 0 68.197556
5.9233227 -15.340522 4.6161251 12 0 0 0 68.596306
7.2376385 -15.288666 4.7481985 30 0 0 0 67.424408
6.579555 -14.829985 4.5552354 39 0 0 0 67.813202
11.809671 -14.375832 4.7589421 51 0 0 0 63.515808
12.27356 -14.213911 4.8035092 134 0 0 0 63.131191
-7.6910424 -13.600039 4.7618227 57 0 0 0 82.63533
6.4185176 -13.559984 4.95504 38 0 0 0 67.424408
13.214414 -13.864274 4.8982983 95 0 0 0 62.341152
-44.346821 -13.44771 4.9215875 12 0 0 0 94.723053
-3.969949 -13.126163 4.8600621 124 0 0 0 79.119804
-1.9265791 -13.054813 4.6793251 162 0 0 0 76.778473
5.0460773 -13.057458 4.9680896 22 0 0 0 68.596306
14.746506 -13.349191 4.5967155 80 0 0 0 61.179432
15.24914 -13.137253 4.6507335 121 0 0 0 60.782711
-4.4747801 -12.539888 4.7191381 162 0 0 0 79.894051
-3.4488974 -12.502177 4.5981836 134 0 0 0 78.726486
-2.4787731 -12.511807 4.8357482 121 0 0 0 77.560486
-1.5570554 -12.700163 4.5383201 92 0 0 0 76.390083
15.807481 -12.955515 4.7217083 97 0 0 0 60.393021
16.360582 -12.749966 4.7910824 67 0 0 0 60.009872
16.92631 -12.5348 4.8642197 52 0 0 0 59.62402
-5.8032002 -12.298604 4.8186374 104 0 0 0 81.463371
-5.3510122 -12.100896 4.6893167 75 0 0 0 81.06456
-4.6404033 -12.061004 4.5810986 114 0 0 0 80.28817
-4.0507598 -12.296505 4.5898018 92 0 0 0 79.504051
-3.708246 -12.260902 4.8553672 5 0 0 0 79.119804
-3.1808338 -12.305255 4.7140584 106.66666 0 0 0 78.463875
-2.7048423 -12.089319 4.6973372 136 0 0 0 77.947395
-1.5135772 -12.345056 4.7168431 69 0 0 0 76.390083
-1.1745967 -12.012336 4.5784588 78 0 0 0 76.005165
-0.60370088 -12.461792 4.7322726 121 0 0 0 75.221321
5.8766098 -12.405276 4.8730364 26 0 0 0 67.424408
-8.7242002 -11.778577 4.8310995 39 0 0 0 84.579712
-4.9297619 -11.931308 4.5762539 102 0 0 0 80.683952
-4.2919288 -11.575623 4.6805739 96.5 0 0 0 80.09111
9.4483604 -11.503337 4.9190011 18 0 0 0 63.515808
5.8917732 -11.007474 4.7414823 22 0 0 0 66.645317
6.7045846 -11.170257 4.9467263 107 0 0 0 65.858902
7.5963717 -11.361341 4.5181251 35 0 0 0 65.077332
8.3746185 -11.275322 4.9871087 39 0 0 0 64.30088
-5.4304571 -10.813666 4.5872645 63 0 0 0 81.849388
7.3183289 -10.937369 4.9969811 51 0 0 0 65.077332
8.7899179 -10.175118 4.776247 106 0 0 0 63.131191
7.1887941 -9.6805859 4.5815887 57 0 0 0 64.30088
8.1560736 -9.924324 4.8792105 59 0 0 0 63.515808
11.018699 -9.9762306 4.9116769 46 0 0 0 61.179432
8.9426308 -9.3786278 4.9221005 15 0 0 0 62.341152
-10.345384 -8.9365444 4.5078664 21 0 0 0 88.086884
8.1201801 -8.9469805 4.5914736 36 0 0 0 62.734741
24.065983 -8.5884228 4.6317687 33 0 0 0 54.95079
10.052293 -8.2351074 4.7763724 36 0 0 0 60.393021
10.865447 -8.042552 4.8011885 13 0 0 0 59.62402
24.329298 -8.014226 4.642241 14 0 0 0 54.561592
-18.157314 -7.5314407 4.5286694 59 0 0 0 93.158249
-17.429308 -7.736743 4.8622198 80 0 0 0 92.758553
24.655216 -7.4553137 4.6670165 35 0 0 0 54.166512
-12.24069 -6.9451842 4.6406484 33 0 0 0 91.212761
-11.892021 -6.753171 4.8456073 74 0 0 0 91.212761
-11.009887 -6.6152887 4.8675838 83 0 0 0 90.824814
24.407526 -6.7306623 4.5871921 11 0 0 0 53.779247
-17.574244 -6.2979546 4.7615438 31 0 0 0 93.942436
-11.419326 -6.4851274 4.9761095 225 0 0 0 91.212761
-18.123562 -5.9967966 4.8684897 115 0 0 0 94.328865
23.513546 -5.8659668 4.9879627 50 0 0 0 53.381599
29.647747 1.4945792 4.6203079 7 0 0 0 48.719059
25.591564 7.8095541 4.8186588 56 0 0 0 44.815102
24.186853 8.7018375 4.6284618 38 0 0 0 44.043701
24.746145 11.76056 4.9266491 55 0 0 0 42.481461
24.057888 12.167463 4.8472524 51 0 0 0 42.09832
24.142982 12.96519 4.9254537 27 0 0 0 41.696888
23.54933 13.402626 4.8695102 34 0 0 0 41.309353
-25.080143 14.061981 4.5297194 29 0 0 0 7.7969899
-24.685415 14.648278 4.5200257 46 0 0 0 8.1810102
21.603031 14.50174 4.674644 45 0 0 0 40.145561
21.253141 15.037701 4.6766725 35 0 0 0 39.759281
20.504396 16.076696 4.6787372 57 0 0 0 38.983551
21.959425 16.360912 4.9163103 20 0 0 0 39.369392
19.308846 16.735725 4.5876479 36 0 0 0 38.197727
18.225733 17.437984 4.5279856 50 0 0 0 37.411259
1.1711928 -23.631907 5.4536185 23 0 0 0 73.652542
1.623582 -21.885984 5.0611286 31 0 0 0 73.264488
42.054214 -21.137543 5.020133 14 0 0 0 56.892689
44.516281 -21.021608 5.2478275 12 0 0 0 56.498367
46.99231 -20.794954 5.4748225 10 0 0 0 56.108353
6.4463377 -16.684431 5.4580212 10 0 0 0 68.596306
6.3499746 -15.315164 5.472002 15 0 0 0 68.197556
6.7856693 -15.286569 5.1062322 17 0 0 0 67.813202
7.2468424 -15.30096 5.1688061 33 0 0 0 67.424408
12.739869 -14.041025 5.3203659 54 0 0 0 62.734741
-1.9959729 -13.525397 5.1817269 34 0 0 0 76.778473
13.248822 -13.899968 5.3881254 70 0 0 0 62.341152
13.70322 -13.68716 5.4340987 116 0 0 0 61.95652
-7.9166589 -13.225491 5.0791726 71 0 0 0 83.018082
-5.440114 -13.166169 5.3955894 56 0 0 0 80.683952
-0.96141636 -13.16014 5.0029035 74 0 0 0 75.618202
15.285265 -13.16791 5.1571627 84 0 0 0 60.782711
-4.1513362 -12.601781 5.0278912 82 0 0 0 79.504051
5.5924993 -12.595412 5.2296405 21 0 0 0 67.813202
8.2405567 -12.992632 5.4593143 20 0 0 0 65.474129
16.98226 -12.575709 5.3991971 89 0 0 0 59.62402
-5.666975 -12.01003 5.0314789 66 0 0 0 81.463371
6.1150179 -12.129688 5.1557598 61 0 0 0 67.03199
-12.123339 -11.560792 5.1021171 47 0 0 0 87.319534
8.2256441 -11.661979 5.4163837 37 0 0 0 64.696045
-8.3825321 -10.763541 5.1671109 47 0 0 0 84.964485
-8.4653759 -10.336602 5.0609436 35 0 0 0 85.352844
9.759737 -10.234708 5.0219049 34 0 0 0 62.341152
8.6339455 -9.9945602 5.0158248 32 0 0 0 63.131191
9.6980829 -9.6823988 5.2032747 23 0 0 0 61.95652
-24.994228 -8.9493885 5.4546318 18 0 0 0 93.942436
23.515572 -8.3914194 5.1412153 23 0 0 0 54.95079
-18.225256 -7.5598965 5.029964 60 0 0 0 93.158249
23.457556 -7.7265472 5.0850925 24 0 0 0 54.561592
-18.159599 -7.2728796 5.4736695 53 0 0 0 93.354126
23.416872 -7.0803909 5.0365715 54 0 0 0 54.166512
25.282782 -6.9711084 5.3959479 44 0 0 0 53.779247
-18.111811 -5.9932222 5.3393645 134 0 0 0 94.328865
24.800688 -5.5433879 5.2278719 60 0 0 0 52.994999
62.063904 -2.9933176 5.0668116 9 0 0 0 50.26952
-62.513729 2.8018668 5.3096662 11 0 0 0 0.3969
-60.451885 4.1989217 5.1385942 15 0 0 0 0.79067999
24.992342 8.3041878 5.390492 59 0 0 0 44.425999
26.801901 8.904048 5.0830016 33 0 0 0 44.425999
26.135916 10.134217 5.0431089 10 0 0 0 43.657951
27.304419 11.366191 5.3176513 9 0 0 0 43.263161
23.293755 11.78202 5.3369141 52 0 0 0 42.09832
-24.975964 13.210304 5.1520205 23 0 0 0 7.4056001
20.829308 13.252808 5.0456872 42 0 0 0 40.535278
22.189964 13.362864 5.2931376 38 0 0 0 40.927834
20.74332 13.925843 5.1049538 27 0 0 0 40.145561
-25.36437 14.223954 5.2999482 52 0 0 0 7.7969899
23.922523 14.404294 5.0162511 25 0 0 0 40.927834
-25.045284 14.864598 5.3058467 57 0 0 0 8.1810102
-24.654154 15.463076 5.299789 39 0 0 0 8.57162
21.833328 15.448012 5.4614582 22 0 0 0 39.759281
19.853495 16.370764 5.2536106 87 0 0 0 38.592289
21.512558 16.028803 5.4771924 43 0 0 0 39.369392
18.633127 17.827244 5.2628155 53 0 0 0 37.411259
20.219835 17.524273 5.46064 54 0 0 0 38.197727
19.836226 18.064392 5.4745531 33 0 0 0 37.809231
2.8271935 -28.620192 5.9189272 31 0 0 0 72.884285
3.4849164 -28.188017 5.8463945 21 0 0 0 72.491447
36.520081 -25.683384 5.8682656 13 0 0 0 59.226952
2.9948702 -24.194902 5.6195998 18 0 0 0 72.491447
3.6391389 -24.458994 5.6999526 19 0 0 0 72.101189
4.2431288 -24.389887 5.7067995 16 0 0 0 71.716499
36.511719 -24.359957 5.7687511 24 0 0 0 58.834846
37.68539 -23.826649 5.8584318 42 0 0 0 58.445911
1.7247939 -23.246571 5.9460387 17 0 0 0 73.264488
0.57175142 -22.890867 5.8405218 12 0 0 0 74.053963
1.1144286 -22.490225 5.7445178 15 0 0 0 73.652542
49.46542 -20.451654 5.6996403 17 0 0 0 55.72348
6.7493634 -18.839209 5.6102104 17 0 0 0 68.979202
6.3337746 -16.401722 5.8007379 17 0 0 0 68.596306
6.7829132 -15.280123 5.720336 22.5 0 0 0 67.813202
12.776986 -14.076608 5.8024092 78 0 0 0 62.734741
-5.9741683 -13.509704 5.5934544 39 0 0 0 81.06456
13.279798 -13.927198 5.8730659 81 0 0 0 62.341152
14.25007 -13.55057 5.5165706 25 0 0 0 61.565929
-13.044323 -13.064395 5.6195092 13 0 0 0 86.933395
-7.1151309 -13.340784 5.7239242 57 0 0 0 82.240677
8.7589407 -13.087668 5.5874648 27 0 0 0 65.077332
-11.899888 -10.807064 5.688808 82 0 0 0 87.70327
100.77834 -9.8592739 5.7224131 9 0 0 0 51.04887
24.111795 -8.5985756 5.8971591 36 0 0 0 54.95079
22.957167 -7.5567083 5.568913 62 0 0 0 54.561592
24.680098 -7.4566488 5.9373665 34 0 0 0 54.166512
24.303055 -6.6958427 5.8052707 30 0 0 0 53.779247
-18.089933 -5.9897981 5.801991 84 0 0 0 94.328865
23.815897 -5.9362121 5.6524415 32 0 0 0 53.381599
24.327345 -5.4324589 5.7389574 21 0 0 0 52.994999
25.624716 9.2191839 5.5716839 36 0 0 0 44.043701
25.403397 9.8511477 5.5733876 24 0 0 0 43.657951
24.855972 11.072861 5.5638943 43 0 0 0 42.870327
26.839571 11.173568 5.9432564 16 0 0 0 43.263161
24.823502 11.797878 5.6183491 47 0 0 0 42.481461
23.776295 12.769055 5.5153956 18 0 0 0 41.696888
-24.756863 13.096331 5.7954617 55 0 0 0 7.4056001
-24.007557 13.463708 5.6940699 42 0 0 0 7.7969899
23.550058 13.403556 5.5365138 25 0 0 0 41.309353
21.535276 13.707043 5.8409019 45 0 0 0 40.535278
21.729868 14.593091 5.9873028 20 0 0 0 40.145561
20.710106 15.43773 5.9073095 23 0 0 0 39.369392
20.481306 16.065018 5.9518256 29 0 0 0 38.983551
21.471199 16.833908 5.5688925 33 0 0 0 38.983551
17.860987 17.095879 5.6523499 48 0 0 0 37.411259
19.195274 17.487953 5.9353399 24 0 0 0 37.809231
36.790169 -31.694824 6.382844 15 0 0 0 60.782711
36.652027 -30.040127 6.2291245 25 0 0 0 60.393021
36.69706 -28.600069 6.115428 24 0 0 0 60.009872
0.65867537 -26.349045 6.0709105 11 0 0 0 74.053963
2.6010611 -26.287659 6.0858235 33 0 0 0 72.884285
3.6760952 -24.706808 6.3706751 14 0 0 0 72.101189
4.1465793 -23.835398 6.1718063 18 0 0 0 71.716499
39.424698 -23.591213 6.0347867 26 0 0 0 58.062241
2.908375 -23.497046 6.0397382 13 0 0 0 72.491447
40.678143 -23.003706 6.1365767 13 0 0 0 57.661758
40.641716 -21.683632 6.0482631 34 0 0 0 57.275238
41.066906 -20.631279 6.0331807 22 0 0 0 56.892689
12.84388 -14.154839 6.3067355 68 0 0 0 62.734741
-13.051642 -13.724802 6.2326951 22 0 0 0 86.54097
8.7079725 -13.728459 6.1652951 29 0 0 0 65.474129
-13.129034 -13.144762 6.1143451 69 0 0 0 86.933395
-14.26247 -12.942193 6.3372078 38 0 0 0 87.70327
-13.451567 -12.822379 6.1161051 58 0 0 0 87.319534
-19.124542 -7.9372168 6.3005376 53 0 0 0 93.158249
-17.494974 -7.766706 6.300355 47 0 0 0 92.758553
-19.527235 -7.0018439 6.3127518 23 0 0 0 93.942436
22.706701 -7.47364 6.0957623 30 0 0 0 54.561592
24.152613 -6.6536927 6.3849587 20 0 0 0 53.779247
-17.568745 -6.2968702 6.1446118 30 0 0 0 93.942436
-18.62789 -5.6610298 6.4091506 82 0 0 0 94.723053
-18.016304 -5.962256 6.2477784 98 0 0 0 94.328865
-17.930166 -4.9716687 6.1271586 27 0 0 0 95.107292
57.624432 -4.198411 6.120379 17 0 0 0 50.663353
-38.965603 4.6353292 6.2184677 27 0 0 0 1.56775
25.414648 8.4499292 6.1370115 44 0 0 0 44.425999
26.72982 8.1630192 6.4037848 47 0 0 0 44.815102
24.041916 8.656353 6.4833789 34 0 0 0 44.043701
28.569778 8.718112 6.1103349 13 0 0 0 44.815102
25.817924 9.2943707 6.2855902 41 0 0 0 44.043701
25.296469 9.8154497 6.2147865 37 0 0 0 43.657951
25.503357 10.623756 6.3260345 38 0 0 0 43.263161
24.758282 11.03518 6.2062316 40 0 0 0 42.870327
24.951897 11.864764 6.3240976 23 0 0 0 42.481461
24.189154 12.240202 6.2047949 19 0 0 0 42.09832
-24.692703 13.058946 6.4631405 44 0 0 0 7.4056001
-23.871733 13.384037 6.3307352 43 0 0 0 7.7969899
23.351227 13.296441 6.148469 14 0 0 0 41.309353
23.07612 13.901756 6.1630778 40 0 0 0 40.927834
21.082355 14.159255 6.4336729 41 0 0 0 40.145561
21.48912 15.210825 6.0210991 32 0 0 0 39.759281
20.316902 16.758509 6.0207419 44 0 0 0 38.592289
20.138037 17.459888 6.0918989 28 0 0 0 38.197727
18.463665 17.671864 6.4691892 23 0 0 0 37.411259
36.45229 -25.634657 6.9605608 23 0 0 0 59.226952
2.522187 -25.491693 6.5314679 26 0 0 0 72.884285
3.649919 -24.530901 6.9416933 10 0 0 0 72.101189
1.2115725 -24.443521 6.8486271 19 0 0 0 73.652542
3.0178854 -24.380116 6.8758254 15 0 0 0 72.491447
36.573196 -24.399883 6.8667259 26 0 0 0 58.834846
44.99654 -21.237381 6.5275669 8 0 0 0 56.498367
-20.142254 -18.274372 6.9182935 17 0 0 0 87.70327
12.858428 -14.160572 6.7805758 70 0 0 0 62.734741
-13.331373 -13.35671 6.6728387 29 0 0 0 86.933395
-14.963826 -12.932562 6.9918661 69 0 0 0 88.086884
-13.464436 -12.843761 6.580121 68 0 0 0 87.319534
-12.720801 -12.745409 6.8099251 29 0 0 0 86.933395
-13.471061 -12.233282 6.8812423 47 0 0 0 87.70327
-20.417664 -9.0673122 6.7947993 19 0 0 0 92.758553
-18.486553 -8.7559614 6.7301826 17 0 0 0 92.365952
24.993624 -8.9120998 6.7633286 9 0 0 0 54.95079
-17.480656 -8.2875452 6.8413086 16 0 0 0 92.365952
-18.986313 -7.8763061 6.7634158 15 0 0 0 93.158249
-17.461195 -7.7592878 6.7577763 59 0 0 0 92.758553
-19.220539 -7.4258132 6.7800641 39 0 0 0 93.550011
-17.706135 -7.353085 6.780807 41 0 0 0 93.158249
22.507673 -7.4074945 6.631598 24 0 0 0 54.561592
24.676134 -7.454711 6.5696301 50 0 0 0 54.166512
24.012554 -6.6144018 6.9672093 8 0 0 0 53.779247
25.671616 -6.3976831 6.7399673 18 0 0 0 53.381599
-18.107826 -5.7537413 6.7218208 23 0 0 0 94.525955
24.019981 -5.9855866 6.9239454 13 0 0 0 53.381599
-18.170361 -5.0453677 6.6718459 35 0 0 0 95.107292
-16.806612 -4.6672716 6.6012616 23 0 0 0 95.107292
25.073999 7.6585584 6.6533337 61 0 0 0 44.815102
25.332071 8.4231663 6.7728653 24 0 0 0 44.425999
25.175573 9.7692356 6.8485003 33 0 0 0 43.657951
24.065071 11.444151 6.7551146 32 0 0 0 42.481461
22.964039 12.339582 6.6071911 22 0 0 0 41.696888
24.46652 12.380958 6.948915 17 0 0 0 42.09832
22.689482 12.920614 6.6165242 32 0 0 0 41.309353
23.059137 13.892023 6.8196535 20 0 0 0 40.927834
22.390221 14.250891 6.7229953 27 0 0 0 40.535278
21.561304 15.262236 6.6898561 27 0 0 0 39.759281
21.24999 15.839924 6.711081 25 0 0 0 39.369392
20.484304 16.067684 6.5919371 20 0 0 0 38.983551
19.028414 17.336382 6.5161042 36 0 0 0 37.809231
19.636127 17.025648 6.5791736 46 0 0 0 38.197727
18.991964 19.091978 6.8138509 17 0 0 0 37.02354
-3.8383482 30.199835 6.9673438 103 0 0 0 22.59762
-3.0970104 30.302681 6.9701257 105 0 0 0 22.989269
-2.3476517 30.317455 6.9566927 36 0 0 0 23.377741
10.599261 32.398472 6.9427896 27 0 0 0 29.60947
36.804531 -30.164011 7.4328279 8 0 0 0 60.393021
36.660854 -28.570795 7.259963 29 0 0 0 60.009872
36.552208 -27.07025 7.1045895 19 0 0 0 59.62402
0.65960282 -26.385448 7.3829594 12 0 0 0 74.053963
4.5621161 -26.220636 7.4474735 12 0 0 0 71.716499
2.5325019 -25.595539 7.1969328 8 0 0 0 72.884285
38.209446 -24.156731 7.0584221 11 0 0 0 58.445911
40.278362 -24.100657 7.3266091 14 0 0 0 58.062241
0.014433313 -23.673872 7.2071776 7 0 0 0 74.436562
0.59075695 -23.483433 7.1521554 12 0 0 0 74.053963
40.730537 -23.032116 7.3027368 17 0 0 0 57.661758
40.710812 -21.719275 7.2007141 37 0 0 0 57.275238
41.124863 -20.659159 7.180912 14 0 0 0 56.892689
49.682632 -20.5298 7.0464621 30 0 0 0 55.72348
-14.113972 -13.463217 7.3738012 23 0 0 0 87.319534
-14.373224 -12.422552 7.1826987 10 0 0 0 88.086884
-17.325783 -7.6994262 7.1702633 15 0 0 0 92.758553
-17.650938 -7.3304601 7.2281623 23 0 0 0 93.158249
24.792873 -7.489202 7.2442698 41 0 0 0 54.166512
22.954508 -6.3181415 7.2473321 12 0 0 0 53.779247
-18.086876 -5.504252 7.1517072 10 0 0 0 94.723053
-17.647305 -5.8476582 7.0327859 28 0 0 0 94.328865
-18.795513 -4.7253203 7.3311434 23 0 0 0 95.486305
56.953026 -2.7335427 7.4404569 19 0 0 0 50.26952
23.813683 8.5748968 7.0511708 21 0 0 0 44.043701
24.513424 9.5132198 7.3227921 25 0 0 0 43.657951
25.806362 10.750479 7.0873342 37 0 0 0 43.263161
26.343439 11.741526 7.3094912 25 0 0 0 42.870327
22.47998 12.801969 7.1985731 30 0 0 0 41.309353
-25.57464 13.528545 7.4034185 36 0 0 0 7.4056001
-24.117092 13.524052 7.0741191 48 0 0 0 7.7969899
21.957706 13.976426 7.2405806 33 0 0 0 40.535278
-23.725992 14.081008 7.0567632 31 0 0 0 8.1810102
21.585464 14.497082 7.2322907 15 0 0 0 40.145561
21.913176 15.511353 7.4653955 23 0 0 0 39.759281
19.413839 16.833466 7.143476 45 0 0 0 38.197727
19.456617 17.726063 7.3156428 32 0 0 0 37.809231
19.290693 18.46221 7.4203825 22 0 0 0 37.411259
22.30369 18.395105 7.3154721 28 0 0 0 38.592289
18.913811 19.013662 7.4521356 32 0 0 0 37.02354
-0.88369876 31.444635 7.1926675 59 0 0 0 24.154421
-0.11092953 31.483524 7.1973438 61 0 0 0 24.547409
-1.6609979 31.511436 7.2164721 34 0 0 0 23.768761
0.66399616 31.537527 7.2098465 51 0 0 0 24.94138
1.4432224 31.609436 7.2308402 52 0 0 0 25.322611
11.531003 32.518215 7.0261559 55 0 0 0 29.99799
12.469333 32.596859 7.1064048 48 0 0 0 30.38586
36.673969 -33.196754 7.7267022 18 0 0 0 61.179432
36.901302 -31.789461 7.607667 21 0 0 0 60.782711
2.039211 -27.473595 7.7058511 11 0 0 0 73.264488
-1.2637163 -26.055338 7.9372997 18 0 0 0 75.221321
2.5060017 -25.283043 7.7344642 10 0 0 0 72.884285
3.6664598 -24.612242 7.5768232 10 0 0 0 72.101189
36.606342 -24.420912 7.9625111 22 0 0 0 58.834846
1.737272 -23.413761 7.7300992 21 0 0 0 73.264488
45.027275 -21.25054 7.7645397 11 0 0 0 56.498367
53.927341 -20.747984 7.5694766 7 0 0 0 55.335953
-19.149927 -11.501746 7.8935075 15 0 0 0 90.824814
-20.979898 -10.574269 7.7246509 18 0 0 0 91.983444
24.488253 -8.7257175 7.9127059 25 0 0 0 54.95079
23.805912 -7.8291426 7.6282601 26 0 0 0 54.561592
24.795433 -7.4845057 7.8819451 38 0 0 0 54.166512
22.393688 -6.7635798 7.7014337 28 0 0 0 54.166512
22.588734 -6.221087 7.7127481 14 0 0 0 53.779247
23.994305 -5.9740176 7.5247221 45 0 0 0 53.381599
25.632059 8.5234766 7.5238905 22 0 0 0 44.425999
25.537714 10.639339 7.701407 38 0 0 0 43.263161
24.981865 11.135958 7.6133137 27 0 0 0 42.870327
24.336241 12.315688 7.5898423 28 0 0 0 42.09832
-25.435844 12.667844 7.9789343 27 0 0 0 7.0179801
-24.840572 13.141642 7.8891559 39 0 0 0 7.4056001
21.628056 13.772626 7.7639208 41 0 0 0 40.535278
23.725393 14.293391 7.7037635 15 0 0 0 40.927834
21.964031 16.371775 7.6158237 25 0 0 0 39.369392
20.987896 17.311714 7.5621362 25 0 0 0 38.592289
-32.249744 19.152126 7.7491322 11 0 0 0 8.1810102
-31.654268 19.865547 7.718338 36 0 0 0 8.57162
-25.218531 27.606834 7.6944261 46 0 0 0 12.84668
-24.61927 28.317339 7.7185531 43 0 0 0 13.24387
-24.04707 29.071737 7.7577577 36 0 0 0 13.63164
-23.405373 29.754923 7.781302 29 0 0 0 14.022
-22.797281 30.494734 7.8229237 23 0 0 0 14.41062
-4.7137704 31.000027 7.9462166 60 0 0 0 22.205799
-3.9459233 31.068298 7.935216 58 0 0 0 22.59762
-3.1806245 31.147419 7.931777 53 0 0 0 22.989269
-2.4132779 31.2001 7.9261546 16 0 0 0 23.377741
-1.6473312 31.274557 7.9308662 39 0 0 0 23.768761
-0.87977964 31.352489 7.9412618 47 0 0 0 24.154421
-0.10934415 31.40477 7.9499979 50 0 0 0 24.547409
0.66399086 31.475903 7.9683285 45 0 0 0 24.94138
1.4417324 31.549257 7.9920926 42 0 0 0 25.322611
36.59037 -27.097437 8.2393665 16 0 0 0 59.62402
1.3188702 -26.507759 8.0771523 20 0 0 0 73.652542
0.011521635 -25.776529 8.4822769 9 0 0 0 74.436562
4.5162849 -25.930536 8.0130634 7 0 0 0 71.716499
36.465996 -25.643223 8.0669937 17 0 0 0 59.226952
-0.5611043 -23.612623 8.3536367 17 0 0 0 74.826569
1.1881688 -23.804886 8.4309397 14 0 0 0 73.652542
