# .PCD v0.7 - Point Cloud Data file format
VERSION 0.7
FIELDS x y z intensity normal_x normal_y normal_z curvature
SIZE 4 4 4 4 4 4 4 4
TYPE F F F F F F F F
COUNT 1 1 1 1 1 1 1 1
WIDTH 942
HEIGHT 1
VIEWPOINT 0 0 0 1 0 0 0
POINTS 942
DATA ascii
-3.4697416 -8.9635601 0.81910652 206 0 0 0 80.376869
3.9570148 -8.9732494 0.58991778 69 0 0 0 67.880966
-14.502541 -8.210371 0.97645873 189 0 0 0 91.304283
-7.2110271 -8.1420765 0.65046841 228.5 0 0 0 86.043961
-6.6759548 -8.326746 0.63912928 241 0 0 0 85.255623
-6.2026124 -8.2097893 0.78592402 203.33333 0 0 0 84.796761
-5.6879649 -8.2761021 0.85331488 171.5 0 0 0 84.074951
-5.176157 -8.3847046 0.83813566 181 0 0 0 83.303146
-1.253728 -8.3546724 0.72245187 450.66666 0 0 0 76.86451
-8.7969494 -7.580061 0.69156504 173 0 0 0 88.176147
-8.3397245 -7.7368016 0.67837197 215 0 0 0 87.603363
-7.7593985 -7.9406238 0.66307873 219 0 0 0 86.825592
-7.2347174 -7.5907516 0.88883674 245 0 0 0 86.632317
-6.7415257 -7.8049712 0.87509829 219.66667 0 0 0 85.847076
-9.0958509 -7.4570904 0.69994551 162 0 0 0 88.56443
-8.1542463 -7.0282874 0.91123432 99 0 0 0 88.176147
-7.8328052 -7.2692213 0.90498477 118.5 0 0 0 87.603363
-7.4812965 -7.4738712 0.89597785 159 0 0 0 87.018867
-9.0543118 -6.7110467 0.95214772 88 0 0 0 89.352142
-8.6139231 -6.8889604 0.93274641 60.5 0 0 0 88.766121
-9.0049667 -6.338378 0.93105102 103 0 0 0 89.746086
27.038889 -6.0787182 0.92844784 15 0 0 0 53.046848
25.479925 -5.074327 0.87291908 17 0 0 0 52.656551
24.710274 -4.2928762 0.84421027 20 0 0 0 52.259521
23.611687 -3.5068622 0.805489 20 0 0 0 51.873539
-21.79455 -2.6867087 0.73729897 85 0 0 0 97.539589
22.908754 -2.8291125 0.7803371 26 0 0 0 51.490288
-21.577154 -2.1239462 0.72841108 169 0 0 0 97.923103
21.839127 -2.1537163 0.74388796 46 0 0 0 51.090839
-15.30039 -1.8862382 0.90526849 148 0 0 0 97.539589
21.060848 -1.5554701 0.71743625 46 0 0 0 50.7048
20.475519 -1.0070106 0.6977061 58 0 0 0 50.316566
19.937262 -0.48971158 0.67997712 59 0 0 0 49.923447
19.306374 0.23568329 0.65986979 61.5 0 0 0 49.340714
18.849365 0.92804492 0.64606416 55 0 0 0 48.753681
18.523651 1.369217 0.63660574 45 0 0 0 48.369202
18.254469 1.801546 0.62929016 44 0 0 0 47.971527
18.061699 2.2321532 0.62475652 70 0 0 0 47.59103
-19.669918 2.9145422 0.63450843 238 0 0 0 1.95619
17.870745 2.6561646 0.62059194 80 0 0 0 47.194832
-19.520437 3.3823979 0.63210058 274 0 0 0 2.34849
17.033201 3.3951557 0.59812498 30 0 0 0 46.409378
17.665039 3.0713179 0.61624193 45 0 0 0 46.800312
-19.409842 3.8546429 0.63125533 359 0 0 0 2.7376699
-16.056883 3.5975461 0.73053771 273.5 0 0 0 3.12217
17.392155 3.913435 0.61300099 80 0 0 0 46.02528
2.7937791 4.4798055 0.59316409 738 0 0 0 33.540169
17.199518 4.3170629 0.60997403 94 0 0 0 45.633247
-18.978926 4.7447329 0.62416774 295 0 0 0 3.5225899
2.7249002 4.7522502 0.74866605 438.66666 0 0 0 32.94952
17.105511 4.7434678 0.61054718 99 0 0 0 45.240513
16.309801 5.3997331 0.59199893 151 0 0 0 44.466633
16.868959 5.1278386 0.60663486 155 0 0 0 44.855488
16.228624 5.8193989 0.59386593 191 0 0 0 44.080009
16.035942 6.1994896 0.5922206 166 0 0 0 43.684158
-1.0774853 6.9340968 0.76779586 1303 0 0 0 22.227911
-0.90974981 6.9809399 0.77041727 1122.6666 0 0 0 22.617579
15.727924 6.7571936 0.58966208 276 0 0 0 43.10408
-0.65627688 7.0605197 0.77663994 1033 0 0 0 23.199928
15.560137 7.3764386 0.59268391 214 0 0 0 42.524601
15.648296 7.8948851 0.60241872 174 0 0 0 42.12698
-0.46181867 8.4628477 0.50531447 566 0 0 0 23.790409
0.2547788 8.220314 0.696859 553 0 0 0 25.153091
0.76099873 8.1797342 0.69702697 591.66669 0 0 0 26.128492
1.3882501 8.2565193 0.50233185 582 0 0 0 27.295349
15.555403 8.3339348 0.606089 206 0 0 0 41.732433
-0.047412079 8.6610718 0.73148751 535 0 0 0 24.56035
1.2165051 8.5131121 0.72856069 226 0 0 0 26.911671
1.6925502 8.7309914 0.53172106 124 0 0 0 27.68392
15.338161 8.7096167 0.6055727 210 0 0 0 41.343498
15.494243 9.3088121 0.61942148 121 0 0 0 40.960472
-16.982843 9.5941639 0.62254071 290 0 0 0 7.80726
-0.52072775 9.6253138 0.8094843 251 0 0 0 23.790409
-0.28768083 9.7755136 0.8211605 212 0 0 0 24.172199
14.923643 9.9963493 0.61517733 76 0 0 0 40.174721
15.542964 9.8657217 0.62991345 147 0 0 0 40.559952
-16.799568 10.041078 0.62467128 315 0 0 0 8.1874104
-11.542222 10.416736 0.88400799 265 0 0 0 11.30315
-2.820581 10.020987 0.60939556 16 0 0 0 20.275579
-16.629847 10.50081 0.62772983 206 0 0 0 8.5735102
-16.467525 10.971569 0.63153911 300 0 0 0 8.9761295
-11.378392 10.786385 0.89149696 72 0 0 0 11.69208
12.200445 10.557189 0.75180346 213 0 0 0 38.230808
15.57418 10.994622 0.650383 165 0 0 0 39.792351
-16.278963 11.431447 0.63487971 240 0 0 0 9.3575001
12.248361 11.136078 0.77070189 320.5 0 0 0 37.843979
-16.103342 11.907707 0.63921064 245 0 0 0 9.7455997
-11.969941 11.921092 0.95843554 66 0 0 0 12.0873
12.227747 11.67849 0.78383684 230.5 0 0 0 37.451302
15.528277 11.544093 0.65924209 203 0 0 0 39.399578
-15.915677 12.383393 0.64365679 190 0 0 0 10.13801
12.368576 12.407027 0.59806257 331 0 0 0 37.056801
15.466249 12.099072 0.66813403 65 0 0 0 39.008598
-15.737376 12.87606 0.64908201 111 0 0 0 10.53521
10.860393 12.635811 0.77330875 161 0 0 0 35.878658
12.273153 12.93144 0.6075418 286 0 0 0 36.666161
15.482038 12.736479 0.68098164 153 0 0 0 38.623352
-15.557999 13.379133 0.65506428 240 0 0 0 10.92091
-15.351441 13.870353 0.66057909 214 0 0 0 11.30315
-13.000427 13.604125 0.60495806 150 0 0 0 12.47367
-12.672551 13.928845 0.60576755 110 0 0 0 12.86225
-3.141216 13.780703 0.81623828 27 0 0 0 21.060061
3.3571942 13.575516 0.81687081 463 0 0 0 28.467501
3.7435856 13.68327 0.82857424 11 0 0 0 28.852989
12.264725 13.574781 0.62201232 200 0 0 0 36.266579
-15.157537 14.38563 0.66726661 198 0 0 0 11.69208
-14.310739 14.262767 0.64666218 56 0 0 0 12.0873
-12.833939 14.822466 0.62972933 64 0 0 0 13.24807
-2.9989815 14.845448 0.50261319 436 0 0 0 21.451361
12.435123 15.19971 0.66397232 126 0 0 0 35.494179
12.563074 16.14814 0.68963915 177 0 0 0 35.092258
12.484966 16.88686 0.7063123 245 0 0 0 34.707088
-14.131639 17.161625 0.70995873 127 0 0 0 13.64232
-12.719186 17.085802 0.68260098 95 0 0 0 14.4249
-12.280341 17.369421 0.68223006 87 0 0 0 14.81552
-13.868363 17.70999 0.71844125 78 0 0 0 14.03727
-12.593056 18.776352 0.72346741 95 0 0 0 15.21139
-3.444154 19.588352 0.64977753 571 0 0 0 21.84054
15.204151 21.643261 0.87946248 75 0 0 0 34.31876
11.898387 22.334778 0.83878505 108 0 0 0 32.369511
11.809925 23.541491 0.87057418 110 0 0 0 31.97361
11.721737 24.867903 0.90617728 94 0 0 0 31.591959
11.337951 27.468801 0.97440988 37 0 0 0 30.801291
-4.807096 -38.786137 1.2942327 7 0 0 0 76.476151
-6.6204629 -38.022671 1.2790098 37 0 0 0 77.248253
-11.269904 -37.077984 1.2853438 83 0 0 0 79.203766
-9.4018545 -37.444206 1.2801358 47 0 0 0 78.417877
-13.105331 -36.564629 1.2886877 52 0 0 0 79.9804
-12.187894 -36.82563 1.2867832 48 0 0 0 79.599297
13.640682 -14.35361 1.1541909 188 0 0 0 62.40358
27.878143 -14.047537 1.0376666 26 0 0 0 56.94648
13.805131 -13.830332 1.1395077 198 0 0 0 62.019711
14.382418 -13.717406 1.1583833 77 0 0 0 61.624233
28.570246 -13.526834 1.0506622 36 0 0 0 56.544159
15.119449 -13.064344 1.1644778 126 0 0 0 60.845249
5.2547483 -12.731199 1.3240447 293 0 0 0 68.26712
14.169401 -12.86546 1.1168193 101 0 0 0 61.230862
28.89431 -12.821302 1.0510474 33 0 0 0 56.158539
5.3903456 -12.202905 1.2835416 334.5 0 0 0 67.880966
30.109571 -12.484444 1.0830218 10 0 0 0 55.777519
5.5094662 -11.688904 1.2443469 371.5 0 0 0 67.49765
-1.0998888 -11.019267 1.2067498 175 0 0 0 76.087006
5.7004819 -11.135735 1.2563239 424 0 0 0 66.968536
6.2762904 -11.113525 1.2298635 431 0 0 0 66.320953
6.6999936 -11.210964 1.2575638 385.5 0 0 0 65.926804
-13.548755 -10.565235 1.0062461 64 0 0 0 88.967812
-1.0832388 -10.869531 1.4591048 186 0 0 0 76.087006
5.8434982 -10.968455 1.0472925 369 0 0 0 66.710403
-13.918382 -10.314803 1.0141928 82 0 0 0 89.352142
1.4715916 -10.020848 1.3551337 288 0 0 0 72.174683
1.8196226 -10.086276 1.2027019 424.33334 0 0 0 71.662819
2.1847894 -10.186356 1.3074337 408.66666 0 0 0 71.13855
2.7083731 -10.336195 1.2966325 206.5 0 0 0 70.424934
3.2843776 -10.418013 1.3247256 635.75 0 0 0 69.643654
-0.71821535 -9.5487919 1.1657143 864.5 0 0 0 75.689835
-0.25033683 -9.635601 1.1732974 760.33331 0 0 0 74.912849
0.34536999 -9.7674026 1.1890897 493.75 0 0 0 73.930557
0.83574343 -9.8769341 1.2054214 773 0 0 0 73.152435
1.2959701 -9.9610167 1.179618 544 0 0 0 72.431953
-13.599503 -9.083744 1.3659323 68 0 0 0 90.140312
-6.4305482 -9.120369 1.488974 351 0 0 0 84.26722
-2.0452504 -9.048255 1.016592 255 0 0 0 78.033714
-1.718832 -9.1592999 1.021127 214 0 0 0 77.44519
-14.507051 -8.6928854 1.4111593 131 0 0 0 90.925667
-13.978894 -8.8493204 1.381323 108 0 0 0 90.539139
-3.5370469 -8.5105791 1.010191 205 0 0 0 80.763229
-3.222024 -8.6353474 1.0104829 222 0 0 0 80.178635
-2.8089924 -8.8265371 1.0153399 289 0 0 0 79.401535
-2.2973959 -8.8104601 1.0706769 128.66667 0 0 0 78.548088
-1.7320412 -8.6482038 1.1849591 121.33334 0 0 0 77.641365
-14.943835 -8.4636555 1.4323968 137 0 0 0 91.304283
-4.7842236 -8.1145849 1.1088766 181 0 0 0 82.976532
-4.2992039 -8.2642431 1.0204134 418 0 0 0 82.135521
-3.8368077 -8.3507891 1.0073196 319 0 0 0 81.3535
-3.1476676 -8.1329002 1.1718541 125 0 0 0 80.376869
-2.7535298 -8.3017092 1.1755115 102.33334 0 0 0 79.59449
-2.3513751 -8.4556713 1.1791465 62 0 0 0 78.808495
-1.2309735 -8.2142296 1.2182306 260.5 0 0 0 76.86451
-5.7852364 -7.5919285 1.0440128 107 0 0 0 84.862053
-5.1726384 -7.729187 1.0184768 129.66667 0 0 0 83.884003
-4.1877551 -7.5931749 1.1649288 59.5 0 0 0 82.526779
-3.8112764 -7.7886467 1.1650929 74 0 0 0 81.745506
-3.4829884 -7.8351064 1.1525335 58 0 0 0 81.154701
-2.1985011 -7.5425158 1.2531753 1847 0 0 0 79.006134
-1.7318463 -7.6574612 1.2524241 2833.3333 0 0 0 78.031242
-1.3964019 -7.9766431 1.2905145 52 0 0 0 77.248253
-6.2891917 -7.2812824 1.052008 70.666664 0 0 0 85.847076
-4.460413 -7.0307646 1.119576 252 0 0 0 83.502098
-6.6007175 -6.759933 1.0333425 78.5 0 0 0 86.825592
-4.657258 -6.9582047 1.1255801 252 0 0 0 83.88269
-6.8340182 -6.4997325 1.031386 194 0 0 0 87.410072
-21.649271 -2.1310363 1.26294 153 0 0 0 97.923103
-15.386764 -1.8995996 1.2958655 155 0 0 0 97.539589
-13.375283 -1.6513057 1.4580619 154 0 0 0 97.539589
24.390177 1.1998907 1.4236101 28 0 0 0 48.753681
23.404259 1.7289249 1.3697772 26 0 0 0 48.369202
-13.411427 2.3193901 1.1129788 168 0 0 0 2.34849
22.646112 2.2338176 1.3295207 21 0 0 0 47.971527
-19.701889 2.9196262 1.1212058 204 0 0 0 1.95619
-13.469279 2.6701686 1.4542252 211 0 0 0 2.7376699
-12.897056 2.8853505 1.0814081 207 0 0 0 3.12217
22.103668 2.7304459 1.3021554 23 0 0 0 47.59103
-19.532681 3.3848388 1.115923 244 0 0 0 2.34849
21.514246 3.1964247 1.2726638 36 0 0 0 47.194832
-19.390717 3.8511288 1.1127928 203 0 0 0 2.7376699
21.07299 3.6624777 1.2522191 50 0 0 0 46.800312
20.504555 4.0854797 1.2249347 44 0 0 0 46.409378
19.789843 4.9658122 1.1963309 72 0 0 0 45.633247
20.131954 4.5285635 1.2094816 43 0 0 0 46.02528
17.940674 5.4529634 1.1023673 208 0 0 0 44.855488
19.468382 5.3972945 1.1849144 76 0 0 0 45.240513
17.268444 5.7164698 1.0704206 144 0 0 0 44.466633
17.282547 6.1965489 1.0799896 272 0 0 0 44.080009
-1.1499296 6.941484 1.3229046 1204.8 0 0 0 22.072962
-0.91221136 6.9901328 1.2910862 1372.3334 0 0 0 22.617579
15.919513 6.6090341 1.015947 149 0 0 0 43.296089
17.153931 6.6308045 1.0816486 197 0 0 0 43.684158
-10.938162 7.2729492 1.393469 241 0 0 0 8.9761295
-1.2658376 7.0054636 1.1274052 37 0 0 0 21.84054
-0.67496318 7.0591631 1.2643 1082.2 0 0 0 23.160563
15.987805 7.1029606 1.0304444 155 0 0 0 42.912071
-10.809568 7.7762308 1.4126596 312 0 0 0 9.5515499
16.490799 7.8167233 1.0731585 142 0 0 0 42.524601
16.416859 8.2818899 1.080794 150 0 0 0 42.12698
-13.971136 8.8132067 1.3450445 199 0 0 0 8.5735102
1.4637873 8.7135382 1.1794045 87 0 0 0 27.295349
1.6839234 8.7069292 1.1840185 65 0 0 0 27.68392
16.247196 8.7038736 1.0830749 215 0 0 0 41.732433
16.217007 9.2076435 1.0951382 201 0 0 0 41.343498
-16.996584 9.6019697 1.0992763 262 0 0 0 7.80726
-0.52194774 9.6259537 1.1615558 577 0 0 0 23.790409
-0.2893593 9.7945204 1.180557 246 0 0 0 24.172199
16.327648 9.8085299 1.1174868 177 0 0 0 40.960472
-16.836184 10.063027 1.1045167 223 0 0 0 8.1874104
-11.955791 10.267049 1.2861694 32 0 0 0 10.92091
16.196529 10.279816 1.1249006 164 0 0 0 40.559952
-16.666676 10.524113 1.1099981 239 0 0 0 8.5735102
-16.495377 10.990132 1.1162155 227 0 0 0 8.9761295
-11.646152 10.507112 1.2806307 109 0 0 0 11.30315
-11.190413 10.603486 1.2595317 193 0 0 0 11.69208
12.018763 10.932417 1.360967 211 0 0 0 37.843979
16.147545 10.814323 1.1388023 165 0 0 0 40.174721
-16.304634 11.449454 1.1220105 245 0 0 0 9.3575001
-11.28264 11.229484 1.2999321 149 0 0 0 12.0873
16.281151 11.4928 1.1665177 121 0 0 0 39.792351
-16.126856 11.925047 1.1295767 251 0 0 0 9.7455997
-14.223274 11.630827 1.2655199 203 0 0 0 10.53521
-11.411127 11.929719 1.3473498 140 0 0 0 12.47367
14.273339 11.745068 1.0835598 23 0 0 0 38.623352
-15.95597 12.414713 1.1386187 233 0 0 0 10.13801
12.157948 12.196885 1.0104131 298 0 0 0 37.056801
16.215342 12.05395 1.1818101 124 0 0 0 39.399578
16.079739 12.57817 1.1933358 67 0 0 0 39.008598
-15.563174 13.383413 1.1563127 222 0 0 0 10.92091
3.3292294 13.476765 1.4937102 340 0 0 0 28.467501
2.995121 13.545827 1.4922934 330 0 0 0 28.08005
3.1932988 13.646476 1.1672437 232.5 0 0 0 28.273775
13.965672 14.709413 1.1830862 29 0 0 0 36.666161
-14.780423 15.47393 1.2058102 149 0 0 0 12.47367
13.922147 15.403759 1.2096601 127 0 0 0 36.266579
-14.563006 16.014881 1.2198491 153 0 0 0 12.86225
-14.372149 16.605799 1.2376328 146 0 0 0 13.24807
12.500252 16.908222 1.2221304 94 0 0 0 34.707088
13.806042 16.870586 1.2670213 15 0 0 0 35.494179
-14.145065 17.177565 1.254073 125 0 0 0 13.64232
-12.861439 17.27718 1.2159389 43 0 0 0 14.4249
-13.868331 17.709484 1.2678493 73 0 0 0 14.03727
-12.665058 17.9153 1.2385061 47 0 0 0 14.81552
3.9802854 17.916887 1.0605328 147 0 0 0 28.08005
13.753187 17.673616 1.2999333 13 0 0 0 35.092258
-3.6478252 18.107502 1.0568852 17 0 0 0 21.451361
-3.2033865 18.197231 1.0578263 21 0 0 0 21.84054
13.632586 19.413149 1.3733743 7 0 0 0 34.31876
11.812554 22.175495 1.4482418 102 0 0 0 32.369511
11.552976 30.053349 1.0515617 54 0 0 0 30.41156
11.140553 31.247347 1.0811037 60 0 0 0 30.024651
10.606369 32.226997 1.1038485 60 0 0 0 29.631319
11.996801 39.677757 1.3396897 18 0 0 0 29.237669
27.220146 -38.691357 1.5502048 51 0 0 0 64.75338
28.667404 -38.693497 1.5772166 34 0 0 0 64.367569
30.363272 -38.945362 1.6163254 7 0 0 0 63.969719
25.520218 -38.237125 1.5076276 32 0 0 0 65.145882
-49.909374 -29.901657 1.8982021 7 0 0 0 90.925667
15.796569 -21.333714 1.5353045 4 0 0 0 64.367569
21.958292 -16.305784 1.5810891 83 0 0 0 59.672207
22.054527 -15.552043 1.5608522 94 0 0 0 59.281979
25.592339 -15.356807 1.7235237 37 0 0 0 58.11274
29.839149 -15.035092 1.9263879 27 0 0 0 56.94648
22.237593 -14.877301 1.5481119 100 0 0 0 58.898727
23.353209 -14.806157 1.5990862 36 0 0 0 58.511139
13.592315 -14.297948 1.6413105 221 0 0 0 62.40358
25.419252 -14.416293 1.6886276 23 0 0 0 57.719193
27.000471 -14.447872 1.7681814 33 0 0 0 57.330833
13.738775 -13.759307 1.618252 221 0 0 0 62.019711
13.8469 -13.202957 1.5929294 229 0 0 0 61.624233
15.165255 -13.099408 1.6668295 66 0 0 0 60.845249
5.2321362 -12.670479 1.8216693 270 0 0 0 68.26712
14.213832 -12.901369 1.5981165 127 0 0 0 61.230862
5.365675 -12.141647 1.7650833 290 0 0 0 67.880966
-3.889951 -11.742665 1.9541383 105 0 0 0 79.599297
-1.4834878 -11.927494 1.6021696 78 0 0 0 76.476151
5.4820356 -11.625774 1.7101889 322 0 0 0 67.49765
-5.4152317 -11.429857 1.996694 165 0 0 0 81.552307
-4.7516751 -11.060418 1.902355 170 0 0 0 80.958969
-4.2686296 -11.039408 1.871069 148 0 0 0 80.376869
5.7413793 -11.096878 1.8180367 400.5 0 0 0 66.904007
6.3096194 -11.167934 1.7067013 379 0 0 0 66.320953
6.7182679 -11.237131 1.7412559 342 0 0 0 65.926804
-11.88247 -10.763259 1.7294607 43 0 0 0 87.796654
-3.8735507 -10.796337 1.814401 240 0 0 0 79.9804
-1.8385442 -10.525908 1.9564102 287 0 0 0 77.248253
-1.0568259 -10.600874 1.6872072 228 0 0 0 76.087006
-5.8422861 -10.298106 1.8708434 229 0 0 0 82.721214
-5.3819494 -10.356934 1.8450868 257 0 0 0 82.135521
-2.203876 -10.351999 1.9383624 303.5 0 0 0 77.837921
-1.5673224 -10.482841 1.9409215 437 0 0 0 76.86451
-1.3011118 -10.447529 1.6677998 155 0 0 0 76.476151
1.475173 -10.045149 1.7349043 703 0 0 0 72.174683
1.7362213 -10.092966 1.7497208 664.5 0 0 0 71.793823
2.1455522 -10.203007 1.7807925 561 0 0 0 71.204117
2.7067153 -10.326384 1.8224776 363.75 0 0 0 70.424934
3.2405777 -10.425269 1.817839 564.33331 0 0 0 69.709366
-14.071222 -9.906395 1.8532375 80 0 0 0 89.746086
-13.413582 -9.944026 1.7993156 102 0 0 0 89.352142
-10.574325 -9.5809565 1.8934845 111 0 0 0 87.796654
-10.164658 -9.6739006 1.8627024 59 0 0 0 87.410072
-8.851675 -9.7605906 1.7514706 117 0 0 0 86.23951
-8.1885347 -9.7265358 1.691514 147 0 0 0 85.650864
-7.6308274 -9.7697525 1.8014641 207 0 0 0 85.057938
-7.1931119 -9.6895418 1.9055591 288 0 0 0 84.666168
-0.71772575 -9.5529776 1.6388282 590 0 0 0 75.689835
-0.25006327 -9.6596594 1.6531297 441.33334 0 0 0 74.912849
0.34700668 -9.7881098 1.6749583 583.25 0 0 0 73.930557
0.83948022 -9.9095936 1.7002414 779.75 0 0 0 73.152435
1.2177186 -9.9921036 1.7203784 749.5 0 0 0 72.560593
-13.615268 -9.0942125 1.7648125 87 0 0 0 90.140312
-11.156571 -9.1507721 1.5596969 150 0 0 0 88.56443
-10.726145 -9.2482738 1.7041328 144 0 0 0 88.176147
-8.1715631 -9.4664536 1.9731553 254 0 0 0 85.848412
-6.7862406 -9.1408901 1.5182298 352 0 0 0 84.666168
-1.1581082 -9.2870703 1.7176131 146 0 0 0 76.476151
-0.93873101 -9.4005127 1.73349 176 0 0 0 76.087006
0.42805091 -9.0021296 1.8766596 150 0 0 0 73.733292
0.77007836 -9.1044054 1.9023198 150.5 0 0 0 73.152435
1.2411511 -9.241703 1.9407728 171 0 0 0 72.367638
1.7348521 -9.3966913 1.9880459 133.5 0 0 0 71.597321
-13.58455 -8.5995359 1.733484 76 0 0 0 90.539139
-11.424549 -8.9111567 1.5658967 94 0 0 0 88.967812
-10.844186 -8.8975058 1.8617274 209 0 0 0 88.56443
-6.2809711 -8.9078569 1.724395 470 0 0 0 84.26722
-0.64436328 -8.5568247 1.7883805 175 0 0 0 75.689835
-0.22692518 -8.7356863 1.8209963 214 0 0 0 74.912849
0.20481865 -8.9133358 1.8568813 138 0 0 0 74.127831
-14.457742 -8.1882153 1.7901543 26 0 0 0 91.304283
-1.0503383 -8.4125166 1.7672564 350 0 0 0 76.476151
-0.84992331 -8.4978266 1.7800249 229 0 0 0 76.087006
-12.928889 -7.7468791 1.6271133 260 0 0 0 90.925667
-19.168957 -1.890301 1.6015725 98 0 0 0 97.923103
-15.771896 -1.5553721 1.7086018 72 0 0 0 97.923103
-13.502169 -1.66935 1.8058556 248 0 0 0 97.539589
-14.489139 -1.4314481 1.9302158 178 0 0 0 97.923103
25.951551 0.63788903 1.5107896 23 0 0 0 49.14378
-19.757465 2.9247127 1.6196336 258 0 0 0 1.95619
-19.367035 3.8432126 1.6011571 182 0 0 0 2.7376699
-10.334252 5.4931388 1.8180945 226 0 0 0 7.4130101
-10.502356 5.5829253 1.5546613 280 0 0 0 7.4130101
-10.172115 5.7299933 1.8139107 227 0 0 0 7.80726
18.749115 5.7018332 1.6388806 81 0 0 0 44.855488
-10.650314 6.3490911 1.619892 318 0 0 0 8.1874104
-10.486195 6.2507629 1.89575 227 0 0 0 8.1874104
17.81102 6.3892479 1.5835876 109 0 0 0 44.080009
18.280621 6.0544434 1.6110412 74 0 0 0 44.466633
-10.714929 6.7487354 1.653995 207 0 0 0 8.5735102
-1.1672817 6.9318333 1.6310449 1117 0 0 0 22.034225
-0.91275275 6.9818444 1.6343596 1262 0 0 0 22.61758
17.437555 6.7438407 1.5649936 82 0 0 0 43.684158
-11.202485 7.4467058 1.7555255 216 0 0 0 8.9761295
-10.557181 7.394794 1.6835129 130 0 0 0 9.3575001
-0.74414992 7.0329366 1.6419014 1405 0 0 0 23.003099
17.739859 7.3667235 1.606735 114 0 0 0 43.296089
-10.790706 7.9603195 1.7505443 281 0 0 0 9.7455997
17.424139 7.743371 1.5950176 165 0 0 0 42.912071
-10.891543 8.4549198 1.799531 315 0 0 0 10.13801
17.190809 8.1516294 1.5914229 165 0 0 0 42.524601
-11.543192 8.9665537 1.5480843 146 0 0 0 10.13801
16.731874 8.9668989 1.5875039 167 0 0 0 41.732433
17.027203 8.5930166 1.5950525 128 0 0 0 42.12698
-11.487899 9.3839064 1.5709499 214 0 0 0 10.53521
-0.75155646 9.4992666 1.9695699 821 0 0 0 23.396759
16.403381 9.3172512 1.5775743 168 0 0 0 41.343498
-17.039501 9.6223984 1.5874159 190 0 0 0 7.80726
-0.52380681 9.634675 1.7572843 476.66666 0 0 0 23.790411
-0.29088193 9.8020782 1.6650062 315.5 0 0 0 24.172199
-16.869062 10.078753 1.5941083 237 0 0 0 8.1874104
-11.729257 10.07152 1.6364232 144 0 0 0 10.92091
16.746582 10.063857 1.6322474 124 0 0 0 40.960472
11.84556 10.775766 1.7312987 238 0 0 0 37.843979
16.857243 10.702593 1.667021 178 0 0 0 40.559952
-16.534655 11.012176 1.6116894 198 0 0 0 8.9761295
-16.339979 11.470027 1.619714 243 0 0 0 9.3575001
16.939827 11.348265 1.7011088 120 0 0 0 40.174721
-16.171938 11.954029 1.6316506 200 0 0 0 9.7455997
-11.885349 11.831916 1.7738618 106 0 0 0 12.0873
12.094397 11.556622 1.8064828 241 0 0 0 37.451302
14.198126 11.688087 1.7599555 114 0 0 0 38.623352
16.942831 11.963546 1.7294154 121 0 0 0 39.792351
-15.974993 12.424961 1.6421341 230 0 0 0 10.13801
12.183796 12.2279 1.8624736 302 0 0 0 37.056801
14.154311 12.247312 1.56277 385 0 0 0 38.230808
16.772802 12.472281 1.7421658 119 0 0 0 39.399578
-12.17288 12.729475 1.8618988 158 0 0 0 12.47367
12.163006 12.821712 1.9054878 312 0 0 0 36.666161
16.10321 12.601427 1.7047213 121 0 0 0 39.008598
-13.730562 13.021447 1.9972607 189 0 0 0 11.69208
-12.090466 13.28092 1.8984467 223 0 0 0 12.86225
2.9757676 13.472171 1.8234347 291 0 0 0 28.08005
12.07886 13.376014 1.941943 249 0 0 0 36.266579
14.043307 13.41221 1.6190672 106 0 0 0 37.451302
11.982522 13.942803 1.979627 236 0 0 0 35.878658
13.986673 14.030796 1.6505307 18 0 0 0 37.056801
12.070293 14.76174 1.5878388 211 0 0 0 35.494179
13.99527 14.746215 1.6922657 43 0 0 0 36.666161
11.996038 15.428578 1.625891 181 0 0 0 35.092258
13.902028 15.387571 1.7248629 19 0 0 0 36.266579
-14.571264 16.018032 1.7580742 7 0 0 0 12.86225
11.909245 16.118067 1.6656872 201 0 0 0 34.707088
13.889755 16.153833 1.7704027 137 0 0 0 35.878658
-14.395011 16.626059 1.7855248 119 0 0 0 13.24807
11.851343 16.891411 1.713294 183 0 0 0 34.31876
-14.176014 17.208736 1.8102995 118 0 0 0 13.64232
-13.410089 17.115534 1.766763 60 0 0 0 14.03727
-12.959727 17.402897 1.763712 33 0 0 0 14.4249
-12.722025 17.988997 1.7909943 62 0 0 0 14.81552
3.7544019 19.111694 1.6074541 75 0 0 0 27.68392
3.5844703 20.931644 1.7488335 61 0 0 0 27.295349
13.0659 26.0376 1.6724222 167 0 0 0 31.97361
11.333125 27.459064 1.7013162 49 0 0 0 30.801291
12.956944 27.480551 1.7415353 18 0 0 0 31.591959
12.889957 29.170481 1.8250954 16 0 0 0 31.19721
10.548145 32.053509 1.9241363 31 0 0 0 29.631319
-20.837357 43.967007 1.5244862 26 0 0 0 17.54884
-26.891914 44.796085 1.6295514 10 0 0 0 15.98472
-19.836937 44.655758 1.5320745 7 0 0 0 17.93469
-25.814823 45.495167 1.6326314 21 0 0 0 16.37826
-29.337591 46.263145 1.705645 20 0 0 0 15.6052
-4.7894864 -38.642979 2.2425497 74 0 0 0 76.476151
14.885126 -38.65881 2.3783514 15 0 0 0 68.663902
21.8939 -16.252316 2.2554917 86 0 0 0 59.672207
22.018642 -15.521233 2.2291751 80 0 0 0 59.281979
13.41598 -14.824886 2.1487818 55 0 0 0 62.794048
22.191317 -14.840985 2.209749 76 0 0 0 58.898727
23.497677 -14.892135 2.301511 11 0 0 0 58.511139
33.280445 -14.76625 2.0967662 10 0 0 0 56.158539
35.780788 -14.834361 2.2287943 8 0 0 0 55.777519
13.584264 -14.289635 2.119426 194 0 0 0 62.40358
13.701437 -13.722115 2.0851431 200 0 0 0 62.019711
13.844457 -13.200776 2.057488 220 0 0 0 61.624233
15.182988 -13.114863 2.1562822 50 0 0 0 60.845249
5.2092924 -12.615472 2.3202262 280.5 0 0 0 68.26712
14.298176 -12.977959 2.0766113 114 0 0 0 61.230862
-7.2419581 -12.069249 2.2177079 51 0 0 0 83.104195
5.3354645 -12.073638 2.2448697 268 0 0 0 67.880966
5.45261 -11.563695 2.1755426 292.5 0 0 0 67.49765
-11.347634 -11.343782 2.1252644 73 0 0 0 87.018867
-10.88151 -11.424671 2.0904913 54 0 0 0 86.632317
-7.6426907 -11.427155 2.1665199 136 0 0 0 83.88269
-7.0805926 -11.169327 2.0855083 188 0 0 0 83.502098
-4.1685133 -11.189217 2.3305099 122 0 0 0 80.178635
-3.7483799 -11.313779 2.4715893 108 0 0 0 79.599297
4.250762 -11.06202 2.165951 85 0 0 0 68.663902
5.7403622 -11.094456 2.2814043 386 0 0 0 66.904007
6.3144035 -11.176495 2.1845293 418 0 0 0 66.320953
6.7222538 -11.243902 2.2286742 303 0 0 0 65.926804
-6.1670895 -10.566236 2.234628 116.5 0 0 0 82.912704
-4.4528022 -10.72578 2.123461 245 0 0 0 80.763229
-3.7643805 -10.908962 2.110714 314 0 0 0 79.789848
-3.2890921 -10.806271 2.2039213 349 0 0 0 79.203766
-2.882843 -10.712565 2.1213131 249.33333 0 0 0 78.678291
-1.6424582 -10.989492 2.3062198 156 0 0 0 76.86451
3.9171467 -10.992969 2.1334732 113 0 0 0 69.054253
-9.5577164 -10.033785 2.1826642 127 0 0 0 86.632317
-9.0746403 -10.006577 2.1286631 134 0 0 0 86.23951
-8.6876869 -10.064851 2.424494 152 0 0 0 85.848412
-7.0690465 -10.295228 2.2799802 115 0 0 0 84.074951
-6.3187141 -10.240831 2.3458176 136 0 0 0 83.303146
-5.5146317 -10.300589 2.1355901 149 0 0 0 82.332336
-5.0617967 -10.037796 2.0561507 219 0 0 0 81.938705
-4.7286506 -10.304517 2.0737669 247.5 0 0 0 81.3535
-4.1533699 -10.00264 2.2486579 135 0 0 0 80.763229
-2.5189087 -10.009925 2.1447179 310 0 0 0 78.417877
-2.0125296 -10.061971 2.2571518 369 0 0 0 77.642128
3.443141 -10.471349 2.0170734 508 0 0 0 69.446518
-12.563654 -9.8035574 2.1104136 49 0 0 0 88.967812
-10.105292 -9.6172886 2.1968427 46 0 0 0 87.410072
-9.741436 -9.7370539 2.1695175 90 0 0 0 87.018867
-8.1821299 -9.9625893 2.0332212 238 0 0 0 85.453308
-7.7391844 -9.6602192 2.2597098 278 0 0 0 85.255623
-7.3969736 -9.9643946 2.2654588 296 0 0 0 84.666168
-6.3093843 -9.6866732 2.39711 207.5 0 0 0 83.692398
-4.7332053 -9.7774811 2.3421123 267 0 0 0 81.681107
-4.394567 -9.8917465 2.2471502 281 0 0 0 81.154701
-2.284857 -9.7581873 2.2450385 343.66666 0 0 0 78.161766
-0.36766553 -9.6707449 2.4869256 193 0 0 0 75.106705
2.3703015 -9.5257072 2.0412991 157 0 0 0 70.622063
2.7615504 -9.5753279 2.072063 133.5 0 0 0 70.034302
3.2992692 -9.6358738 2.1169751 103.5 0 0 0 69.250381
3.78387 -9.6126375 2.3149536 340.66666 0 0 0 68.531639
4.1915364 -9.7047663 2.2821772 254.33333 0 0 0 68.009682
4.5863228 -9.7306995 2.3653374 211.5 0 0 0 67.49765
-13.230075 -9.3173752 2.1422355 164 0 0 0 89.746086
-12.417147 -9.208312 2.0481369 212 0 0 0 89.352142
-11.223064 -9.2084732 2.2844913 123 0 0 0 88.56443
-10.003383 -9.0631866 2.4604049 190 0 0 0 87.796654
-9.7917509 -9.318614 2.463877 55 0 0 0 87.410072
-5.0246463 -9.3836145 2.209949 381 0 0 0 82.332336
-4.7547989 -9.1518097 2.3945365 103.5 0 0 0 82.135521
-2.1233718 -9.4106512 2.4789631 444 0 0 0 78.033714
2.1355257 -9.1534519 2.2301908 299.60001 0 0 0 70.853279
2.651777 -9.1908703 2.3417809 255.5 0 0 0 70.034302
3.1439269 -9.2984428 2.3601933 245 0 0 0 69.315765
-12.874931 -8.6027136 2.0512836 226 0 0 0 90.140312
-5.0892091 -8.9718504 2.3945 222 0 0 0 82.721214
-1.0717623 -8.5985298 2.0173495 191 0 0 0 76.476151
-0.74897063 -8.5640087 2.0018449 744.5 0 0 0 75.88842
-0.22448534 -8.6763391 2.0210412 860 0 0 0 74.912849
0.31172282 -8.7945986 2.0485344 888.5 0 0 0 73.930557
0.74226773 -8.7649603 2.1557286 49.75 0 0 0 73.152435
1.19118 -8.8653173 2.1915417 42.5 0 0 0 72.367638
1.6556959 -8.9637794 2.2328725 38.25 0 0 0 71.597321
-14.131243 -8.0064459 2.1497059 162 0 0 0 91.304283
-13.253412 -8.1665955 2.0621171 204.5 0 0 0 90.732407
-10.67815 -8.3315382 2.1334212 193 0 0 0 88.967812
-14.396673 -7.6967139 2.1604671 121 0 0 0 91.686447
-14.586278 -7.343956 2.1611547 172 0 0 0 92.077477
-14.721728 -1.8200933 2.3326881 206 0 0 0 97.539589
-13.298973 -1.6442187 2.4418976 205 0 0 0 97.539589
-19.959469 2.4576437 2.1174016 188 0 0 0 1.5707
-13.228466 2.2861295 2.4113314 79 0 0 0 2.34849
-11.948977 2.3662844 2.4877539 258 0 0 0 2.7376699
-19.784809 2.9291041 2.1058044 256 0 0 0 1.95619
-19.609831 3.3953624 2.0953705 264 0 0 0 2.34849
29.543154 4.3922234 2.4782021 8 0 0 0 47.194832
28.1467 4.8945684 2.3721831 28 0 0 0 46.800312
-10.494523 5.2537127 2.3986795 278 0 0 0 7.0200901
-10.684892 5.7931523 2.2842429 175.66667 0 0 0 7.5444264
-10.239242 5.7680264 2.4023533 186 0 0 0 7.80726
25.492611 5.7367697 2.1729643 15 0 0 0 46.02528
-10.416872 6.2092299 2.18186 291 0 0 0 8.1874104
24.820889 6.2304192 2.1289072 23 0 0 0 45.633247
-11.05902 6.9664927 2.3499591 194 0 0 0 8.5735102
24.08684 6.6797509 2.0802553 19 0 0 0 45.240513
-11.679223 7.3590693 2.1405582 264 0 0 0 8.5735102
-11.268922 7.4910412 2.0990191 180 0 0 0 8.9761295
20.27799 7.2724357 2.3216066 36 0 0 0 44.080009
21.279558 7.045702 2.4142809 16 0 0 0 44.466633
-11.525655 7.6624689 2.487251 187 0 0 0 8.9761295
-11.154694 7.8153353 2.2814379 229 0 0 0 9.3575001
17.828304 7.92277 2.1055825 138 0 0 0 42.912071
18.207727 7.5607581 2.1275613 94 0 0 0 43.296089
20.349243 7.8675847 2.3505905 73 0 0 0 43.684158
-10.92489 8.0597191 2.1063833 237 0 0 0 9.7455997
17.645367 8.3668909 2.1074069 115 0 0 0 42.524601
17.803097 8.9839172 2.1509473 165 0 0 0 42.12698
-17.281845 9.2087908 2.0623424 92 0 0 0 7.4130101
-0.75251889 9.4852285 2.3157268 205 0 0 0 23.396759
16.21788 9.2143764 2.2432628 125 0 0 0 41.343498
17.639307 9.4523258 2.1581991 143 0 0 0 41.732433
-17.071287 9.6404228 2.0649145 232 0 0 0 7.80726
-0.52672052 9.6476917 2.3516486 184 0 0 0 23.790409
-0.29384476 9.8671675 2.1607754 79 0 0 0 24.172199
-16.896835 10.095394 2.0731845 258 0 0 0 8.1874104
-11.613678 10.218951 2.2067339 215 0 0 0 11.11203
-11.391072 10.271873 2.3779788 164 0 0 0 11.30315
-16.727064 10.558237 2.0835433 162 0 0 0 8.5735102
-11.371461 10.771624 2.2367716 147 0 0 0 11.69208
11.668783 10.619776 2.2893136 304 0 0 0 37.843979
17.516296 10.525631 2.2024448 144 0 0 0 40.960472
-11.532928 11.475325 2.1204062 117 0 0 0 12.0873
-10.942381 11.432756 2.4539781 163 0 0 0 12.47367
14.184774 11.108562 2.3880255 39 0 0 0 39.008598
17.565845 11.151756 2.2414296 115 0 0 0 40.559952
-13.914976 11.952354 2.3857565 81 0 0 0 10.92091
-11.104714 11.603408 2.0940442 102 0 0 0 12.47367
17.566128 11.767206 2.2766936 117 0 0 0 40.174721
12.00493 12.053631 2.2547953 308 0 0 0 37.056801
14.117632 12.216073 2.0127509 44 0 0 0 38.230808
15.956912 12.487618 2.1822453 126 0 0 0 39.008598
-14.30634 12.917738 2.033437 152 0 0 0 11.30315
-11.789194 12.943749 2.2806017 85 0 0 0 12.86225
11.928139 12.579823 2.2965209 284 0 0 0 36.666161
17.432766 12.962275 2.337399 125 0 0 0 39.399578
17.721415 12.512412 2.3345983 117 0 0 0 39.792351
-11.438031 13.193241 2.27507 141 0 0 0 13.24807
2.9451616 13.338039 2.3119717 316.5 0 0 0 28.08005
11.86925 13.149802 2.3453176 277 0 0 0 36.266579
3.5225646 14.262666 2.3033655 222 0 0 0 28.467501
11.903374 14.558899 2.0235803 203 0 0 0 35.494179
11.87936 15.279687 2.0809336 213 0 0 0 35.092258
11.87495 16.072527 2.1467509 187 0 0 0 34.707088
-14.425235 16.660711 2.3232234 134 0 0 0 13.24807
11.853469 16.895208 2.2152426 206 0 0 0 34.31876
-14.192969 17.22897 2.3533711 128 0 0 0 13.64232
-13.430352 17.141047 2.2970896 82 0 0 0 14.03727
-12.918386 17.346682 2.2823179 59 0 0 0 14.4249
-12.632399 17.861223 2.3087738 66 0 0 0 14.81552
-0.049016301 19.719135 2.1003923 19 0 0 0 24.56035
11.762181 22.091816 2.066045 82 0 0 0 32.369511
11.309893 27.418451 2.4372339 15 0 0 0 30.801291
-5.0719242 28.938728 2.3927372 28 0 0 0 21.84054
-12.932096 42.488163 2.4877505 52 0 0 0 19.88748
15.252687 -42.706676 2.6005857 6 0 0 0 69.054253
39.440571 -18.669596 2.5052533 18 0 0 0 56.544159
21.826923 -16.202873 2.9093089 88 0 0 0 59.672207
41.088333 -15.862695 2.5298917 540 0 0 0 55.386921
21.986034 -15.498488 2.8796461 96 0 0 0 59.281979
13.399429 -14.801581 2.6369119 151 0 0 0 62.794048
22.169361 -14.826526 2.8557591 104 0 0 0 58.898727
33.150375 -14.701915 2.9918704 53 0 0 0 56.158539
13.547823 -14.24653 2.5970874 199 0 0 0 62.40358
13.677185 -13.693232 2.557276 185 0 0 0 62.019711
13.789618 -13.144197 2.7533545 226 0 0 0 61.624233
15.159792 -13.090398 2.6455011 16 0 0 0 60.845249
28.433205 -13.456386 2.5996745 38 0 0 0 56.544159
14.301352 -12.976439 2.5518312 110 0 0 0 61.230862
-2.1418226 -12.274428 2.5821724 83 0 0 0 77.248253
-4.1931849 -11.695899 2.8790586 45 0 0 0 79.9804
-3.7814994 -11.904716 2.8943548 60.5 0 0 0 79.401535
-12.264162 -11.112907 2.600018 92 0 0 0 87.796654
-4.7689753 -11.494674 2.8832848 111 0 0 0 80.763229
-4.3636999 -11.288565 2.6575551 107.5 0 0 0 80.376869
-1.8585311 -11.194382 2.7258692 199 0 0 0 77.120338
5.7423544 -11.094942 2.7419264 366.5 0 0 0 66.904007
6.3393483 -11.218389 2.8270006 316 0 0 0 66.320953
6.7337508 -11.263197 2.7176449 268 0 0 0 65.926804
-12.531441 -10.807538 2.599582 82 0 0 0 88.176147
-6.1861653 -10.600842 2.6939678 154 0 0 0 82.912704
-3.0269742 -10.904621 2.6250658 220 0 0 0 78.808495
-1.6361145 -10.959532 2.842696 238 0 0 0 76.86451
-9.3077011 -10.263619 2.8656194 75 0 0 0 86.23951
-7.3880873 -10.214054 2.765218 136 0 0 0 84.46669
-5.445827 -10.175815 2.9587171 137 0 0 0 82.332336
-4.8104172 -10.154999 2.881722 260 0 0 0 81.552307
-4.4948425 -10.122568 2.8410079 335 0 0 0 81.154701
-13.163195 -9.7617378 2.5743825 58 0 0 0 89.352142
-11.131634 -9.5996161 2.6762757 70 0 0 0 88.176147
-9.7469168 -9.7424202 2.6780748 122.5 0 0 0 87.018867
-8.0899744 -9.85182 2.7955346 192 0 0 0 85.453308
-7.7610655 -9.9364634 2.6108723 139 0 0 0 85.057938
-7.3675442 -9.6776791 2.8174024 166 0 0 0 84.862053
-6.9967723 -9.9242744 2.5159028 178 0 0 0 84.26722
-6.2350135 -9.6621046 2.7581732 215 0 0 0 83.62896
-5.7482738 -9.8538904 2.9248667 233.5 0 0 0 82.912704
-5.0348539 -9.988307 2.8685813 226 0 0 0 81.938705
-0.012033851 -9.7423878 2.5031722 324 0 0 0 74.525139
0.34982288 -9.8230858 2.5254383 336.5 0 0 0 73.930557
4.5882354 -9.7326393 2.7619121 286 0 0 0 67.49765
-13.796218 -9.2184315 2.8093181 77 0 0 0 90.140312
-13.284625 -9.3557367 2.5526595 139 0 0 0 89.746086
-11.37654 -9.3343964 2.6791725 35 0 0 0 88.56443
-9.7636232 -9.2917538 2.7881322 172 0 0 0 87.410072
-6.3358383 -9.2290783 2.8703346 225.5 0 0 0 84.074951
-2.2331944 -9.3534756 2.5888138 311.5 0 0 0 78.2258
-13.909144 -8.8083563 2.5858471 50 0 0 0 90.539139
-12.063789 -8.9460192 2.7334735 65 0 0 0 89.352142
-6.6413817 -8.9483967 2.8570259 183 0 0 0 84.666168
-6.3258605 -8.5226526 2.9859385 196 0 0 0 84.666168
-14.526986 -8.2306719 2.6218078 124 0 0 0 91.304283
-14.144595 -8.4787989 2.5900354 122 0 0 0 90.925667
-15.063761 -7.5843678 2.6478226 185 0 0 0 92.077477
-14.829789 -7.9282713 2.6402528 171 0 0 0 91.686447
-15.273983 -2.2700388 2.8088281 169 0 0 0 97.14537
36.00819 0.89038229 2.9794786 20 0 0 0 49.14378
33.922573 1.6735072 2.811933 48 0 0 0 48.753681
-12.15424 2.1000299 2.5188355 157 0 0 0 2.34849
33.19117 2.4560671 2.7565331 66 0 0 0 48.369202
-19.4953 2.8830185 2.5580699 6 0 0 0 1.95619
-12.132971 2.7124104 2.5386765 226 0 0 0 3.12217
-19.648226 3.3988256 2.5878174 164 0 0 0 2.34849
-18.292902 3.1641231 2.8685606 112 0 0 0 2.34849
-12.218557 3.0468256 2.5711503 221 0 0 0 3.5225899
33.438042 3.3019762 2.7828667 18 0 0 0 47.971527
-19.458591 3.8584981 2.5745101 251 0 0 0 2.7376699
-18.129173 3.5945137 2.8558211 270 0 0 0 2.7376699
31.457392 3.8891492 2.6275065 14 0 0 0 47.59103
-18.003572 4.0296173 2.8506737 193 0 0 0 3.12217
-10.164826 4.7786293 2.8435211 280 0 0 0 6.63521
-10.900848 5.1263866 2.7543232 229 0 0 0 6.63521
-10.279219 5.1432099 2.7676783 194.5 0 0 0 7.0200901
-11.051472 5.8739462 2.861321 204 0 0 0 7.4130101
-10.065385 5.6672907 2.6426642 260 0 0 0 7.80726
19.034809 6.8313289 2.6796372 16 0 0 0 44.080009
-11.855256 7.2702436 2.8393922 203.5 0 0 0 8.3804607
-11.715304 7.789093 2.8723049 254 0 0 0 8.9761295
18.119303 7.5279965 2.6006417 76 0 0 0 43.296089
-11.611878 8.1370859 2.8950579 189 0 0 0 9.3575001
-10.920273 8.4770594 2.8238945 294 0 0 0 10.13801
-3.98281 8.2992144 2.7984047 286 0 0 0 17.54884
17.636227 8.3665438 2.5870969 81 0 0 0 42.524601
-11.546078 8.5201321 2.5784445 73 0 0 0 9.7455997
-11.100828 8.8386574 2.550787 201 0 0 0 10.33661
-3.8364804 8.5252523 2.842205 71 0 0 0 17.93469
16.323484 8.7528973 2.9152021 111 0 0 0 41.732433
19.659166 8.738946 2.8477316 24 0 0 0 42.912071
-0.86439341 9.4177074 2.7678919 215.25 0 0 0 23.199928
-17.128687 9.6690273 2.5535791 107 0 0 0 7.80726
-0.52899045 9.6668825 2.8335736 173.5 0 0 0 23.790409
-0.29507902 9.8676634 2.5235376 33 0 0 0 24.172199
-1.6425434 10.707162 2.7628269 26 0 0 0 22.227909
11.554523 10.516701 2.8489175 305 0 0 0 37.843979
17.637192 11.819515 2.8086619 38 0 0 0 40.174721
-12.370582 12.312341 2.7031531 67 0 0 0 12.0873
17.540186 12.389703 2.840029 9 0 0 0 39.792351
-15.847646 12.956728 2.6586311 106 0 0 0 10.53521
17.4743 12.998229 2.8792691 56 0 0 0 39.399578
2.9220371 13.237241 2.7962809 255 0 0 0 28.08005
3.6170514 14.642036 2.7369552 92 0 0 0 28.467501
12.279454 16.624916 2.7276175 71 0 0 0 34.707088
-14.247608 17.288961 2.9114313 91 0 0 0 13.64232
0.3664619 17.059626 2.6638341 93 0 0 0 24.961861
-13.955605 17.807119 2.9404776 13 0 0 0 14.03727
-0.052840564 18.039188 2.8135459 76 0 0 0 24.56035
11.678957 21.937307 2.6556778 98 0 0 0 32.369511
11.646055 23.23027 2.774184 94 0 0 0 31.97361
2.8729026 23.687943 2.5385988 31 0 0 0 26.52393
11.605771 24.638533 2.9047565 121 0 0 0 31.591959
10.472557 31.846125 2.746455 58 0 0 0 29.631319
-9.6174431 34.566097 2.9099195 7 0 0 0 20.275579
-24.863518 46.435814 2.9334629 12 0 0 0 16.76292
-24.046156 47.686237 2.9751143 8 0 0 0 17.154819
-20.374784 49.085812 2.9648309 8 0 0 0 18.33062
33.087009 -47.024872 3.2841866 7 0 0 0 64.75338
31.234257 -46.792194 3.2143772 6 0 0 0 65.145882
29.293673 -46.308548 3.1319466 5 0 0 0 65.541496
52.957577 -18.962002 3.2216117 11 0 0 0 54.99612
35.036339 -17.64439 3.232476 31 0 0 0 56.94648
51.728828 -17.101376 3.1221418 14 0 0 0 54.612511
13.366302 -14.76519 3.1235268 198 0 0 0 62.794048
35.691689 -14.790417 3.1855414 18 0 0 0 55.777519
13.517267 -14.214591 3.0769186 141 0 0 0 62.40358
-13.11772 -13.773851 3.454236 64 0 0 0 86.632317
13.625326 -13.641611 3.2635999 187 0 0 0 62.019711
-11.994226 -13.228563 3.2449269 57 0 0 0 86.23951
-5.8132968 -13.098988 3.3153679 50 0 0 0 81.154701
13.727317 -13.085124 3.4457767 194 0 0 0 61.624233
14.348502 -13.019307 3.0398026 130 0 0 0 61.230862
28.336681 -13.410967 3.3529198 45 0 0 0 56.544159
-1.5371366 -12.379474 3.1962187 139 0 0 0 76.476151
5.1393309 -12.440781 3.4465127 193 0 0 0 68.26712
-4.694685 -11.718899 3.2344263 85.5 0 0 0 80.570053
-3.8484404 -11.62316 3.4417207 218 0 0 0 79.599297
-2.3254375 -11.641512 3.0432751 128 0 0 0 77.642128
5.2766428 -11.935642 3.3424578 290 0 0 0 67.880966
-4.2571964 -11.427278 3.278065 126.5 0 0 0 80.178635
-3.8212976 -11.08288 3.1513455 235.5 0 0 0 79.789848
-3.3178749 -11.407944 3.0458951 206.5 0 0 0 79.006134
-1.8037124 -11.150906 3.1778016 221.5 0 0 0 77.056381
-1.2732954 -11.394958 3.3652873 148 0 0 0 76.281578
5.6837935 -11.090205 3.2960329 310.33334 0 0 0 66.968536
6.354352 -11.242695 3.3081934 301 0 0 0 66.320953
6.7579794 -11.299262 3.2107196 231.5 0 0 0 65.926804
-10.037456 -10.537634 3.0081644 59 0 0 0 86.632317
-2.8438005 -10.766188 3.2676716 149 0 0 0 78.61319
-2.2356403 -10.741195 3.2662075 199.66667 0 0 0 77.772652
-1.8836412 -10.807555 3.3564799 325 0 0 0 77.248253
-14.306992 -10.075951 3.1794043 71 0 0 0 89.746086
-13.069743 -10.198491 3.0139699 50 0 0 0 88.967812
-11.091009 -10.049156 3.0923502 89 0 0 0 87.796654
-10.006188 -10.005127 3.2716258 97 0 0 0 87.018867
-8.695219 -10.076928 3.2437916 115 0 0 0 85.848412
-5.0568094 -10.031855 3.1597154 236 0 0 0 81.938705
-4.7363319 -10.324324 3.1948977 335.5 0 0 0 81.3535
-4.1802635 -10.072237 3.0685279 332 0 0 0 80.763229
-2.5829005 -10.276366 3.3728728 219 0 0 0 78.417877
-12.823388 -9.5094919 3.2960198 132 0 0 0 89.352142
-12.231782 -9.7892275 3.2354965 59 0 0 0 88.766121
-11.340454 -9.7814283 3.2793386 68.5 0 0 0 88.176147
-9.0607071 -9.9944563 3.1207356 79 0 0 0 86.23951
-7.712863 -9.6325531 3.1604674 166 0 0 0 85.255623
-5.7081113 -9.5129499 3.1202202 246 0 0 0 83.104195
-5.2760172 -9.6662941 3.186569 231.33333 0 0 0 82.461967
-13.646273 -9.118104 3.387337 71 0 0 0 90.140312
-13.340172 -9.3947306 3.3678181 105 0 0 0 89.746086
-11.760626 -9.179678 3.4471583 107 0 0 0 88.967812
-10.258557 -9.2976427 3.2015324 83 0 0 0 87.796654
-9.3069696 -9.0781879 3.1668687 159 0 0 0 87.21447
-8.8001585 -9.2408133 3.2665157 72 0 0 0 86.632317
-6.0904913 -9.106638 3.0813775 277 0 0 0 83.88269
-5.8259411 -9.1924305 3.1942377 240 0 0 0 83.502098
-5.3154716 -9.3750458 3.2967865 153 0 0 0 82.721214
-14.71747 -8.8222466 3.1180036 130 0 0 0 90.925667
-14.123483 -8.9440737 3.0386441 94 0 0 0 90.539139
-13.759731 -8.7135792 3.3615916 153 0 0 0 90.539139
-11.906969 -8.8327589 3.425627 143 0 0 0 89.352142
-9.3084612 -8.8612404 3.2894068 190 0 0 0 87.410072
-6.1096964 -8.6689854 3.1122193 282 0 0 0 84.26722
-13.966652 -8.3719797 3.3608899 124 0 0 0 90.925667
-6.2988243 -8.2747231 3.181808 291 0 0 0 84.862053
-6.2198782 -7.9637012 3.3418946 300 0 0 0 85.057938
-15.595144 -2.3177533 3.2548385 184 0 0 0 97.14537
-15.519699 -1.918714 3.2285981 144 0 0 0 97.539589
42.310486 0.0063632764 3.4929345 7 0 0 0 49.537647
-13.635931 2.3549056 3.3289824 86.5 0 0 0 2.34849
-13.139067 3.2751408 3.2567141 170 0 0 0 3.5225899
-18.137409 3.5964293 3.3128543 260 0 0 0 2.7376699
-12.734288 3.5063756 3.0172212 127 0 0 0 3.9049101
-17.997488 4.0285096 3.3042948 219 0 0 0 3.12217
-10.895456 4.8021913 3.0130384 39 0 0 0 6.2448802
-10.048259 4.7235932 3.0850952 199 0 0 0 6.63521
-10.751242 5.7136478 3.2295625 171.5 0 0 0 7.4130101
-11.841566 7.0599718 3.1503494 179 0 0 0 8.1874104
-11.389386 7.1727953 3.0764985 166 0 0 0 8.5735102
17.956018 7.4604721 3.0593309 55 0 0 0 43.296089
-11.476645 7.6267867 3.1494427 165 0 0 0 8.9761295
-11.891231 8.3305941 3.3176033 93 0 0 0 9.3575001
-11.578894 8.5411968 3.2882948 166 0 0 0 9.7455997
-11.017493 8.9909477 3.2510569 143 0 0 0 10.53521
-4.6980019 8.675457 3.4799788 55 0 0 0 16.76292
-3.7733378 8.6666069 3.2232404 261.75 0 0 0 18.132656
-2.9710729 8.8156843 3.2873216 244 0 0 0 19.50461
16.212374 8.6936893 3.351577 114 0 0 0 41.732433
-11.72718 9.1030931 3.392545 164 0 0 0 10.13801
-0.97753429 9.3614826 3.2171967 148.5 0 0 0 23.003099
-11.081539 9.7475643 3.1929555 139.5 0 0 0 11.11203
-5.0197053 9.8545322 3.3565855 139 0 0 0 17.154819
-0.64393806 9.594594 3.2876339 161.75 0 0 0 23.593584
-0.29847065 9.9144135 3.0247679 8 0 0 0 24.172199
-13.621037 10.058199 3.4531038 72 0 0 0 9.7455997
-11.798099 10.126766 3.1740384 160 0 0 0 10.92091
-11.251698 10.141593 3.462574 95 0 0 0 11.30315
-10.854443 10.27543 3.4174302 163 0 0 0 11.69208
11.473321 10.443414 3.2113972 226 0 0 0 37.843979
11.744131 10.173041 3.216532 8 0 0 0 38.230808
-12.829609 10.747499 3.208303 121.5 0 0 0 10.72806
-10.767186 10.705437 3.4717436 160 0 0 0 12.0873
-1.893662 10.592209 3.1423154 307 0 0 0 21.84054
-12.588649 11.356581 3.0438166 123 0 0 0 11.30315
-1.7284465 11.266788 3.4679215 77 0 0 0 22.227909
-1.4332322 11.159166 3.4240553 249 0 0 0 22.61758
-16.067226 12.492043 3.1450768 165 0 0 0 10.13801
-12.912239 12.237535 3.1931138 57 0 0 0 11.69208
-3.8405895 12.474041 3.318588 159 0 0 0 19.88748
15.731992 12.317256 3.1391413 149 0 0 0 39.008598
-15.896292 12.996473 3.1732669 158 0 0 0 10.53521
-12.651752 12.593135 3.2044771 84 0 0 0 12.0873
17.274702 12.850497 3.3801959 24 0 0 0 39.399578
-12.621917 13.195652 3.2779179 123 0 0 0 12.47367
2.804364 13.237659 3.344162 188.66667 0 0 0 27.948006
-12.444927 13.666281 3.3182425 104 0 0 0 12.86225
-4.2269831 13.746204 3.3015776 11 0 0 0 19.88748
-3.8911316 13.854822 3.3044503 13 0 0 0 20.275579
3.6103196 14.616686 3.1025767 165 0 0 0 28.467501
15.788753 15.081338 3.4248202 32 0 0 0 37.451302
5.6172271 15.842229 3.4624231 95 0 0 0 30.024651
-14.697415 16.150501 3.3764231 152 0 0 0 12.86225
-14.490245 16.729389 3.4223275 135 0 0 0 13.24807
-3.4295998 16.968777 3.1235769 117 0 0 0 21.451361
12.231883 16.56148 3.2271204 86 0 0 0 34.707088
-14.258965 17.302361 3.4671969 112 0 0 0 13.64232
-0.052985281 17.232719 3.1153774 62 0 0 0 24.56035
15.962205 18.565056 3.2267735 64 0 0 0 35.878658
15.580852 19.048855 3.2423892 35 0 0 0 35.494179
11.525367 21.660187 3.2258408 122 0 0 0 32.369511
2.1284165 22.155483 3.4671104 16 0 0 0 26.12702
11.487862 22.92721 3.368964 81 0 0 0 31.97361
2.8332713 23.404751 3.0881207 96 0 0 0 26.52393
11.286468 27.363777 3.1515329 34 0 0 0 30.801291
-5.0741744 28.94779 3.1067867 34 0 0 0 21.84054
-6.4295177 32.063095 3.4521084 16 0 0 0 21.451361
2.3807008 32.955616 3.4999015 45 0 0 0 25.734529
-8.3810492 37.092525 3.0846708 11 0 0 0 21.060061
-7.4192719 37.040352 3.0657282 16 0 0 0 21.451361
-21.859476 49.217724 3.0024683 7 0 0 0 17.93469
-23.520618 49.639938 3.0604503 9 0 0 0 17.54884
-19.947718 51.60252 3.0863369 13 0 0 0 18.720169
16.632427 -43.169167 3.8037913 44 0 0 0 68.663902
15.267859 -42.725876 3.7315695 35 0 0 0 69.054253
43.389252 -16.742109 3.8277724 24 0 0 0 55.386921
21.770405 -16.155293 3.5684936 96 0 0 0 59.672207
21.932238 -15.455093 3.5324802 91 0 0 0 59.281979
13.350084 -14.747446 3.6123655 189 0 0 0 62.794048
22.110081 -14.781551 3.5022759 88 0 0 0 58.898727
32.99284 -14.632352 3.8550079 69 0 0 0 56.158539
13.4838 -14.179599 3.5539348 149 0 0 0 62.40358
13.5899 -13.606416 3.9668729 156 0 0 0 62.019711
5.0016108 -13.001353 3.9116256 14 0 0 0 68.663902
13.710878 -13.069625 3.9079792 186 0 0 0 61.624233
14.358479 -13.028499 3.5220418 114 0 0 0 61.230862
-3.677793 -12.652668 3.7017832 157.5 0 0 0 79.006134
4.9869542 -12.963306 3.5552511 61 0 0 0 68.663902
5.1920824 -12.568106 3.8192546 135 0 0 0 68.26712
-1.8416561 -12.362083 3.8197291 176 0 0 0 76.86451
-4.1841402 -11.676649 3.7910964 138 0 0 0 79.9804
-3.7428312 -11.789089 3.7808237 163.5 0 0 0 79.401535
5.2698216 -11.917583 3.8213925 112 0 0 0 67.880966
-10.592437 -11.124487 3.5489941 65 0 0 0 86.632317
-3.0597136 -11.02254 3.781394 235 0 0 0 78.808495
-2.5291016 -11.219104 3.8014941 212 0 0 0 78.033714
-2.2596927 -11.310121 3.81232 157 0 0 0 77.642128
-1.8171569 -11.228365 3.897644 149 0 0 0 77.056381
5.3907757 -11.425644 3.7065327 196.5 0 0 0 67.49765
5.7867885 -11.176441 3.6913128 147.5 0 0 0 66.904007
6.2684174 -11.300429 3.8434579 159 0 0 0 66.450768
6.762188 -11.3064 3.7015197 57 0 0 0 65.926804
-4.5020342 -10.854812 3.5929711 213 0 0 0 80.763229
-4.2427926 -10.983131 3.6000476 141 0 0 0 80.376869
-3.0041282 -10.836085 3.9930596 202 0 0 0 78.808495
-2.1772592 -10.914948 3.9526048 203 0 0 0 77.642128
-1.9082994 -10.96108 3.9511957 238 0 0 0 77.248253
-12.243205 -10.049284 3.6579602 97 0 0 0 88.56443
-9.3882313 -10.355907 3.7471905 67 0 0 0 86.23951
-8.3093119 -10.124284 3.9991426 125 0 0 0 85.453308
-7.8398685 -10.040814 3.5776269 89 0 0 0 85.057938
-6.1154971 -10.196956 3.6340659 110 0 0 0 83.104195
-2.5312684 -10.080946 3.6931245 92 0 0 0 78.417877
-10.278758 -9.7855158 3.9814234 142 0 0 0 87.410072
-8.2577658 -9.8105793 3.6011941 178 0 0 0 85.650864
-6.5431657 -9.7880964 3.5984516 155 0 0 0 83.88269
-6.2673273 -9.6251507 3.795372 160.5 0 0 0 83.692398
-13.848918 -9.2569799 3.8449595 115 0 0 0 90.140312
-12.939776 -9.1159534 3.6551597 98 0 0 0 89.746086
-11.530839 -9.0001631 3.7392144 62 0 0 0 88.967812
-11.257318 -9.2395945 3.7231057 142 0 0 0 88.56443
-10.9702 -9.463439 3.7040477 151 0 0 0 88.176147
-10.278238 -9.3154182 3.5478518 137 0 0 0 87.796654
-9.0470343 -9.2740593 3.7950826 68.5 0 0 0 86.825592
-8.672698 -9.10989 3.8413208 131 0 0 0 86.632317
-8.3812513 -9.2473679 3.8118467 176 0 0 0 86.23951
-14.265881 -8.5547228 3.8393915 90 0 0 0 90.925667
-13.955565 -8.8409824 3.8133857 48 0 0 0 90.539139
-8.9162102 -8.9143534 3.540592 142 0 0 0 87.018867
-14.994454 -8.4954844 3.5550678 71 0 0 0 91.304283
-15.322424 -7.7178197 3.9587069 22 0 0 0 92.077477
-14.898314 -7.9680891 3.8989999 123 0 0 0 91.686447
-14.071032 -7.9753366 3.7339725 135 0 0 0 91.304283
-6.3064246 -7.8121276 3.7295065 136.66667 0 0 0 85.321518
-16.426224 -2.4441695 3.8328586 154 0 0 0 97.14537
-16.006006 -1.9816509 3.7233138 132 0 0 0 97.539589
45.058128 -1.1002108 3.7178836 6 0 0 0 49.923447
35.8881 0.88731879 3.8423321 30 0 0 0 49.14378
33.950245 1.6747965 3.6405191 36 0 0 0 48.753681
33.166767 2.4542153 3.5630245 62 0 0 0 48.369202
-15.046066 2.9798074 3.8753767 131 0 0 0 2.7376699
