# .PCD v0.7 - Point Cloud Data file format
VERSION 0.7
FIELDS x y z intensity normal_x normal_y normal_z curvature
SIZE 4 4 4 4 4 4 4 4
TYPE F F F F F F F F
COUNT 1 1 1 1 1 1 1 1
WIDTH 970
HEIGHT 1
VIEWPOINT 0 0 0 1 0 0 0
POINTS 970
DATA ascii
-12.365445 29.530935 3.5388131 61 0 0 0 18.34222
-12.412104 31.829792 3.7738531 43 0 0 0 18.732269
-11.573618 31.978056 3.7561486 82 0 0 0 19.124889
-10.713092 32.037468 3.7306986 22 0 0 0 19.52269
-8.1918354 32.212719 3.6693842 57 0 0 0 20.68475
-7.3642445 32.255821 3.6520889 75 0 0 0 21.081881
-6.5463061 32.311932 3.6386058 46 0 0 0 21.46817
-5.7353182 32.377773 3.6284895 63 0 0 0 21.8547
-4.9267726 32.435146 3.6196737 75 0 0 0 22.239901
-4.1207652 32.488194 3.6125901 74 0 0 0 22.63262
-3.3179305 32.549961 3.6086543 69 0 0 0 23.025841
-2.5160789 32.612755 3.6069963 73 0 0 0 23.41098
-1.7133778 32.661785 3.6059835 75 0 0 0 23.8015
-0.91020155 32.709972 3.6070287 75 0 0 0 24.19681
-0.1058541 32.782082 3.6131055 69 0 0 0 24.59243
0.70136893 32.830471 3.6188586 48 0 0 0 24.97455
19.395517 -36.381073 4.3342633 21 0 0 0 66.78537
19.302958 -34.164047 4.1277494 26 0 0 0 66.395531
2.3569329 -32.299324 4.2087698 12 0 0 0 73.435074
2.9967813 -30.691635 4.0087624 18 0 0 0 73.038589
-12.183317 -25.749743 4.4272113 21 0 0 0 81.640068
23.661613 -24.909435 4.4741096 44 0 0 0 62.486126
-17.168596 -19.910284 4.1016083 15 0 0 0 85.945633
-18.360924 -19.2939 4.1573515 24 0 0 0 86.731483
-13.500576 -15.656059 4.2521496 16 0 0 0 85.945633
-1.4446042 -14.531224 4.4348979 263 0 0 0 76.169395
-13.129361 -14.491539 4.0248222 11 0 0 0 86.334892
-1.0829892 -14.487539 4.4120836 116 0 0 0 75.783318
0.32290366 -13.885401 4.2187252 316 0 0 0 74.214508
0.65887445 -13.792658 4.1941881 11 0 0 0 73.821373
1.3194032 -13.629698 4.4975405 243 0 0 0 73.038589
1.6419306 -13.505111 4.4684982 251 0 0 0 72.657188
1.9630306 -13.399261 4.448144 368 0 0 0 72.26358
2.279933 -13.285793 4.4278126 300 0 0 0 71.868752
2.7634797 -13.179205 4.4235783 158 0 0 0 71.286125
3.2463939 -13.071712 4.4243498 123 0 0 0 70.700394
28.363907 -13.449423 4.1174617 22 0 0 0 56.616711
-14.118553 -12.808578 4.3945417 79 0 0 0 87.893288
-13.475392 -12.841231 4.2909231 79 0 0 0 87.50927
-7.0801115 -12.501253 4.3723249 45 0 0 0 82.815361
-3.2500155 -12.941671 4.0570426 60 0 0 0 78.52005
3.7206101 -12.930809 4.4205303 128 0 0 0 70.110008
4.1928568 -12.784481 4.4201846 90 0 0 0 69.525742
4.5067577 -12.683531 4.4223714 53 0 0 0 69.138435
-5.7271028 -12.106014 4.0758877 78 0 0 0 81.640068
-18.322908 -11.613947 4.4728775 44 0 0 0 90.648201
-13.377939 -11.551672 4.0778766 65 0 0 0 88.286865
-4.4604959 -11.545894 4.0734735 46 0 0 0 80.472656
-3.6111398 -11.888479 4.3916297 54 0 0 0 79.301674
-1.7712226 -11.871467 4.2414384 101 0 0 0 76.954041
-14.358879 -11.218486 4.2047753 105 0 0 0 89.067261
-13.599406 -11.172806 4.061667 56 0 0 0 88.682991
-7.0790391 -11.183589 4.0317941 36 0 0 0 83.602493
-4.0037122 -11.180243 4.1996527 48 0 0 0 80.080109
-17.84137 -10.70461 4.2921891 4 0 0 0 91.033394
-6.2193675 -10.984513 4.466186 25 0 0 0 82.815361
-3.7142496 -10.782707 4.1744528 33 0 0 0 79.886826
-5.3040404 -10.222109 4.2160859 47.5 0 0 0 82.234207
31.282921 -10.363217 4.333138 7 0 0 0 54.667191
-18.367062 -9.8285246 4.2990565 90 0 0 0 91.804359
-17.515062 -9.932929 4.155745 82 0 0 0 91.421989
-6.7085848 -9.5340815 4.4146724 43 0 0 0 84.370941
-18.523319 -9.335 4.2816777 68 0 0 0 92.184464
-5.6640735 -9.1956844 4.0908346 29 0 0 0 83.40477
36.449417 -9.1594458 4.0194607 19 0 0 0 53.497398
-18.716028 -8.8631954 4.2755423 53 0 0 0 92.583633
11.267475 -8.8340473 4.363431 27 0 0 0 60.129398
-19.083052 -8.4701729 4.3110967 92 0 0 0 92.970322
11.134988 -8.2977104 4.234313 42 0 0 0 59.743954
11.702325 -8.2821131 4.0183406 60 0 0 0 59.353447
10.975831 -7.7722874 4.4362526 48 0 0 0 59.353447
11.272444 -7.7717891 4.1773968 52 0 0 0 59.156754
11.237033 -7.2841377 4.3081851 140.66667 0 0 0 58.70229
12.280311 -7.3961453 4.3744464 167 0 0 0 58.176121
11.975213 -6.8180938 4.2077265 171 0 0 0 57.783649
-23.987484 -6.0208626 4.4970894 52 0 0 0 95.711678
11.39446 -6.4925275 4.3313751 124 0 0 0 57.783649
11.65994 -6.2671428 4.2085323 44 0 0 0 57.398441
12.397889 -6.2728567 4.2447515 38 0 0 0 56.99968
12.656237 -6.0173063 4.2821445 47 0 0 0 56.616711
-29.749014 -5.93255 4.007246 66 0 0 0 96.486839
11.507484 -5.827745 4.2633319 29 0 0 0 56.99968
-29.889919 -5.2013378 4.0083447 16 0 0 0 96.883087
50.862488 -5.0303588 4.2318525 20 0 0 0 51.152481
17.542364 0.4216499 4.079289 31 0 0 0 49.19809
20.185934 1.4801003 4.2051811 29 0 0 0 48.42458
17.60343 3.0543704 4.1616664 36 0 0 0 46.865406
-29.36838 7.2398648 4.0818858 13 0 0 0 3.52105
11.224581 7.9442897 4.2495117 150 0 0 0 39.8246
13.252327 7.9716973 4.3896313 70 0 0 0 40.99564
13.000546 8.2637482 4.3732123 97 0 0 0 40.614201
13.31996 10.980661 4.0419607 100 0 0 0 38.658031
11.621717 11.684547 4.2686439 60 0 0 0 37.097473
12.395555 11.860283 4.4414186 58 0 0 0 37.4869
12.726848 11.589794 4.4557376 68 0 0 0 37.876919
11.756665 12.415565 4.427629 49 0 0 0 36.69912
8.9981794 12.873983 4.4640665 54 0 0 0 34.350071
9.243988 12.885118 4.111371 90.5 0 0 0 34.544518
11.504733 12.765252 4.4500318 77 0 0 0 36.306961
8.6383858 13.032914 4.444201 57 0 0 0 33.9659
10.941745 13.416041 4.0568786 29 0 0 0 35.53194
11.456892 13.360067 4.1232066 51 0 0 0 35.921249
8.9853325 13.553993 4.214983 104 0 0 0 33.9659
8.8245182 14.049767 4.2996454 96 0 0 0 33.565418
9.5337286 14.376815 4.0437722 114 0 0 0 33.9659
8.6546745 14.56229 4.3893042 134 0 0 0 33.176231
11.438169 14.746032 4.3703327 50 0 0 0 35.132633
8.1417608 16.330872 4.2760143 110 0 0 0 32.01012
9.789669 16.458935 4.4850159 43 0 0 0 33.176231
6.4599361 16.96142 4.2535791 116 0 0 0 30.449419
7.7378216 16.528559 4.2766442 126 0 0 0 31.62269
-13.694914 23.922346 4.4116368 45 0 0 0 16.391621
-13.97019 27.467846 4.1661425 40 0 0 0 17.16741
-12.383168 29.559767 4.33041 45 0 0 0 18.34222
-9.010211 32.087463 4.4996033 63 0 0 0 20.296841
-8.1911335 32.188541 4.4837346 56 0 0 0 20.68475
-7.3696313 32.256271 4.4661255 88 0 0 0 21.081881
-6.5435247 32.272057 4.4442687 79 0 0 0 21.46817
-5.731463 32.326408 4.4305129 71 0 0 0 21.8547
-4.9269462 32.402561 4.4224644 67 0 0 0 22.239901
-4.1310124 32.530567 4.4241004 7 0 0 0 22.63262
-2.5157375 32.54306 4.4025311 68 0 0 0 23.41098
-1.7153562 32.605003 4.4032216 69 0 0 0 23.8015
-0.11057853 32.752022 4.4158549 5 0 0 0 24.59243
0.69567698 32.789486 4.4215469 63 0 0 0 24.97455
1.5057515 32.847694 4.4326835 54 0 0 0 25.371519
-53.931076 -65.695023 4.8075571 12 0 0 0 85.552994
-51.189468 -65.570694 4.702127 12 0 0 0 85.16256
18.927902 -53.034424 4.5357094 15 0 0 0 69.138435
20.341839 -52.862289 4.5622773 18 0 0 0 68.740173
19.681946 -41.720978 4.8439851 21 0 0 0 67.578461
19.528425 -38.896706 4.5728731 13 0 0 0 67.181007
19.279779 -32.242676 4.8779221 19 0 0 0 66.011353
2.9820678 -30.550396 4.7496524 40 0 0 0 73.038589
5.2432671 -30.387499 4.7701616 12 0 0 0 71.868752
19.108713 -30.248964 4.6483278 32 0 0 0 65.610283
19.650547 -29.479965 4.6041908 49 0 0 0 65.221558
20.695387 -29.454603 4.6787014 52 0 0 0 64.838608
21.784256 -29.440836 4.7605948 45 0 0 0 64.443962
22.836653 -29.329029 4.8323493 36 0 0 0 64.049942
23.819365 -29.088633 4.8884773 34 0 0 0 63.66354
23.774363 -27.622961 4.7411375 24 0 0 0 63.271233
3.8529961 -26.165232 4.7505875 22 0 0 0 72.26358
23.65559 -26.159147 4.5905943 46 0 0 0 62.879082
29.176041 -21.685314 4.743876 23 0 0 0 59.743954
30.658464 -21.638145 4.8977985 31 0 0 0 59.353447
-0.50830221 -19.965141 4.5769658 26 0 0 0 74.99765
-0.47546449 -18.615549 4.7264953 19 0 0 0 74.99765
-2.5895233 -14.862867 4.5817976 28 0 0 0 77.339561
-1.4470958 -14.528068 4.7946901 105 0 0 0 76.169395
-1.0794389 -14.401546 4.7429028 176 0 0 0 75.783318
-0.71956933 -14.280033 4.695796 254 0 0 0 75.393471
-0.13404576 -14.094707 4.7445564 199.33333 0 0 0 74.739449
0.32306015 -13.911718 4.7406807 285 0 0 0 74.214508
0.65828311 -13.79103 4.703558 161.5 0 0 0 73.821373
1.3240234 -13.631653 4.8336396 281 0 0 0 73.038589
1.6458247 -13.501056 4.800343 328 0 0 0 72.657188
27.55579 -13.908674 4.811686 13 0 0 0 56.99968
1.9690714 -13.410513 4.7839293 190 0 0 0 72.26358
2.2858062 -13.294565 4.7612519 259 0 0 0 71.868752
2.7577896 -13.132977 4.737061 301 0 0 0 71.286125
-13.726406 -12.764359 4.7815161 21.5 0 0 0 87.701279
-5.2972083 -12.775108 4.5485048 27 0 0 0 80.867569
-3.1591182 -12.586118 4.9018807 46 0 0 0 78.52005
3.2248895 -12.968438 4.7172189 250 0 0 0 70.700394
3.6929193 -12.820348 4.7101736 274 0 0 0 70.110008
4.3168507 -12.625477 4.7111392 265 0 0 0 69.332092
-16.584984 -12.314681 4.7633867 33 0 0 0 89.466461
-1.8067328 -12.110203 4.6256027 25 0 0 0 76.954041
-16.459219 -11.606186 4.6458774 78 0 0 0 89.857483
-14.049361 -11.542422 4.641243 41 0 0 0 88.682991
-13.693666 -11.82427 4.6173778 45 0 0 0 88.286865
-1.483009 -11.932274 4.542737 63 0 0 0 76.571159
28.337368 -11.772236 4.7903671 20 0 0 0 55.828541
-16.736727 -11.197576 4.6462207 38 0 0 0 90.250488
-14.415505 -11.262702 4.6702423 80 0 0 0 89.067261
-3.7767744 -11.41968 4.5469537 62 0 0 0 79.693535
-7.2054539 -9.725379 4.5831499 23 0 0 0 84.762627
10.966513 -8.5984659 4.9350305 47 0 0 0 60.129398
11.296499 -8.8612776 4.7308779 55 0 0 0 60.129398
-18.681248 -8.29564 4.7217178 62 0 0 0 92.970322
11.322073 -8.4386482 4.827446 58.5 0 0 0 59.743954
10.601187 -7.5048699 4.9232492 71 0 0 0 59.353447
10.955072 -7.3565431 4.678556 65 0 0 0 58.96006
11.094559 -7.0617495 4.8248405 186.5 0 0 0 58.573406
12.204615 -7.3549724 4.7014112 133 0 0 0 58.176121
-30.648325 -6.8975163 4.9257712 40 0 0 0 96.093285
11.598471 -6.6042223 4.7352014 73 0 0 0 57.783649
-23.124985 -6.4114113 4.9546576 47 0 0 0 95.324829
10.758308 -6.4836774 4.7659316 89 0 0 0 58.176121
11.203082 -6.2008739 4.7037163 92 0 0 0 57.591045
12.652857 -6.0156546 4.9723597 66 0 0 0 56.616711
11.116154 -5.9752064 4.7906752 136 0 0 0 57.398441
11.573601 -5.8584671 4.9242244 111 0 0 0 56.99968
12.691873 -5.7829838 4.7235456 92.666664 0 0 0 56.354538
-30.511509 -5.3089056 4.8576708 59 0 0 0 96.883087
-29.998711 -4.4640594 4.7583203 7 0 0 0 97.266685
58.964973 -1.465397 4.8908625 18 0 0 0 49.986206
18.892796 2.7985487 4.9144726 16 0 0 0 47.253086
-28.172485 4.7810202 4.5569839 18 0 0 0 2.34075
13.195794 7.0742145 4.9920321 86 0 0 0 41.77951
11.102642 7.8542542 4.541285 41 0 0 0 39.8246
12.885756 8.1928577 4.7125163 88 0 0 0 40.614201
-51.615425 11.428908 4.5369663 12 0 0 0 3.1233799
11.394346 11.456843 4.7882376 93 0 0 0 37.097473
13.087585 11.338948 4.9135575 88 0 0 0 38.261879
14.224192 11.144853 4.6738172 17 0 0 0 39.0513
11.196768 11.825887 4.625308 68 0 0 0 36.69912
12.376121 11.840137 4.8614101 91 0 0 0 37.4869
12.761613 11.619655 4.8979182 73 0 0 0 37.876919
14.232265 11.727634 4.7695193 54 0 0 0 38.658031
-51.021431 12.61712 4.5136213 17 0 0 0 3.52105
8.9183578 12.763743 4.8102269 89 0 0 0 34.350071
10.371109 13.374871 4.8063965 113 0 0 0 35.132633
-50.914448 13.924017 4.5357127 7 0 0 0 3.90815
8.7143812 13.873997 4.6548862 84 0 0 0 33.565418
10.260679 13.926352 4.9117522 72 0 0 0 34.73896
11.124958 13.6376 4.5572047 52 0 0 0 35.53194
11.059463 14.258799 4.6717873 22 0 0 0 35.132633
12.182225 14.199288 4.841372 81 0 0 0 35.921249
7.8111067 16.165737 4.650321 112 0 0 0 31.816406
9.4274445 16.774872 4.9805365 56 0 0 0 32.796089
6.0152602 17.043371 4.6808577 107 0 0 0 30.05233
9.2134552 17.382967 4.6069002 104 0 0 0 32.40218
7.2941518 17.805796 4.9809055 110 0 0 0 30.841949
7.4215765 18.11627 4.5850863 71 0 0 0 30.841949
7.9080434 18.023806 4.6093297 56 0 0 0 31.231449
-13.816177 25.580122 4.6513658 51 0 0 0 16.78487
-13.939487 27.407385 4.9177389 59 0 0 0 17.16741
-15.213405 31.851162 4.7676725 90 0 0 0 17.554529
-14.274458 31.873714 4.7169595 82 0 0 0 17.95611
-12.417805 31.829004 4.6141024 54 0 0 0 18.732269
-9.8479767 32.027157 4.524107 57 0 0 0 19.91061
19.298496 -34.146393 5.0903578 19 0 0 0 66.395531
19.680885 -29.529057 5.4897375 53 0 0 0 65.221558
23.729973 -26.244761 5.4809437 31 0 0 0 62.879082
2.4946892 -25.60401 5.2548966 7 0 0 0 73.038589
3.0441759 -24.906387 5.1260104 13 0 0 0 72.657188
23.658472 -24.909491 5.3241353 31 0 0 0 62.486126
-15.467014 -24.425953 5.214354 34 0 0 0 83.602493
24.35627 -24.414827 5.345932 28 0 0 0 62.092129
25.05401 -23.910368 5.3699436 6 0 0 0 61.699711
32.199265 -21.56004 5.0587234 27 0 0 0 58.96006
33.816074 -21.458166 5.2293887 23 0 0 0 58.573406
-1.0776918 -14.441132 5.2873535 137 0 0 0 75.783318
-0.71661675 -14.313228 5.2326193 161 0 0 0 75.393471
-0.24737577 -14.176351 5.235055 185 0 0 0 74.868553
0.32528207 -13.923109 5.2558265 239 0 0 0 74.214508
0.66685814 -13.926547 5.2615056 8 0 0 0 73.821373
1.3238153 -13.633271 5.169311 204 0 0 0 73.038589
1.6498603 -13.536873 5.1466255 209 0 0 0 72.657188
-13.708499 -13.063381 5.2995324 55 0 0 0 87.50927
1.9692135 -13.41417 5.1169209 261 0 0 0 72.26358
2.28915 -13.316247 5.0995336 282 0 0 0 71.868752
2.7638872 -13.163751 5.0772038 228.5 0 0 0 71.286125
88.711433 -13.20123 5.1494403 8 0 0 0 51.937241
-13.983507 -12.686069 5.2850528 54 0 0 0 87.893288
3.2311447 -12.995323 5.0545702 243 0 0 0 70.700394
3.6991882 -12.84353 5.0456924 250.5 0 0 0 70.110008
4.3158646 -12.624453 5.0372372 264 0 0 0 69.332092
-16.523563 -12.26905 5.2510805 50 0 0 0 89.466461
-14.237332 -12.293674 5.2665567 91 0 0 0 88.286865
-19.695059 -11.821088 5.2973452 58 0 0 0 91.033394
-14.98584 -11.708213 5.3260489 22 0 0 0 89.067261
-14.324776 -11.768651 5.1920071 34 0 0 0 88.682991
30.599754 -11.837917 5.1218033 12 0 0 0 55.440872
31.047607 -11.142157 5.1517744 26 0 0 0 55.058594
-20.464766 -10.955158 5.3548169 18 0 0 0 91.804359
-16.327475 -10.923777 5.0156856 80 0 0 0 90.250488
88.313263 -10.932347 5.1159158 14 0 0 0 51.549232
-20.521341 -10.345931 5.3028321 43 0 0 0 92.184464
-20.576298 -9.7480659 5.2548685 66 0 0 0 92.583633
11.127955 -9.1753149 5.4587359 21 0 0 0 60.529953
30.811871 -9.3770151 5.0362797 12 0 0 0 54.270882
10.929925 -8.5711956 5.2596154 63 0 0 0 60.129398
12.027348 -8.5092373 5.2175245 38 0 0 0 59.353447
10.916671 -8.1365137 5.157578 9 0 0 0 59.743954
12.301712 -7.4087834 5.0902715 62 0 0 0 58.176121
13.646228 -6.9020677 5.4220548 66 0 0 0 56.99968
-32.140156 -6.4086547 5.1378446 18 0 0 0 96.486839
-22.761642 -6.3146801 5.4559636 132 0 0 0 95.324829
12.870858 -6.1202683 5.4072542 39 0 0 0 56.616711
-23.793539 -5.971848 5.0648046 106 0 0 0 95.711678
-23.037695 -5.786159 5.4868512 65 0 0 0 95.711678
12.609932 -5.6210938 5.2408719 47 0 0 0 56.22345
50.623688 -3.7580597 5.4414201 11 0 0 0 50.757999
50.710636 -2.5134802 5.4462757 27 0 0 0 50.369289
19.717104 1.9345912 5.0928445 8 0 0 0 48.030979
12.85013 8.165741 5.0772672 76 0 0 0 40.614201
14.615493 8.7901354 5.2573905 32 0 0 0 40.99564
13.581687 9.1106758 5.0445075 65 0 0 0 40.221088
12.641498 10.956554 5.1615071 104 0 0 0 38.261879
13.066454 10.771701 5.2237973 92 0 0 0 38.658031
14.445715 10.752971 5.1065049 45 0 0 0 39.434273
14.386765 11.269981 5.1821251 34 0 0 0 39.0513
12.407331 11.872367 5.2980771 97 0 0 0 37.4869
12.746915 11.608782 5.3185563 41 0 0 0 37.876919
14.181529 11.684268 5.2106466 47 0 0 0 38.658031
11.753746 12.413524 5.2752013 35 0 0 0 36.69912
11.396416 12.646839 5.253799 56 0 0 0 36.306961
11.368907 13.257556 5.3889465 56 0 0 0 35.921249
10.215029 13.868093 5.3161693 62 0 0 0 34.73896
10.77911 13.900937 5.4280524 53 0 0 0 35.132633
11.647349 13.577376 5.0770426 43 0 0 0 35.921249
12.365227 13.712903 5.2386971 36 0 0 0 36.306961
15.701192 13.594797 5.3664279 35 0 0 0 38.261879
11.649796 14.275355 5.2284799 67 0 0 0 35.53194
9.8392725 14.834273 5.4931355 51 0 0 0 33.9659
8.5782423 15.277252 5.4077349 32 0 0 0 32.796089
8.7669153 15.606187 5.0820789 89 0 0 0 32.796089
9.5090208 15.986337 5.2792416 88 0 0 0 33.176231
8.5778618 16.188717 5.2006826 48 0 0 0 32.40218
7.8703165 16.804518 5.2671132 84 0 0 0 31.62269
8.3727522 16.785799 5.3239098 96 0 0 0 32.01012
7.162293 17.484661 5.362545 86 0 0 0 30.841949
6.2207155 17.615828 5.302546 47 0 0 0 30.05233
6.7682467 17.756786 5.3930345 84 0 0 0 30.449419
7.7728157 17.716005 5.0076146 119 0 0 0 31.231449
9.3663292 17.666933 5.1742024 69 0 0 0 32.40218
6.1297579 18.812166 5.1206603 80 0 0 0 29.662041
7.3858142 19.362385 5.3614602 43 0 0 0 30.449419
10.951821 19.469814 5.2253275 34 0 0 0 32.796089
-41.605061 24.753525 5.3505101 27 0 0 0 8.1941404
-12.402969 31.791685 5.4533095 43 0 0 0 18.732269
-9.8292961 31.967541 5.3435984 56 0 0 0 19.91061
-8.9994822 32.050877 5.3185902 54 0 0 0 20.296841
-8.1818495 32.154034 5.3003235 25 0 0 0 20.68475
-6.5343289 32.229458 5.2526312 78 0 0 0 21.46817
-5.7236795 32.285904 5.2368617 52 0 0 0 21.8547
-4.9192753 32.356236 5.2265773 71 0 0 0 22.239901
-2.5121589 32.506676 5.2050943 53 0 0 0 23.41098
-1.7127812 32.571484 5.2065439 58 0 0 0 23.8015
0.69513571 32.723782 5.2235556 62 0 0 0 24.97455
1.5043384 32.79652 5.2391548 46 0 0 0 25.371519
-32.440308 33.851421 5.18116 30 0 0 0 12.48733
-31.01428 33.994152 5.0848026 20 0 0 0 12.87025
18.95343 -53.112583 5.9118862 14 0 0 0 69.138435
20.359623 -52.91502 5.9437218 13 0 0 0 68.740173
21.843145 -52.863106 5.9963617 13 0 0 0 68.3508
19.236589 -30.454807 5.5708799 20 0 0 0 65.610283
20.702387 -29.468231 5.5718331 66 0 0 0 64.838608
21.757269 -29.408127 5.6603985 34 0 0 0 64.443962
22.856846 -29.358688 5.7577453 31 0 0 0 64.049942
23.814215 -29.086109 5.8181229 31 0 0 0 63.66354
23.742687 -27.589823 5.6360774 34 0 0 0 63.271233
1.7690182 -24.283113 5.5710597 6 0 0 0 73.435074
27.867554 -24.093843 5.713141 13 0 0 0 60.914272
27.984613 -23.0196 5.6220589 34 0 0 0 60.529953
28.011497 -21.911734 5.5202889 35 0 0 0 60.129398
29.250271 -21.743885 5.6584449 32 0 0 0 59.743954
30.569141 -21.578747 5.8103199 34 0 0 0 59.353447
31.77957 -21.283018 5.940558 44 0 0 0 58.96006
-0.96818024 -19.40461 5.8896537 20 0 0 0 75.393471
-1.4617821 -14.724641 5.5832715 27 0 0 0 76.169395
-20.81081 -13.195541 5.6793265 16 0 0 0 90.648201
-18.747189 -13.219184 5.8502684 43 0 0 0 89.857483
-13.947628 -12.657958 5.7354555 63 0 0 0 87.893288
-14.837949 -12.194528 5.8498473 7 0 0 0 88.682991
-14.125788 -12.201662 5.6852407 36 0 0 0 88.286865
-18.86738 -11.963445 5.7005806 22 0 0 0 90.648201
-18.94511 -11.370984 5.6394181 58 0 0 0 91.033394
-19.321537 -10.343222 5.595695 47 0 0 0 91.804359
-30.347979 -6.8294606 5.6481247 38 0 0 0 96.093285
-22.595127 -6.2681913 5.9922848 76 0 0 0 95.324829
-30.444571 -5.2967081 5.6123343 60 0 0 0 96.883087
19.508881 1.9123522 5.5279298 16 0 0 0 48.030979
19.469387 2.3937404 5.5334349 8 0 0 0 47.645161
13.136092 7.902688 5.8664179 78 0 0 0 40.99564
14.599136 7.828496 5.9261131 54 0 0 0 41.77951
13.31096 8.0088673 5.5615768 55 0 0 0 40.99564
12.227818 8.6497192 5.7343988 90 0 0 0 39.8246
12.68728 8.9746227 5.565372 94 0 0 0 39.8246
13.380163 8.5061836 5.6759191 56 0 0 0 40.614201
14.533512 8.7359896 5.648715 62 0 0 0 40.99564
13.843762 9.2834139 5.7591181 44 0 0 0 40.221088
13.362188 10.467525 5.6572623 77 0 0 0 39.0513
12.616847 10.929858 5.5652227 102 0 0 0 38.261879
13.127439 10.816295 5.6694746 40 0 0 0 38.658031
14.274606 10.625607 5.7050128 76.5 0 0 0 39.434273
-51.6964 11.442562 5.8284769 16 0 0 0 3.1233799
11.846902 11.339629 5.8729463 57 0 0 0 37.4869
12.272104 11.176113 5.7401118 87 0 0 0 37.876919
11.796144 12.452042 5.7188015 106 0 0 0 36.69912
-50.889412 12.580231 5.7736678 10 0 0 0 3.52105
10.677977 12.773205 5.9633775 56 0 0 0 35.726593
11.536367 12.795097 5.7441554 70 0 0 0 36.306961
9.8442287 13.36944 5.947196 43 0 0 0 34.73896
10.824507 13.266309 5.7097402 71 0 0 0 35.53194
11.193686 13.048079 5.7324533 55 0 0 0 35.921249
-50.971626 13.935602 5.8227196 19 0 0 0 3.90815
9.2045107 13.881174 5.759594 52.5 0 0 0 33.9659
10.703781 13.797645 5.8227081 58 0 0 0 35.132633
11.30297 13.855895 5.5167918 64 0 0 0 35.53194
9.9838924 14.270164 5.8077149 50 0 0 0 34.350071
10.46442 14.197479 5.8807173 52 0 0 0 34.73896
9.4353561 15.009055 5.9113946 79 0 0 0 33.565418
8.3878384 15.837628 5.530549 43 0 0 0 32.40218
9.8990707 15.749449 5.7386279 57 0 0 0 33.565418
9.5196772 16.008429 5.7458119 59 0 0 0 33.176231
7.8224316 16.70854 5.692153 92 0 0 0 31.62269
7.0579381 17.238617 5.7468386 94 0 0 0 30.841949
7.565968 17.252356 5.8114786 92 0 0 0 31.231449
6.6696773 17.507593 5.7797384 71 0 0 0 30.449419
7.8304839 17.843805 5.5291867 66 0 0 0 31.231449
6.1169896 18.770578 5.6012917 93 0 0 0 29.662041
-15.184506 31.790785 5.6305299 64 0 0 0 17.554529
-14.249961 31.819304 5.5717597 105 0 0 0 17.95611
-13.334264 31.847752 5.5175633 29 0 0 0 18.34222
21.083015 -44.672012 6.3990445 12 0 0 0 67.578461
5.3982863 -31.293745 6.4778399 17 0 0 0 71.868752
23.700737 -26.215952 6.3495235 32 0 0 0 62.879082
23.606941 -24.858669 6.1616974 37 0 0 0 62.486126
24.369162 -24.431086 6.2034097 36 0 0 0 62.092129
25.258492 -24.108612 6.2782884 51 0 0 0 61.699711
-14.460802 -22.845133 6.204782 18 0 0 0 83.602493
28.026413 -21.926783 6.4046893 28 0 0 0 60.129398
28.398767 -21.115137 6.3715668 25 0 0 0 59.743954
41.343208 -20.851948 6.051878 25 0 0 0 56.99968
-19.016735 -12.722538 6.4047904 14 0 0 0 90.250488
-14.620045 -12.624105 6.3599367 26 0 0 0 88.286865
-13.973736 -12.677211 6.2118526 37 0 0 0 87.893288
-21.763077 -12.346076 6.3828444 20 0 0 0 91.421989
-18.675619 -11.841806 6.1923451 42 0 0 0 90.648201
-19.841291 -10.621254 6.3044963 27 0 0 0 91.804359
-19.751177 -9.9574957 6.1978378 12 0 0 0 92.184464
-19.839991 -9.3990488 6.1526556 49 0 0 0 92.583633
-22.15587 -6.7359843 6.4932046 19 0 0 0 94.945076
-23.684374 -5.9481497 6.2397752 22 0 0 0 95.711678
-30.418604 -5.2916412 6.3676109 23 0 0 0 96.883087
13.528128 8.5983801 6.132412 75 0 0 0 40.614201
15.520221 8.8194942 6.3829098 74 0 0 0 41.393459
13.957319 9.3604784 6.4275265 28 0 0 0 40.221088
13.034488 9.7078314 6.2186737 44 0 0 0 39.434273
13.092493 10.793736 6.0737276 79 0 0 0 38.658031
14.330397 10.670296 6.3916917 36 0 0 0 39.434273
11.986981 11.471437 6.3496933 48 0 0 0 37.4869
12.332395 11.232312 6.3832183 58 0 0 0 37.876919
12.724871 11.029198 6.0284591 60 0 0 0 38.261879
10.622766 12.391962 6.2484579 66 0 0 0 35.921249
15.498422 12.139746 6.0649018 52 0 0 0 39.0513
10.536175 12.920954 6.381814 57 0 0 0 35.53194
11.457019 12.714837 6.1283422 30 0 0 0 36.306961
10.752225 13.867928 6.2829862 60 0 0 0 35.132633
9.9595776 14.24441 6.2240572 47 0 0 0 34.350071
9.3316307 15.270008 6.407794 72.5 0 0 0 33.370827
8.9728289 15.96575 6.1055441 29 0 0 0 32.796089
9.2757502 15.593036 6.0488443 62 0 0 0 33.176231
8.5157824 16.068361 6.0628967 48 0 0 0 32.40218
7.4494863 16.978947 6.1807289 65 0 0 0 31.231449
7.7616606 16.570215 6.1001701 95 0 0 0 31.62269
8.3826303 16.801044 6.2585082 41 0 0 0 32.01012
6.6297879 17.392492 6.2044501 77 0 0 0 30.449419
8.9203081 17.879751 6.1615429 27 0 0 0 32.01012
6.4693689 18.30632 6.4702106 33 0 0 0 30.05233
6.552278 18.551216 6.0675383 41 0 0 0 30.05233
-13.887124 25.712732 6.117496 33 0 0 0 16.78487
-13.863608 27.257803 6.4004784 24 0 0 0 17.16741
-35.388191 31.8517 6.4329119 26 0 0 0 11.31536
-13.347027 31.879255 6.3786988 37 0 0 0 18.34222
-12.389226 31.757189 6.2914758 44 0 0 0 18.732269
-11.525345 31.829742 6.2476377 55 0 0 0 19.124889
-9.8191185 31.935825 6.1657343 44 0 0 0 19.91061
-8.9873219 32.009136 6.1350842 38 0 0 0 20.296841
-8.1602268 32.070507 6.1062341 57 0 0 0 20.68475
-7.345674 32.155773 6.0858645 56 0 0 0 21.081881
-6.5171933 32.14716 6.0517716 49 0 0 0 21.46817
-5.712831 32.227837 6.0382638 55 0 0 0 21.8547
-4.910583 32.303059 6.0274587 63 0 0 0 22.239901
-4.1086326 32.363251 6.0175486 52 0 0 0 22.63262
-3.3073266 32.41045 6.0088978 62 0 0 0 23.025841
-2.5075526 32.456505 6.0036731 41 0 0 0 23.41098
-34.617886 32.732033 6.4366364 24 0 0 0 11.70423
-1.7090243 32.514297 6.0042167 65 0 0 0 23.8015
-0.90973419 32.577053 6.0092659 53 0 0 0 24.19681
-0.10852224 32.624977 6.0154686 63 0 0 0 24.59243
0.69515365 32.681763 6.0270143 46 0 0 0 24.97455
-32.294212 33.685505 6.3039484 17 0 0 0 12.48733
-30.923203 33.881039 6.1964445 19 0 0 0 12.87025
-54.084721 -65.905716 6.9447508 13 0 0 0 85.552994
-50.779652 -65.069176 6.7206616 12 0 0 0 85.16256
23.922718 -30.729729 6.9887295 35 0 0 0 64.049942
23.91877 -29.217407 6.7786045 33 0 0 0 63.66354
23.821411 -27.68479 6.559144 25 0 0 0 63.271233
26.890118 -24.431692 6.5327539 36 0 0 0 61.301918
27.942734 -24.162306 6.6434541 28 0 0 0 60.914272
28.034378 -23.063953 6.5312166 23 0 0 0 60.529953
-19.319218 -13.622419 6.6150169 39 0 0 0 89.857483
-18.756355 -13.926633 6.536552 47 0 0 0 89.466461
-20.153446 -12.095963 6.5809665 17 0 0 0 91.033394
-20.735062 -11.762918 6.6752205 38 0 0 0 91.421989
-18.40086 -11.048601 6.5400524 43 0 0 0 91.033394
-18.748114 -10.64024 6.5695515 42 0 0 0 91.421989
-17.99395 -10.799988 6.9147415 52 0 0 0 91.033394
-19.061075 -10.207878 6.5903115 46 0 0 0 91.804359
-18.703453 -10.012104 6.9916391 32 0 0 0 91.804359
-18.210669 -10.331008 6.8995967 53 0 0 0 91.421989
-20.442959 -9.6888142 6.8956814 66 0 0 0 92.583633
-19.375202 -9.7721167 6.6148186 42 0 0 0 92.184464
-31.474005 -7.0822639 6.6505094 20 0 0 0 96.093285
-22.961763 -6.3695297 6.6812372 18 0 0 0 95.324829
-23.207796 -5.2260132 6.671361 16 0 0 0 96.093285
15.441678 8.7733936 6.7877102 29 0 0 0 41.393459
13.205262 10.884687 6.5464153 84 0 0 0 38.658031
13.633055 10.683249 6.6246057 36 0 0 0 39.0513
14.327663 11.226876 6.5114775 26 0 0 0 39.0513
12.281845 12.344938 6.6623735 25 0 0 0 37.097473
10.174038 13.812588 6.5657668 54 0 0 0 34.73896
10.619076 13.695505 6.6320477 59 0 0 0 35.132633
9.6703005 14.200438 6.5761166 45.5 0 0 0 34.157986
9.0736027 15.263964 6.7950358 75 0 0 0 33.176231
9.6851082 15.411492 6.9641147 80 0 0 0 33.565418
7.3463135 16.759607 6.5507979 58 0 0 0 31.231449
8.0994644 17.29814 6.8359675 43 0 0 0 31.62269
8.730154 17.504667 6.999764 49 0 0 0 32.01012
7.4954782 18.284796 6.5848188 82 0 0 0 30.841949
7.0533185 23.54044 6.9631743 14 0 0 0 29.26438
-41.5718 24.721298 6.534019 23 0 0 0 8.1941404
7.6700692 25.581234 6.8988733 40 0 0 0 29.26438
-20.991352 31.160196 6.9352994 25 0 0 0 15.22713
-19.921148 31.196375 6.8325529 28 0 0 0 15.61717
-18.91573 31.288406 6.7489882 24 0 0 0 16.0021
-9.8105888 31.909506 6.9826002 41 0 0 0 19.91061
-8.9754124 31.968275 6.9448433 37 0 0 0 20.296841
-8.1508961 32.035782 6.9136081 45 0 0 0 20.68475
-7.3320999 32.098423 6.8858294 52 0 0 0 21.081881
-6.5187955 32.158501 6.8619285 65 0 0 0 21.46817
-5.709794 32.214485 6.8414893 61 0 0 0 21.8547
-4.9041171 32.264736 6.8241034 44 0 0 0 22.239901
-4.1052761 32.342525 6.8166986 56 0 0 0 22.63262
-3.3021393 32.366486 6.8021555 61 0 0 0 23.025841
-2.5048032 32.43111 6.8002448 61 0 0 0 23.41098
-1.7067143 32.485901 6.8003645 63 0 0 0 23.8015
-0.90795726 32.543587 6.8051639 49 0 0 0 24.19681
-0.10754088 32.606979 6.8155122 53 0 0 0 24.59243
0.6954478 32.651711 6.8261743 63 0 0 0 24.97455
1.5015019 32.694263 6.8405099 71 0 0 0 25.371519
-26.876404 34.188965 6.9493542 15 0 0 0 14.04789
18.987436 -53.185291 7.3086996 16 0 0 0 69.138435
20.408957 -53.022175 7.3528919 14 0 0 0 68.740173
21.885803 -52.946632 7.4147639 16 0 0 0 68.3508
23.716354 -41.956524 7.4391623 14 0 0 0 66.395531
3.134804 -32.074009 7.362824 6 0 0 0 73.038589
23.998568 -32.437172 7.2383966 28 0 0 0 64.443962
4.5081711 -30.566296 7.0595937 6 0 0 0 72.26358
23.839794 -27.709728 7.4640517 29 0 0 0 63.271233
23.729891 -26.251612 7.2284684 37 0 0 0 62.879082
23.695625 -24.955261 7.0319128 36 0 0 0 62.486126
24.446934 -24.512289 7.0754066 35 0 0 0 62.092129
25.62196 -24.458439 7.2401342 23 0 0 0 61.699711
26.915388 -24.458105 7.4342794 31 0 0 0 61.301918
27.976089 -23.019512 7.4097857 29 0 0 0 60.529953
-12.128028 -22.69335 7.1730928 18 0 0 0 82.425995
28.079224 -21.97143 7.2946005 23 0 0 0 60.129398
32.40073 -21.702183 7.0219531 29 0 0 0 58.96006
28.45961 -21.163673 7.258461 22 0 0 0 59.743954
-25.422001 -12.04278 7.1752944 8 0 0 0 92.583633
-19.595797 -12.429855 7.0673094 17 0 0 0 90.648201
-25.28569 -11.227072 7.0585189 21 0 0 0 92.970322
-19.955074 -10.059983 7.3642359 34 0 0 0 92.184464
-18.547352 -9.9367828 7.4508882 56 0 0 0 91.804359
-22.795174 -7.5504088 7.322063 15 0 0 0 94.551712
-29.986914 -6.7527809 7.0908837 8 0 0 0 96.093285
-22.48954 -6.8413792 7.1692615 8 0 0 0 94.945076
-23.016804 -5.7841496 7.2390537 10 0 0 0 95.711678
7.988049 17.060028 7.2058039 63 0 0 0 31.62269
9.2209368 17.40037 7.0465784 61 0 0 0 32.40218
7.6909094 17.535746 7.3238754 62 0 0 0 31.231449
9.8640985 17.551428 7.2032914 27 0 0 0 32.796089
7.5241995 18.369818 7.1029325 52 0 0 0 30.841949
7.2157149 18.929802 7.2478213 53 0 0 0 30.449419
7.5041833 22.986055 7.448338 28 0 0 0 29.662041
7.1586785 26.198765 7.0153742 38 0 0 0 28.87796
-13.937019 27.391535 7.1847925 28 0 0 0 17.16741
-35.322529 30.252701 7.4350133 40 0 0 0 10.92339
-23.079151 30.87566 7.1157751 23 0 0 0 14.44529
-34.555981 31.098902 7.4319229 30 0 0 0 11.31536
-22.038082 31.04262 7.0273552 32 0 0 0 14.83825
-33.802124 31.956984 7.4359837 27 0 0 0 11.70423
-15.0513 31.511181 7.3054032 46 0 0 0 17.554529
-14.140012 31.573486 7.2370429 40 0 0 0 17.95611
-13.255121 31.659037 7.1797204 47 0 0 0 18.34222
-12.375282 31.722168 7.1227961 39 0 0 0 18.732269
-11.50995 31.788074 7.0717831 28 0 0 0 19.124889
-10.655316 31.850286 7.0250459 57 0 0 0 19.52269
-30.887175 33.840359 7.3227606 21 0 0 0 12.87025
-28.102194 33.99736 7.0490079 24 0 0 0 13.65609
3.8590136 53.991241 7.2747641 18 0 0 0 25.758341
5.1985512 54.01936 7.2927861 15 0 0 0 26.149481
23.469881 -37.15078 7.8756495 25 0 0 0 65.610283
23.454687 -35.186653 7.5814524 13 0 0 0 65.221558
24.013861 -30.850569 7.9775939 35 0 0 0 64.049942
23.910007 -29.210468 7.7054052 34 0 0 0 63.66354
23.723557 -24.97924 7.882637 21 0 0 0 62.486126
24.457441 -24.517588 7.925427 44 0 0 0 62.092129
27.941996 -24.165192 7.5528579 16 0 0 0 60.914272
32.40276 -21.707228 7.9828148 30 0 0 0 58.96006
-19.317505 -13.621112 7.7805619 16 0 0 0 89.857483
-18.55784 -13.779185 7.607985 34 0 0 0 89.466461
-19.229685 -12.864852 7.6176095 39 0 0 0 90.250488
-19.423222 -12.315588 7.5736394 46 0 0 0 90.648201
-25.891548 -11.495777 7.9308505 21 0 0 0 92.970322
-22.181463 -6.7431822 7.645041 15 0 0 0 94.945076
-22.443998 -6.2253404 7.6810813 9 0 0 0 95.324829
8.7931461 17.627665 7.5334687 37 0 0 0 32.01012
9.3111267 17.56702 7.6030483 54 0 0 0 32.40218
10.001346 17.791653 7.8037572 23 0 0 0 32.796089
7.2518797 18.345888 7.5445452 42 0 0 0 30.645683
7.1977348 22.040302 7.7190356 66 0 0 0 29.662041
-41.324589 23.21697 7.5754533 15 0 0 0 7.80023
-40.582153 24.12874 7.5463552 21 0 0 0 8.1941404
-39.823261 25.020229 7.5177608 46 0 0 0 8.5879002
-22.010275 31.002937 7.9540958 28 0 0 0 14.83825
-20.936872 31.078718 7.8394527 30 0 0 0 15.22713
-19.901009 31.164553 7.7356224 41 0 0 0 15.61717
-18.893377 31.251226 7.6397567 32 0 0 0 16.0021
-17.894075 31.308319 7.5440784 43 0 0 0 16.391621
-12.36439 31.678591 7.9464869 46 0 0 0 18.732269
-11.4985 31.73996 7.8884959 45 0 0 0 19.124889
-10.645337 31.803026 7.8366218 28 0 0 0 19.52269
-9.80371 31.868628 7.7908797 43 0 0 0 19.91061
-8.9712849 31.933792 7.7503514 42 0 0 0 20.296841
-8.1484556 32.004803 7.7163944 43 0 0 0 20.68475
-7.3307242 32.069027 7.6858292 48 0 0 0 21.081881
-6.515141 32.114395 7.6557212 48 0 0 0 21.46817
-5.7060843 32.164093 7.6315036 55 0 0 0 21.8547
-4.9002161 32.205063 7.610003 61 0 0 0 22.239901
-4.1027021 32.281998 7.6016426 62 0 0 0 22.63262
-3.304225 32.338261 7.5930495 35 0 0 0 23.025841
-2.5072553 32.399105 7.5901194 39 0 0 0 23.41098
-1.7100122 32.455906 7.5908079 55 0 0 0 23.8015
-0.91178131 32.506756 7.5946622 63 0 0 0 24.19681
-0.11223353 32.565125 7.6051116 45 0 0 0 24.59243
0.68943125 32.596088 7.6138597 36 0 0 0 24.97455
1.4947888 32.652073 7.6330352 36 0 0 0 25.371519
23.617771 -39.495754 8.2447348 11 0 0 0 66.011353
23.624123 -33.629097 8.3815355 31 0 0 0 64.838608
24.063108 -32.528374 8.2537603 19 0 0 0 64.443962
23.866789 -27.734861 8.3671017 24 0 0 0 63.271233
23.755383 -26.27401 8.1023378 16 0 0 0 62.879082
25.662138 -24.491579 8.1191206 30 0 0 0 61.699711
26.766544 -24.317963 8.278059 31 0 0 0 61.301918
27.98237 -24.195044 8.468708 26 0 0 0 60.914272
28.004021 -23.037706 8.3043747 23 0 0 0 60.529953
28.118994 -21.997969 8.178462 20 0 0 0 60.129398
28.571152 -21.242117 8.1579914 30 0 0 0 59.743954
29.882895 -21.097549 8.3830824 29 0 0 0 59.353447
-19.600824 -12.437687 8.2135544 30 0 0 0 90.648201
-20.328621 -11.541457 8.2730923 23 0 0 0 91.421989
-19.703693 -11.835169 8.1339502 36 0 0 0 91.033394
-50.027321 7.248817 8.0472536 33 0 0 0 1.95876
-51.246784 10.013117 8.3187752 16 0 0 0 2.73035
-51.57246 11.396885 8.4175301 17 0 0 0 3.1233799
-50.684376 12.511628 8.3233395 17 0 0 0 3.52105
7.9218345 22.391283 8.4906473 37 0 0 0 30.05233
-23.067217 30.859188 8.0601215 26 0 0 0 14.44529
-17.858839 31.233746 8.4080124 25 0 0 0 16.391621
-16.89916 31.314507 8.3155537 33 0 0 0 16.78487
-15.027203 31.44673 8.1447153 31 0 0 0 17.554529
-14.128789 31.534071 8.0749254 32 0 0 0 17.95611
-13.24458 31.6189 8.0108252 31 0 0 0 18.34222
-30.815584 33.76059 8.4371967 12 0 0 0 12.87025
-29.437103 33.8834 8.2845936 17 0 0 0 13.25767
-28.095215 33.988106 8.1387758 22 0 0 0 13.65609
-26.80385 34.095699 8.0041676 18 0 0 0 14.04789
18.997141 -53.219311 8.711297 15 0 0 0 69.138435
20.442436 -53.115761 8.7737923 15 0 0 0 68.740173
21.919706 -53.03516 8.8467884 12 0 0 0 68.3508
23.403221 -52.909214 8.9191875 10 0 0 0 67.96653
24.886871 -52.727806 8.9892788 8 0 0 0 67.578461
25.99515 -48.733379 8.5190849 13 0 0 0 66.78537
23.508968 -37.217106 8.9722576 26 0 0 0 65.610283
23.407602 -35.120426 8.6052437 25 0 0 0 65.221558
24.004503 -30.831375 8.9296713 14 0 0 0 64.049942
23.93644 -29.236053 8.6376333 24 0 0 0 63.66354
23.774534 -26.298624 8.9798918 17 0 0 0 62.879082
23.726301 -24.985466 8.7301512 32 0 0 0 62.486126
24.536304 -24.59988 8.8045626 28 0 0 0 62.092129
31.727747 -21.251175 8.752039 27 0 0 0 58.96006
-26.350698 -11.704863 8.7809286 12 0 0 0 92.970322
-19.802698 -11.242839 8.6180134 25 0 0 0 91.421989
-41.272053 23.184729 8.7369394 23 0 0 0 7.80023
-40.540295 24.101255 8.7053947 21 0 0 0 8.1941404
-39.786804 24.994858 8.6733627 23 0 0 0 8.5879002
-39.022968 25.872021 8.6432495 26 0 0 0 8.9712
-38.245701 26.730812 8.6142263 19 0 0 0 9.3670502
-37.501293 27.605042 8.5969143 21 0 0 0 9.7519398
-36.749439 28.468567 8.5823603 35 0 0 0 10.14302
-36.002911 29.332417 8.5736532 24 0 0 0 10.53894
-35.251797 30.190245 8.5686941 24 0 0 0 10.92339
-34.502861 31.049358 8.569211 24 0 0 0 11.31536
-18.843668 31.156258 8.5090857 35 0 0 0 16.0021
-33.763638 31.919012 8.5774279 36 0 0 0 11.70423
-33.32299 33.09034 8.6688929 18 0 0 0 12.08827
-32.074287 33.452946 8.5547657 5 0 0 0 12.48733
3.8548534 53.909393 8.602891 26 0 0 0 25.758341
5.1922116 53.935188 8.6240349 21 0 0 0 26.149481
6.5059328 53.705235 8.6096268 26 0 0 0 26.544979
23.661886 -33.674461 9.4006901 33 0 0 0 64.838608
24.060205 -32.516659 9.2414598 12 0 0 0 64.443962
23.891855 -27.767555 9.2758532 24 0 0 0 63.271233
27.246384 -24.756821 9.330287 9 0 0 0 61.301918
28.065641 -24.270483 9.40555 17 0 0 0 60.914272
28.10046 -23.12039 9.2270546 23 0 0 0 60.529953
28.150324 -22.025833 9.0659094 30 0 0 0 60.129398
29.223925 -21.730209 9.2383718 13 0 0 0 59.743954
-32.037846 -16.150045 9.1410589 20 0 0 0 92.184464
-20.52273 -12.326915 9.057478 5 0 0 0 91.033394
-27.352222 -11.354383 9.0193043 18 0 0 0 93.360001
-26.088961 -10.824546 9.3027992 21 0 0 0 93.360001
-26.611284 -9.5393267 9.3128176 9 0 0 0 94.156273
-49.988941 7.2387142 9.2902241 33 0 0 0 1.95876
-50.064426 8.5081167 9.343586 25 0 0 0 2.34075
25.977026 -48.705349 9.8800611 22 0 0 0 66.78537
24.098146 -30.955412 9.9281397 27 0 0 0 64.049942
24.084358 -29.420237 9.6248713 12 0 0 0 63.66354
23.841139 -26.375704 9.8888388 14 0 0 0 62.879082
23.769747 -25.034542 9.6043282 28 0 0 0 62.486126
24.529907 -24.596867 9.6659536 25 0 0 0 62.092129
28.174101 -22.047844 9.96313 12 0 0 0 60.129398
31.027802 -21.908348 9.6360779 8 0 0 0 59.353447
41.484955 -20.9366 9.5189228 28 0 0 0 56.99968
-26.487518 -11.759863 9.5429821 13 0 0 0 92.970322
-27.213654 -10.515861 9.608943 15 0 0 0 93.76236
-51.206856 10.000846 9.6027651 18 0 0 0 2.73035
-51.500565 11.376574 9.710391 25 0 0 0 3.1233799
-50.516994 12.465997 9.5829153 16 0 0 0 3.52105
-41.264122 23.177635 9.899313 18 0 0 0 7.80023
-40.496162 24.072441 9.8546724 34 0 0 0 8.1941404
-39.770515 24.982199 9.825038 17 0 0 0 8.5879002
-36.691143 28.421349 9.7105083 4 0 0 0 10.14302
-35.222733 30.16358 9.7025509 35 0 0 0 10.92339
-34.495441 31.04108 9.7091389 39 0 0 0 11.31536
-33.73489 31.890293 9.7123632 28 0 0 0 11.70423
-33.354977 33.120842 9.8338785 16 0 0 0 12.08827
19.036427 -53.336102 10.131593 9 0 0 0 69.138435
20.453451 -53.151077 10.18876 10 0 0 0 68.740173
21.957106 -53.13216 10.285422 5 0 0 0 68.3508
23.440132 -52.999092 10.368207 7 0 0 0 67.96653
24.975986 -52.922867 10.470424 7 0 0 0 67.578461
24.05109 -38.064156 10.278243 7 0 0 0 65.610283
24.199343 -32.708538 10.29424 20 0 0 0 64.443962
23.894596 -27.774382 10.187765 20 0 0 0 63.271233
23.778362 -25.03821 10.455971 23 0 0 0 62.486126
26.932659 -24.475672 10.128222 37 0 0 0 61.301918
28.039042 -24.251085 10.318439 13 0 0 0 60.914272
28.009739 -23.049334 10.099375 15 0 0 0 60.529953
46.051788 -20.468132 10.327279 7 0 0 0 56.22345
-26.314049 -10.928431 10.08313 13 0 0 0 93.360001
-26.675558 -10.318424 10.122561 25 0 0 0 93.76236
-27.004318 -9.6905079 10.154943 21 0 0 0 94.156273
-33.648201 35.098354 10.170872 10 0 0 0 12.48733
-33.675282 36.902527 10.449314 21 0 0 0 12.87025
24.03093 -30.873146 10.873166 12 0 0 0 64.049942
23.994167 -29.31402 10.530743 17 0 0 0 63.66354
23.860046 -26.390823 10.770446 14 0 0 0 62.879082
24.612663 -24.67449 10.554589 18 0 0 0 62.092129
25.872965 -24.694227 10.832436 22 0 0 0 61.699711
41.546467 -20.962893 10.672306 22 0 0 0 56.99968
-26.731201 -9.5922356 10.748913 6 0 0 0 94.156273
-50.596848 6.0594916 10.622042 7 0 0 0 1.55769
-49.938316 7.2268667 10.521423 32 0 0 0 1.95876
-50.027245 8.4973679 10.584317 21 0 0 0 2.34075
-51.348942 10.024222 10.915891 18 0 0 0 2.73035
-51.392757 11.348351 10.98434 18 0 0 0 3.1233799
-50.488075 12.454654 10.856221 18 0 0 0 3.52105
-40.433666 24.023151 10.989463 26 0 0 0 8.1941404
-39.707314 24.930353 10.955815 16 0 0 0 8.5879002
-35.190281 30.123373 10.826137 31 0 0 0 10.92339
-34.458736 30.995495 10.831933 10 0 0 0 11.31536
-33.692116 31.837139 10.83332 22 0 0 0 11.70423
-33.357635 33.110569 10.983721 16 0 0 0 12.08827
26.039082 -48.827469 11.265666 13 0 0 0 66.78537
27.337736 -48.36692 11.311752 7 0 0 0 66.395531
24.168919 -42.754272 11.205391 13 0 0 0 66.395531
24.213501 -38.325531 11.461042 12 0 0 0 65.610283
24.454702 -36.684521 11.14858 9 0 0 0 65.221558
24.093861 -32.570282 11.256695 22 0 0 0 64.443962
24.016329 -29.334389 11.471293 23 0 0 0 63.66354
23.844275 -27.709801 11.064125 18 0 0 0 63.271233
23.848312 -25.123917 11.346247 23 0 0 0 62.486126
24.666861 -24.740763 11.444657 19 0 0 0 62.092129
27.099005 -24.621511 11.090184 13 0 0 0 61.301918
28.022938 -24.232168 11.22297 8 0 0 0 60.914272
28.130974 -23.144199 11.038219 16 0 0 0 60.529953
50.302776 -20.892212 11.162825 16 0 0 0 55.828541
-26.990292 -11.208946 11.057928 11 0 0 0 93.360001
-27.197094 -10.519819 11.034786 17 0 0 0 93.76236
-41.226715 23.144489 11.046402 27 0 0 0 7.80023
19.072594 -53.444157 11.547598 6 0 0 0 69.138435
20.484949 -53.239521 11.608563 11 0 0 0 68.740173
21.990845 -53.220306 11.718624 5 0 0 0 68.3508
23.487774 -53.11319 11.818708 10 0 0 0 67.96653
23.702414 -39.635815 11.673665 12 0 0 0 66.011353
23.524963 -35.295971 11.780895 14 0 0 0 65.221558
24.124842 -34.340977 11.657961 12 0 0 0 64.838608
24.084261 -30.934372 11.859667 17 0 0 0 64.049942
23.896643 -26.444014 11.671474 14 0 0 0 62.879082
25.871599 -24.705013 11.719472 18 0 0 0 61.699711
28.166147 -23.184828 11.956972 15 0 0 0 60.529953
45.555519 -21.597326 11.562508 6 0 0 0 56.616711
41.580551 -20.984468 11.825799 21 0 0 0 56.99968
46.691551 -20.747244 11.721223 10 0 0 0 56.22345
-56.210892 -11.204625 11.79004 15 0 0 0 96.486839
-50.586365 6.0446625 11.865902 7 0 0 0 1.55769
-49.928699 7.2121158 11.753206 20 0 0 0 1.95876
-50.02317 8.4833145 11.824381 22 0 0 0 2.34075
-49.522285 13.499743 11.975104 19 0 0 0 3.90815
-37.363182 27.48694 11.979826 24 0 0 0 9.7519398
-36.633362 28.362398 11.965846 26 0 0 0 10.14302
-35.880062 29.216206 11.950734 21 0 0 0 10.53894
-35.129719 30.069689 11.943313 32 0 0 0 10.92339
-34.38855 30.930599 11.945993 18 0 0 0 11.31536
-33.646637 31.792576 11.95583 26 0 0 0 11.70423
-32.891323 32.644974 11.968582 17 0 0 0 12.08827
-32.122383 33.4879 11.984162 12 0 0 0 12.48733
4.0102515 -40.936359 12.429818 8 0 0 0 73.038589
23.741693 -33.78796 12.487038 25 0 0 0 64.838608
24.085176 -32.550777 12.246597 13 0 0 0 64.443962
23.833473 -29.125471 12.318522 8 0 0 0 63.66354
23.966759 -27.865406 12.033001 17 0 0 0 63.271233
23.87656 -25.139427 12.206386 20 0 0 0 62.486126
24.657911 -24.71792 12.293434 16 0 0 0 62.092129
27.17281 -24.70067 12.031352 16 0 0 0 61.301918
25.546232 -24.381111 12.435559 27 0 0 0 61.699711
28.114914 -24.323738 12.181966 17 0 0 0 60.914272
-31.282 -9.5196505 12.373082 6 0 0 0 94.945076
-51.619839 4.8875608 12.07267 6 0 0 0 1.16769
-51.420387 10.024478 12.212465 13 0 0 0 2.73035
-51.350307 11.325243 12.261465 18 0 0 0 3.1233799
-50.43502 12.428047 12.115302 10 0 0 0 3.52105
-41.887768 22.178551 12.237105 23 0 0 0 7.40874
-41.161079 23.104925 12.187872 19 0 0 0 7.80023
-40.385117 23.991734 12.12975 18 0 0 0 8.1941404
-39.634777 24.882307 12.084996 19 0 0 0 8.5879002
-38.870781 25.754297 12.041917 15 0 0 0 8.9712
-38.103767 26.614998 12.003657 28 0 0 0 9.3670502
-31.362492 34.346375 12.011456 18 0 0 0 12.87025
-30.914474 35.574165 12.170505 14 0 0 0 13.25767
23.501633 -35.252026 12.808896 13 0 0 0 65.221558
24.111752 -30.984741 12.847865 16 0 0 0 64.049942
24.064014 -27.962217 12.982111 19 0 0 0 63.271233
23.907751 -26.441221 12.547233 11 0 0 0 62.879082
27.1203 -24.639229 12.903737 9 0 0 0 61.301918
28.130844 -23.142805 12.83276 9 0 0 0 60.529953
-49.900681 7.2035723 12.984147 25 0 0 0 1.95876
-31.105833 37.626949 12.605586 11 0 0 0 13.65609
19.828979 -71.831863 13.320533 10 0 0 0 70.302628
24.179976 -32.694771 13.304298 22 0 0 0 64.443962
24.132051 -29.472635 13.401754 17 0 0 0 63.66354
23.975704 -26.519751 13.459566 20 0 0 0 62.879082
23.968441 -25.239397 13.10685 12 0 0 0 62.486126
24.691254 -24.75466 13.167533 16 0 0 0 62.092129
54.148552 -20.939121 13.321896 6 0 0 0 55.440872
-56.232903 -11.218265 13.19937 14 0 0 0 96.486839
-50.294857 6.0051227 13.040804 9 0 0 0 1.55769
-50.039471 8.481678 13.074056 14 0 0 0 2.34075
-50.409664 12.417608 13.38379 15 0 0 0 3.52105
-41.080563 23.056965 13.334688 13 0 0 0 7.80023
-40.3582 23.973167 13.288206 11 0 0 0 8.1941404
-39.61813 24.869417 13.242414 9 0 0 0 8.5879002
-38.857658 25.743284 13.196276 16 0 0 0 8.9712
-38.086082 26.600437 13.152681 17 0 0 0 9.3670502
-37.315289 27.449553 13.115829 15 0 0 0 9.7519398
-34.313416 30.861225 13.06713 29 0 0 0 11.31536
-33.58136 31.729239 13.081176 17 0 0 0 11.70423
-32.83551 32.588058 13.098406 33 0 0 0 12.08827
-32.079617 33.441952 13.120368 14 0 0 0 12.48733
-31.322287 34.301098 13.151011 24 0 0 0 12.87025
23.781483 -33.861286 13.53542 13 0 0 0 64.838608
24.127254 -30.986269 13.814095 17 0 0 0 64.049942
23.977602 -27.865555 13.837239 14 0 0 0 63.271233
27.326813 -24.830112 13.907266 11 0 0 0 61.301918
50.399731 -20.932453 13.861955 21 0 0 0 55.828541
-51.533894 10.042212 13.528341 12 0 0 0 2.73035
-51.322208 11.314692 13.544992 16 0 0 0 3.1233799
24.316608 -32.859409 14.37606 15 0 0 0 64.443962
24.06879 -29.399242 14.298554 6 0 0 0 63.66354
28.185257 -24.374414 14.03721 12 0 0 0 60.914272
-50.143616 5.9823585 14.255979 11 0 0 0 1.55769
-49.857101 7.1927295 14.224102 16 0 0 0 1.95876
-50.03196 8.4759426 14.33268 15 0 0 0 2.34075
-49.369083 13.44982 14.465623 10 0 0 0 3.90815
-48.559666 14.517953 14.331625 10 0 0 0 4.2926598
-47.738705 15.558788 14.199996 17 0 0 0 4.6789398
-41.032082 23.017651 14.475282 20 0 0 0 7.80023
-40.278709 23.913818 14.413295 23 0 0 0 8.1941404
-38.018238 26.540897 14.268679 21 0 0 0 9.3670502
-37.272614 27.406012 14.237713 22 0 0 0 9.7519398
-34.305557 30.841724 14.197603 25 0 0 0 11.31536
-33.549389 31.686392 14.202535 27 0 0 0 11.70423
-32.804924 32.544899 14.221498 19 0 0 0 12.08827
-32.057606 33.406029 14.248816 16 0 0 0 12.48733
-31.29418 34.257107 14.279046 14 0 0 0 12.87025
24.098709 -30.953575 14.75985 12 0 0 0 64.049942
32.810078 -21.981009 14.887679 22 0 0 0 58.96006
54.669106 -21.145798 14.890315 25 0 0 0 55.440872
67.75206 -20.613371 14.523894 7 0 0 0 54.270882
-51.415276 4.8584404 14.57535 8 0 0 0 1.16769
-51.391037 10.009821 14.791615 7 0 0 0 2.73035
-51.273731 11.299593 14.836685 21 0 0 0 3.1233799
-50.316746 12.390448 14.646614 9 0 0 0 3.52105
-41.758858 22.095287 14.534774 16 0 0 0 7.40874
24.012209 -40.167881 15.298931 12 0 0 0 66.011353
24.403095 -36.597595 15.463251 12 0 0 0 65.221558
24.278601 -32.812222 15.354662 8 0 0 0 64.443962
50.377998 -20.928665 15.212776 26 0 0 0 55.828541
-50.008438 5.9527488 15.455877 13 0 0 0 1.55769
-49.790588 7.1697645 15.442026 17 0 0 0 1.95876
49.009247 12.265256 15.445108 16 0 0 0 45.689072
-47.551949 15.484903 15.373955 7 0 0 0 4.6789398
-39.469891 24.771345 15.493378 19 0 0 0 8.5879002
-38.708874 25.639908 15.438001 11 0 0 0 8.9712
-37.974133 26.517725 15.400746 21 0 0 0 9.3670502
-37.21434 27.371006 15.361217 20 0 0 0 9.7519398
-36.467056 28.227495 15.334797 15 0 0 0 10.14302
-35.73912 29.095671 15.324965 15 0 0 0 10.53894
-34.978313 29.934624 15.309714 18 0 0 0 10.92339
-34.238716 30.790691 15.312621 18 0 0 0 11.31536
-33.502949 31.65201 15.326793 17 0 0 0 11.70423
-32.746838 32.497105 15.341515 12 0 0 0 12.08827
-31.999527 33.355759 15.370578 16 0 0 0 12.48733
-31.26873 34.240082 15.418851 10 0 0 0 12.87025
23.960154 -34.098499 15.674586 5 0 0 0 64.838608
47.503658 -21.112627 15.773925 15 0 0 0 56.22345
52.885014 -20.461786 15.816164 8 0 0 0 55.440872
-56.016579 -11.173204 15.972166 23 0 0 0 96.486839
-49.991772 8.4557419 15.567855 13 0 0 0 2.34075
-50.229168 12.355372 15.893003 15 0 0 0 3.52105
-49.326088 13.424826 15.709954 11 0 0 0 3.90815
-48.403046 14.457966 15.527418 20 0 0 0 4.2926598
-40.99762 23.005043 15.628464 22 0 0 0 7.80023
-40.238426 23.896826 15.559092 13 0 0 0 8.1941404
-30.930021 35.589169 15.678304 6 0 0 0 13.25767
23.44385 -39.192017 16.049946 7 0 0 0 66.011353
23.623066 -35.433601 16.014906 12 0 0 0 65.221558
-51.571594 10.03128 16.135521 15 0 0 0 2.73035
-51.148338 11.258211 16.088228 25 0 0 0 3.1233799
-45.849297 17.468601 16.302214 19 0 0 0 5.46415
-37.143211 27.296543 16.459326 22 0 0 0 9.7519398
-36.421234 28.169682 16.441608 11 0 0 0 10.14302
-35.686069 29.029842 16.427118 21 0 0 0 10.53894
-34.9328 29.872736 16.413584 13 0 0 0 10.92339
-34.193218 30.726482 16.416048 9 0 0 0 11.31536
-33.447113 31.575541 16.425484 18 0 0 0 11.70423
-32.708626 32.435059 16.449297 15 0 0 0 12.08827
-31.978624 33.30938 16.488743 24 0 0 0 12.48733
-30.979872 37.4715 16.165573 9 0 0 0 13.65609
-49.996403 5.9555225 16.69853 16 0 0 0 1.55769
-49.757191 7.1692853 16.676191 26 0 0 0 1.95876
-49.961082 8.45506 16.81287 10 0 0 0 2.34075
49.290421 11.04174 16.690739 16 0 0 0 46.07814
-40.872833 22.913479 16.727737 17 0 0 0 7.80023
-40.1455 23.820057 16.665539 16 0 0 0 8.1941404
-39.395985 24.703304 16.602207 14 0 0 0 8.5879002
-38.643879 25.575087 16.545864 17 0 0 0 8.9712
-37.911354 26.451941 16.506159 12 0 0 0 9.3670502
-31.238682 34.181976 16.535221 9 0 0 0 12.87025
-30.790956 35.402668 16.753695 12 0 0 0 13.25767
-51.141422 4.8228536 17.032408 17 0 0 0 1.16769
-51.635918 10.048674 17.458328 11 0 0 0 2.73035
-51.078888 11.247872 17.361673 14 0 0 0 3.1233799
-50.452805 12.415627 17.250648 7 0 0 0 3.52105
-50.031857 5.9374757 17.945543 11 0 0 0 1.55769
-49.750664 7.1461658 17.906078 16 0 0 0 1.95876
-51.006687 4.7873912 18.243618 12 0 0 0 1.16769
-50.031933 8.4447327 18.080458 12 0 0 0 2.34075
-50.387463 12.376702 18.499868 12 0 0 0 3.52105
-52.860973 14.394753 18.193375 8 0 0 0 3.90815
-51.518925 10.002763 18.705168 9 0 0 0 2.73035
-50.998253 11.207118 18.614033 14 0 0 0 3.1233799
