# .PCD v0.7 - Point Cloud Data file format
VERSION 0.7
FIELDS x y z intensity normal_x normal_y normal_z curvature
SIZE 4 4 4 4 4 4 4 4
TYPE F F F F F F F F
COUNT 1 1 1 1 1 1 1 1
WIDTH 907
HEIGHT 1
VIEWPOINT 0 0 0 1 0 0 0
POINTS 907
DATA ascii
-0.65395921 4.4588432 -0.91300255 49.333332 0 0 0 22.639009
-0.26599663 4.458528 -0.90414757 76.5 0 0 0 24.007549
0.2251652 4.3984184 -0.89072895 39.400002 0 0 0 25.769211
0.75369662 4.276648 -0.8775425 63.200001 0 0 0 27.718632
1.2680997 4.183331 -0.86449677 153.33333 0 0 0 29.602837
2.3000879 4.3478088 -0.87728369 133.25 0 0 0 32.599133
2.6343565 4.0788493 -0.8655355 143.66667 0 0 0 33.964664
3.8266246 4.3227544 -0.88924605 261.66666 0 0 0 36.318943
4.0032043 4.0927773 -0.88160795 225 0 0 0 37.102741
4.684968 4.2268705 -0.82238221 408 0 0 0 38.081783
5.240634 4.2742343 -0.7154305 707.5 0 0 0 38.864639
5.6224456 4.2422099 -0.57175642 800.66669 0 0 0 39.450306
-10.748022 4.9815855 -0.7940492 378 0 0 0 6.6419001
-3.0335343 4.5993648 -0.99922079 303 0 0 0 15.61888
-2.2946401 4.7514362 -0.95236462 141.5 0 0 0 17.755779
-1.0073202 4.5317731 -0.9422031 95 0 0 0 21.473129
-0.8871547 4.506659 -0.93154436 62 0 0 0 21.85985
1.3329206 4.6970229 -0.87081379 85 0 0 0 29.277756
1.7865049 4.7047153 -0.89846075 241.5 0 0 0 30.64621
2.0714705 4.5776787 -0.89652532 90 0 0 0 31.62496
3.7013497 4.7381902 -0.89004207 229.5 0 0 0 35.3377
4.7715473 4.7513561 -0.79278213 578.25 0 0 0 37.300529
5.2826519 4.7952533 -0.63552117 903.33331 0 0 0 38.017525
5.5161557 4.6056986 -0.5835681 813 0 0 0 38.677231
-20.902271 5.1226974 -0.98132962 73 0 0 0 3.5204599
-9.4057913 5.2194748 -0.71178961 502 0 0 0 7.81036
-7.7609739 5.071569 -0.71771431 695 0 0 0 8.9852304
-7.4516501 5.1297169 -0.58585477 770 0 0 0 9.3721104
-6.1687164 5.452764 -0.52278358 716 0 0 0 11.31533
-1.7066841 5.2570858 -0.9974187 181.33333 0 0 0 19.911715
-1.2520809 5.3961506 -0.99842995 151.25 0 0 0 21.277544
-0.70717847 5.4063168 -0.98053885 100.75 0 0 0 22.833103
-0.2367717 5.36025 -0.96293259 103.66666 0 0 0 24.204939
0.22118309 5.2907581 -0.94908118 112 0 0 0 25.574144
0.59850746 5.1458149 -0.92678422 85.5 0 0 0 26.746719
2.9917943 5.4480586 -0.95960689 139 0 0 0 32.794651
3.2874424 5.1991878 -0.94958442 210 0 0 0 33.770142
4.3267279 5.3907447 -0.90328562 550 0 0 0 35.53614
4.8165627 5.2927999 -0.75806689 818.5 0 0 0 36.516525
5.3019133 5.2694941 -0.60805798 557 0 0 0 37.300529
-9.4912148 5.57514 -0.72762376 379 0 0 0 8.1989098
-8.145771 5.6171079 -0.88732618 349 0 0 0 9.3721104
-7.8543301 5.7985892 -0.79306889 408 0 0 0 9.8914394
-5.871552 5.7244077 -0.51806325 620.33331 0 0 0 12.09634
-2.2957067 5.8521724 -0.52551126 636 0 0 0 18.93545
2.24383 5.8560905 -0.96966571 316 0 0 0 30.64621
2.7212498 5.5950103 -0.96101934 179.66667 0 0 0 32.013424
3.2957892 5.9886136 -0.89374626 483 0 0 0 32.793297
3.7382469 5.7410684 -0.8953414 520 0 0 0 33.964664
4.1290097 5.5549212 -0.90457606 575 0 0 0 34.945442
4.7332125 5.7471037 -0.69532222 643 0 0 0 35.729958
-8.1667738 6.2412567 -0.66824615 511 0 0 0 10.14862
-7.1345534 6.118422 -0.75749797 541 0 0 0 11.061703
-6.2833867 6.4435844 -0.79189396 567 0 0 0 12.48398
-2.645709 6.0922842 -0.55882186 699 0 0 0 18.34938
-2.0801497 6.4642529 -0.56870151 737 0 0 0 19.909189
-1.9090036 6.4707589 -0.5638817 476 0 0 0 20.30266
-1.1232368 6.3719177 -0.69585067 516 0 0 0 22.091061
-0.74130082 6.3864446 -0.53022486 463 0 0 0 23.02739
2.3213422 6.2865758 -0.62663281 720.5 0 0 0 30.449348
2.7489295 6.1221194 -0.6694777 419.5 0 0 0 31.528456
3.3061073 6.0113411 -0.89682811 570 0 0 0 32.794651
5.974762 6.3820844 -0.71669906 297 0 0 0 36.715569
-8.1922436 6.586421 -0.81035304 363 0 0 0 10.5423
-6.2556376 6.7390337 -0.80862248 533 0 0 0 12.87307
-2.2681174 6.5014329 -0.57811064 597 0 0 0 19.5233
-1.5920709 6.5636239 -0.72873515 697 0 0 0 21.08131
-1.4166712 6.5436673 -0.88666278 399 0 0 0 21.473129
2.1502819 6.638947 -0.74147576 584.33331 0 0 0 29.802362
3.2424016 6.8542843 -0.80671728 547.5 0 0 0 31.820122
5.8810143 6.601191 -0.72514987 305 0 0 0 36.317478
-12.590238 7.4162698 -0.62483579 371 0 0 0 8.1989098
-11.970335 7.4492388 -0.77063835 472.5 0 0 0 8.5907898
2.208796 7.3116689 -0.9085561 412 0 0 0 29.474506
4.833497 7.2006607 -0.92603445 337 0 0 0 34.160854
5.1947031 7.1432323 -0.61384869 230 0 0 0 34.754539
-7.856082 7.6973639 -0.97932875 429 0 0 0 12.10223
-7.1691213 7.7383919 -0.67510051 657 0 0 0 12.87307
-6.7143388 7.7988186 -0.78161114 1362.5 0 0 0 13.46624
-6.2584734 7.8307519 -0.75789684 1617.5 0 0 0 14.05456
-5.8235393 7.85601 -0.7361629 1601 0 0 0 14.638265
-5.2732511 7.8884616 -0.70999253 1626.75 0 0 0 15.42539
-4.755713 7.9236493 -0.68755072 1721.5 0 0 0 16.198021
-4.2375183 7.9556551 -0.73297566 1815 0 0 0 17.019291
-3.7893286 7.9846511 -0.75917292 1808.1666 0 0 0 17.755779
4.6828437 7.5639243 -0.95102036 476 0 0 0 33.572281
5.3821802 7.7915182 -0.66172481 287 0 0 0 34.359207
-3.2262671 8.026391 -0.95163518 1638.6666 0 0 0 18.740093
-2.6790206 8.0568981 -0.9303596 1715.5 0 0 0 19.716244
-2.2177703 8.0782127 -0.84664375 1526.3334 0 0 0 20.564814
-1.7339007 8.1060114 -0.800731 1633.5 0 0 0 21.471855
-1.1239676 8.1501303 -0.79152203 1585 0 0 0 22.64444
-0.68053675 8.1821156 -0.80814302 1643.8 0 0 0 23.497089
-0.2163806 8.2045937 -0.78562713 1442.5 0 0 0 24.400581
0.29152086 8.248457 -0.78826934 1817.3334 0 0 0 25.380033
0.80646449 8.2859116 -0.79354358 1676 0 0 0 26.352982
1.2264338 8.3139133 -0.79999578 1593.5 0 0 0 27.134905
1.7643772 8.3447409 -0.81097466 1576.6666 0 0 0 28.107782
2.3193736 8.3732252 -0.71735561 1633.75 0 0 0 29.07918
2.6629167 8.3900671 -0.50872421 1395 0 0 0 29.67308
3.2573919 8.413578 -0.52093279 1255.5 0 0 0 30.643559
3.7618308 8.4466476 -0.53374255 1508 0 0 0 31.430874
4.2455931 8.4726706 -0.62514478 787.66669 0 0 0 32.143532
5.3039184 8.2447577 -0.72753096 250.66667 0 0 0 33.832428
4.4383826 8.5036259 -0.79174405 480 0 0 0 32.400028
6.5608826 8.5462246 -0.75786984 141.5 0 0 0 35.136341
7.2547069 8.5370264 -0.92796737 135 0 0 0 35.923779
5.6418676 9.8710833 -0.94427741 223 0 0 0 32.990608
-14.221519 -16.483593 -0.34541285 47 0 0 0 85.989197
-13.995878 -13.994109 -0.30978447 47 0 0 0 87.164734
-18.9328 -11.347434 -0.34465563 98 0 0 0 91.083717
-5.2880673 -10.823434 -0.1755721 430.5 0 0 0 81.877861
-4.4187732 -10.647725 -0.16633229 145 0 0 0 80.900253
-14.335633 -10.096395 -0.26767969 81 0 0 0 89.90744
-5.6233768 -10.209347 -0.16869622 238 0 0 0 82.668076
-4.0166712 -10.389853 -0.15941629 152 0 0 0 80.504478
-3.6326556 -10.126377 -0.15262669 190 0 0 0 80.11911
-14.729947 -9.8424149 -0.2703824 49 0 0 0 90.295105
-8.8460398 -9.7577267 -0.19435345 323 0 0 0 86.378242
-6.2840872 -9.6481791 -0.16608888 293 0 0 0 83.833122
-5.9840651 -9.9744635 -0.16822547 380 0 0 0 83.245491
-4.3894739 -9.8845167 -0.15383446 761 0 0 0 81.294495
-3.2245765 -9.7308702 -0.14361283 191 0 0 0 79.729355
-2.9054937 -9.5436783 -0.13866821 121 0 0 0 79.340485
-14.872808 -9.4183722 -0.26798525 82 0 0 0 90.690331
-8.8120918 -9.2538099 -0.18727656 310 0 0 0 86.780731
-6.9024749 -9.3017511 -0.1670725 413 0 0 0 84.812523
-5.7094564 -9.2534695 -0.42033595 479 0 0 0 83.443359
-2.601063 -9.3593464 -0.13394339 159 0 0 0 78.94265
-2.1847866 -9.1452789 -0.12828454 301.5 0 0 0 78.35968
-15.398736 -8.7235842 -0.26864856 126 0 0 0 91.460815
-7.1307955 -8.6852989 -0.16076261 645 0 0 0 85.596565
-6.8987608 -8.8355904 -0.16040331 414 0 0 0 85.200623
-6.2310123 -8.839467 -0.35110217 362 0 0 0 84.417046
-4.9744496 -8.7668638 -0.38697505 184 0 0 0 82.865936
-1.6577115 -8.8274641 -0.12059909 151.5 0 0 0 77.582352
-15.760278 -8.4243021 -0.27111906 21 0 0 0 91.842087
-7.4440413 -8.2080936 -0.42830551 440 0 0 0 86.378242
-6.798595 -8.2780981 -0.41316938 352.66666 0 0 0 85.595459
-4.4685822 -8.3442898 -0.36114106 281 0 0 0 82.470222
-1.147292 -8.3332195 -0.1102882 290.5 0 0 0 76.796494
-0.80924433 -8.0670109 -0.10468939 255 0 0 0 76.216873
-15.844774 -7.9758291 -0.26832846 8 0 0 0 92.237671
-8.2576866 -7.6700649 -0.16039973 178 0 0 0 87.746376
-7.3505735 -7.716166 -0.41034678 231 0 0 0 86.780731
-4.0144906 -7.9577904 -0.33789724 254 0 0 0 82.074051
-3.6744945 -7.7493768 -0.32371795 258 0 0 0 81.681671
-3.3419642 -7.5173469 -0.30897945 304 0 0 0 81.294495
-0.59885025 -7.9115233 -0.10147474 278 0 0 0 75.815201
-0.2068029 -7.7097034 -0.097232789 278.66666 0 0 0 75.03833
0.26221263 -7.5987749 -0.095074251 256.5 0 0 0 74.059235
0.53896189 -7.5513644 -0.09453705 280 0 0 0 73.473396
-16.475676 -7.3031754 -0.27209809 169 0 0 0 93.012863
-8.732029 -7.1651764 -0.29756621 189.5 0 0 0 88.724968
-8.42799 -7.2686968 -0.29465306 289 0 0 0 88.33049
-3.1076369 -7.4778214 -0.30351913 282 0 0 0 80.900253
-2.720299 -7.2846508 -0.28992814 257 0 0 0 80.311798
-2.3434281 -7.0584164 -0.27556223 262 0 0 0 79.729355
0.80986363 -7.4718933 -0.093601003 334 0 0 0 72.88945
1.2619507 -7.3856177 -0.093164496 308.33334 0 0 0 71.908669
1.8060859 -7.2925811 -0.093335234 340.33334 0 0 0 70.735435
2.2772312 -7.2551041 -0.094645783 285.5 0 0 0 69.756783
2.769062 -7.2329593 -0.096733332 273.66666 0 0 0 68.777847
3.2866437 -7.2243681 -0.099558443 276.5 0 0 0 67.799667
3.7603736 -7.2908659 -0.10366948 309.5 0 0 0 67.016472
4.2426844 -7.3187237 -0.10750133 312.5 0 0 0 66.229485
4.7812119 -7.3837252 -0.11259761 304.5 0 0 0 65.44725
5.3271666 -7.4018526 -0.11734976 296.5 0 0 0 64.661766
5.8378372 -7.3227797 -0.12080664 326 0 0 0 63.882202
6.3051109 -7.3365426 -0.12540306 302 0 0 0 63.297661
6.6844435 -7.2207985 -0.12753932 361 0 0 0 62.700645
-16.877134 -6.7488298 -0.27389598 167.5 0 0 0 93.610741
-10.541862 -6.6740346 -0.48416716 146 0 0 0 90.690331
-9.1004639 -6.7501373 -0.1603574 178 0 0 0 89.510872
-8.7424688 -6.7077007 -0.33465639 251.33333 0 0 0 89.250801
-2.1172073 -6.9395223 -0.26783672 259 0 0 0 79.340485
-1.6958184 -6.7085571 -0.25360796 248 0 0 0 78.554001
-1.2402093 -6.5826244 -0.24401954 228.5 0 0 0 77.582352
-0.82501221 -6.553915 -0.23984134 248 0 0 0 76.603287
-0.49739337 -6.5176992 -0.23660569 265 0 0 0 75.815201
6.9715114 -6.9945025 -0.12739983 801 0 0 0 62.12043
7.3153496 -6.8160133 -0.12865029 369.5 0 0 0 61.531639
7.6913505 -6.5434184 -0.29432759 516.33331 0 0 0 60.808552
-9.0612488 -6.38027 -0.42647684 309 0 0 0 89.90744
-4.6460199 -6.417655 -0.4898299 264 0 0 0 84.613922
-4.2442064 -6.3423471 -0.47046375 226 0 0 0 84.025009
-3.8589568 -6.2493205 -0.45145971 304.5 0 0 0 83.443359
-3.3491375 -6.0675106 -0.42389852 348.5 0 0 0 82.668076
-0.17602108 -6.4412117 -0.23244201 237 0 0 0 75.03833
0.29773381 -6.4478002 -0.23273051 197.66667 0 0 0 73.863953
0.77698284 -6.4600196 -0.23496549 229.33333 0 0 0 72.693321
1.2555498 -6.4186292 -0.23634195 299.33334 0 0 0 71.516808
1.7298239 -6.3327699 -0.23722486 286.66666 0 0 0 70.344543
2.207114 -6.2320843 -0.23891641 248 0 0 0 69.169708
2.7369747 -6.2270198 -0.24648064 273.66666 0 0 0 67.99485
3.2264099 -6.2658091 -0.25624689 305 0 0 0 67.016472
3.7576082 -6.3085208 -0.26800165 355.66666 0 0 0 66.032967
4.328064 -6.345345 -0.28131762 337.5 0 0 0 65.056992
4.8094501 -6.3549132 -0.29270592 351.5 0 0 0 64.270592
5.3028383 -6.3322368 -0.30409697 331.5 0 0 0 63.492493
5.8581185 -6.3330112 -0.31854671 338.5 0 0 0 62.700645
6.3087893 -6.3346891 -0.33079103 366 0 0 0 62.12043
6.6386642 -6.34482 -0.34029704 342 0 0 0 61.73024
7.0068412 -6.3732677 -0.35163072 439 0 0 0 61.333038
7.8812208 -6.3250213 -0.12859733 525 0 0 0 60.356827
8.2571964 -6.2990942 -0.38689184 288 0 0 0 59.964966
8.620801 -6.1921196 -0.22152956 461.66666 0 0 0 59.505341
9.2951221 -6.2230597 -0.28125107 292.5 0 0 0 58.99411
9.676652 -6.13834 -0.285992 153.5 0 0 0 58.599609
10.083074 -6.053349 -0.43907598 172 0 0 0 58.204792
12.716748 -6.0145216 -0.18293871 290 0 0 0 56.641113
15.854468 -6.1072469 -0.22377296 184 0 0 0 55.462967
17.260408 -6.1638918 -0.24248739 107 0 0 0 55.077541
18.748264 -6.1779542 -0.26203081 82 0 0 0 54.69622
22.002108 -6.065187 -0.30415145 98 0 0 0 53.908447
-2.7768295 -5.8453536 -0.39336324 533.66669 0 0 0 81.683403
-2.2255704 -5.739418 -0.37225828 485.66666 0 0 0 80.507942
-1.7490395 -5.7233577 -0.36070454 368 0 0 0 79.337502
-1.2248127 -5.7167625 -0.35131356 305.5 0 0 0 77.971016
-0.72416669 -5.7447371 -0.34715471 337.66666 0 0 0 76.603294
-0.22979772 -5.7628541 -0.34527388 298.25 0 0 0 75.232544
0.26414368 -5.7587571 -0.34484085 235.33333 0 0 0 73.863953
0.76470155 -5.7776494 -0.34921405 192.25 0 0 0 72.497871
1.2654918 -5.7325401 -0.35197201 282.66666 0 0 0 71.127113
1.7098402 -5.7099528 -0.3578316 361.66666 0 0 0 69.950653
2.2440889 -5.668169 -0.36664349 389 0 0 0 68.58165
2.8063021 -5.6234756 -0.3786484 516 0 0 0 67.213081
3.231149 -5.5879841 -0.3894448 543.5 0 0 0 66.229485
3.70348 -5.5795364 -0.40496138 589.66669 0 0 0 65.251305
4.2304859 -5.5944066 -0.42525199 484 0 0 0 64.270592
4.659955 -5.5687747 -0.44108713 372 0 0 0 63.492493
5.1202717 -5.5397496 -0.45908752 348 0 0 0 62.700645
9.867382 -5.7606459 -0.14517954 390.5 0 0 0 58.011185
10.131606 -5.7482357 -0.43364513 405 0 0 0 57.817581
10.941132 -5.8546076 -0.46328026 341 0 0 0 57.426273
11.217399 -5.6506405 -0.31435719 467 0 0 0 57.036007
13.276256 -5.8829598 -0.18870306 184 0 0 0 56.248859
14.103888 -5.8375878 -0.19880463 160 0 0 0 55.858841
18.299322 -5.5348978 -0.25077161 125 0 0 0 54.292801
28.633173 -5.6568298 -0.39041141 28 0 0 0 52.736191
-2.0824652 -5.0034561 -0.4569208 235 0 0 0 80.900253
-1.7707813 -5.1131926 -0.45624173 166.5 0 0 0 79.923355
-1.2455267 -5.1874914 -0.44905421 100.75 0 0 0 78.360779
-0.72492987 -5.2248878 -0.44326246 103.25 0 0 0 76.79837
-0.2104784 -5.2491131 -0.44088873 95.25 0 0 0 75.232552
0.30323058 -5.2543025 -0.44166368 104.75 0 0 0 73.669418
0.76022261 -5.2589412 -0.44634092 120.66666 0 0 0 72.301888
1.2248755 -5.2474899 -0.4533056 148.75 0 0 0 70.929932
1.7758238 -5.2275143 -0.46528244 161 0 0 0 69.365471
2.2734585 -5.1838288 -0.47769058 177.33333 0 0 0 67.99485
2.7105167 -5.1177258 -0.48929152 233 0 0 0 66.820305
5.4540439 -5.4809518 -0.47094253 448 0 0 0 62.12043
5.8200006 -5.4297781 -0.4853203 367.5 0 0 0 61.531639
10.1268 -5.4192939 -0.14469685 436 0 0 0 57.426273
21.594662 -5.3851404 -0.29350597 76 0 0 0 53.518032
23.288189 -5.2013798 -0.31493413 60 0 0 0 53.123039
-3.1286471 -4.930326 -0.49531665 312 0 0 0 83.641235
-2.7309432 -4.9429922 -0.47798288 262.5 0 0 0 82.663925
-2.2853055 -4.9685202 -0.46150532 229.5 0 0 0 81.488083
28.452473 -4.8972836 -0.3829304 80 0 0 0 52.340714
12.254975 2.4740641 -0.12755398 320 0 0 0 46.478119
6.2796645 2.9010425 -0.22046912 790.79999 0 0 0 42.816254
6.6436801 2.8906178 -0.23397914 812.5 0 0 0 43.167381
7.0599117 2.7638776 -0.24527518 722.33331 0 0 0 43.745071
9.8310194 2.8442879 -0.17950372 353 0 0 0 45.178944
11.808499 2.8410254 -0.26996684 576.75 0 0 0 45.900032
15.232709 2.6834567 -0.16774821 69 0 0 0 46.869007
17.341421 2.6147451 -0.19661613 42 0 0 0 47.265911
29.799759 2.9972708 -0.36683732 19 0 0 0 48.044006
5.9556718 3.1414547 -0.047122143 1160.5 0 0 0 41.994049
6.1831932 3.2588251 -0.30843607 1131.5 0 0 0 41.994049
9.4015522 3.278487 -0.21401209 354.5 0 0 0 44.336029
9.8391953 3.1576695 -0.34917021 360.5 0 0 0 44.721794
25.06238 3.1465404 -0.30140573 54 0 0 0 47.655128
5.9177547 3.60425 -0.21937302 1298 0 0 0 41.019409
6.1994729 3.671473 -0.23112543 538.75 0 0 0 41.21386
6.9238954 3.9792137 -0.25848633 517 0 0 0 41.408314
9.6887817 3.5117445 -0.094109565 370 0 0 0 44.144993
-21.322849 4.127265 -0.46891633 110 0 0 0 2.7418301
-20.002996 4.3795443 -0.43696952 174 0 0 0 3.12275
5.4446974 4.216918 -0.047582146 252.5 0 0 0 39.253387
5.7874761 4.2577162 -0.23519234 1083.5 0 0 0 39.64521
6.1164799 4.3763161 -0.3324151 780.5 0 0 0 39.844151
-19.748142 4.8317671 -0.43061465 127 0 0 0 3.5204599
-10.571278 4.8968587 -0.49749893 594 0 0 0 6.6419001
-10.437569 4.8301687 -0.21221584 400 0 0 0 6.6419001
-9.6469231 4.8985868 -0.45646435 693.5 0 0 0 7.21772
-7.1609435 4.923027 -0.24645635 747 0 0 0 9.3721104
-6.8469305 4.9526906 -0.13436574 793 0 0 0 9.7628498
5.8766804 4.7821884 -0.42871982 963 0 0 0 38.868866
6.1250997 4.6153173 -0.24570897 514 0 0 0 39.446274
-9.4728584 5.255321 -0.45437735 607 0 0 0 7.81036
-7.8568845 5.132606 -0.38350153 746 0 0 0 8.9852304
-7.1096711 5.285491 -0.35610619 541 0 0 0 9.9557343
-6.577271 5.0039148 -0.1291656 795 0 0 0 10.14862
-6.2559395 5.2570167 -0.2222224 839.5 0 0 0 10.928815
-5.8781867 5.4522157 -0.31251097 830 0 0 0 11.70281
-1.6733344 5.4123878 -0.21807373 629.20001 0 0 0 20.145271
-1.2428621 5.3240075 -0.17987512 473.08334 0 0 0 21.277546
-0.84733516 5.4107056 -0.17860605 402.33334 0 0 0 22.444818
5.1823235 5.4133978 -0.054643437 305.5 0 0 0 36.909157
5.8765545 5.2843909 -0.35109606 653.25 0 0 0 38.081783
6.0654325 5.1915617 -0.060711529 524 0 0 0 38.475895
-11.476632 5.6611891 -0.23834182 425 0 0 0 7.0240698
-10.603278 5.8860841 -0.21977833 444 0 0 0 7.81036
-7.1072698 5.9911442 -0.37180007 683 0 0 0 10.93489
-6.1405907 5.9841933 -0.12816116 370 0 0 0 12.10223
-5.8135824 5.663353 -0.31553289 937 0 0 0 12.10223
-2.5980852 5.9755697 -0.38743174 847 0 0 0 18.34938
-2.2151725 5.847795 -0.2680926 779.16669 0 0 0 19.131399
-1.8975217 5.6065836 -0.057888113 770.5 0 0 0 19.716244
-0.61070997 5.6368437 -0.1574311 405.20001 0 0 0 23.182587
-0.25242522 5.748301 -0.11686683 488.66666 0 0 0 24.204935
0.081655152 5.8095489 -0.13979079 631 0 0 0 25.119978
2.3799801 5.9946322 -0.045510806 781 0 0 0 30.8384
2.6129913 5.9274702 -0.045267116 563 0 0 0 31.430874
3.2076857 5.8361959 -0.21229477 568.25 0 0 0 32.793972
3.6208203 5.8741455 -0.30222219 677.5 0 0 0 33.572281
4.8574204 5.8201127 -0.28911868 385.5 0 0 0 35.828384
5.2608871 5.7725182 -0.34476238 283 0 0 0 36.516525
5.7235947 5.653542 -0.29721096 423.79999 0 0 0 37.340088
-11.52182 6.0381041 -0.24072799 407 0 0 0 7.4113698
-6.7651496 6.2868619 -0.14253308 297 0 0 0 11.70281
-6.3220634 6.4754119 -0.13584502 647 0 0 0 12.48398
-2.405196 6.3777223 -0.23936476 693 0 0 0 19.125549
-0.58598286 6.4183364 -0.37192988 366 0 0 0 23.41538
-0.18544157 6.1192908 -0.34973016 377 0 0 0 24.400581
0.13938196 6.0669098 -0.24681179 519.33331 0 0 0 25.249262
2.204361 6.2154999 -0.12846667 765.16669 0 0 0 30.255129
3.629997 6.2239704 -0.22954597 357 0 0 0 33.186569
4.8699317 6.0584393 -0.058283139 440 0 0 0 35.53614
5.4079075 6.2843342 -0.26645985 345.66666 0 0 0 36.055012
5.8034954 6.2021189 -0.27535927 264 0 0 0 36.715569
6.6758919 6.1463675 -0.0738388 236 0 0 0 37.889008
7.5167365 6.2553444 -0.32266405 258 0 0 0 38.677231
-11.294714 6.6408553 -0.23831019 263 0 0 0 8.1989098
-10.893187 6.7660913 -0.23023729 227 0 0 0 8.5907898
-7.8480911 6.7891827 -0.1675062 376 0 0 0 11.12511
-6.1720757 6.6385794 -0.13460109 873 0 0 0 12.87307
1.9641192 6.8288612 -0.055912811 626 0 0 0 29.27593
2.1886773 6.6577425 -0.31357333 572.5 0 0 0 29.867004
3.343174 6.846581 -0.24581508 785 0 0 0 32.015282
3.8328729 6.9479623 -0.25674814 565 0 0 0 32.794651
4.9432592 6.8066669 -0.066403508 456 0 0 0 34.754539
5.106267 6.67558 -0.16909897 317.5 0 0 0 35.136341
8.5085926 6.7255855 -0.36187285 186 0 0 0 39.060501
-10.834064 7.102191 -0.23076417 257 0 0 0 8.9852304
3.605083 7.3747907 -0.066373572 343 0 0 0 32.015282
-9.4287958 7.5911031 -0.49842021 274 0 0 0 10.5423
-7.3335218 7.721333 -0.42395216 1329 0 0 0 12.678525
-6.7033024 7.7794352 -0.27960569 1397 0 0 0 13.46624
-6.2471523 7.8097382 -0.26877367 1621 0 0 0 14.05456
-5.8126292 7.8342228 -0.25877351 1621.25 0 0 0 14.638266
-5.2703214 7.8769522 -0.24710424 1800.25 0 0 0 15.42539
-4.7512779 7.9085236 -0.23652904 1885 0 0 0 16.198021
-4.2587414 7.9410982 -0.22710016 1840.5 0 0 0 16.979876
-3.7833703 7.9642143 -0.21858254 1963.5 0 0 0 17.755779
-3.362252 7.9792938 -0.17646396 1723.3334 0 0 0 18.481371
3.4106417 7.9357147 -0.28440681 395 0 0 0 31.23679
5.2688746 7.8321924 -0.19283256 278.5 0 0 0 34.160854
5.626471 7.7294636 -0.31495041 130 0 0 0 34.754539
-0.51750833 8.157732 -0.48091072 640 0 0 0 23.81365
0.49342418 8.2475767 -0.28010932 2002.6666 0 0 0 25.770861
0.80210829 8.2594576 -0.2802771 1976 0 0 0 26.352982
1.2211186 8.2889776 -0.28170139 1708.3334 0 0 0 27.134903
1.7576225 8.3199291 -0.28462607 1740.8889 0 0 0 28.10778
2.2558191 8.350379 -0.28840506 1556.5 0 0 0 28.980804
3.8829811 8.4390831 -0.30806312 1518 0 0 0 31.62496
4.4246006 8.4804754 -0.31728905 1309 0 0 0 32.400028
4.9417043 8.4295444 -0.084475622 337 0 0 0 33.186569
5.1563387 8.092968 -0.081721269 248.5 0 0 0 33.767391
5.6596627 8.188859 -0.32970324 208 0 0 0 34.359207
-30.487469 -43.300564 0.39874423 8 0 0 0 84.415329
-14.721551 -41.152966 0.33541045 21 0 0 0 80.11911
-20.56337 -40.862442 0.34831545 14 0 0 0 82.074051
-19.047321 -40.281616 0.34027898 6 0 0 0 81.681671
-19.501049 -24.993021 0.25379902 56 0 0 0 85.200623
-23.415998 -23.421535 0.26594207 50 0 0 0 87.164734
-19.90914 -23.084972 0.24621131 14 0 0 0 85.989197
-17.859159 -21.765406 0.22978239 54 0 0 0 85.596565
-35.307281 -21.167202 0.33137676 26 0 0 0 91.083717
-8.0104227 -20.757425 0.1882997 78 0 0 0 80.504478
-6.1603832 -18.632353 0.17068462 125 0 0 0 79.729355
-4.7399836 -18.89752 0.17044914 55 0 0 0 78.552071
-26.00588 -16.472662 0.25605357 44 0 0 0 90.690331
-33.744576 -15.963512 0.3082279 56 0 0 0 92.619774
-34.138535 -15.135745 0.30950356 21 0 0 0 93.012863
-6.1920109 -14.937047 0.14661373 212 0 0 0 80.900253
-8.6131039 -13.5989 0.1461148 110 0 0 0 83.641235
-2.7432077 -13.730474 0.48226932 698 0 0 0 77.78109
-3.0274312 -13.442137 0.13134418 287 0 0 0 78.167282
-2.6614337 -13.332565 0.13031538 345 0 0 0 77.78109
-2.3082964 -13.245724 0.1295298 20 0 0 0 77.383614
-1.9563453 -13.117986 0.12853676 179 0 0 0 76.991058
-22.879787 -12.965392 0.22546655 67 0 0 0 91.460815
-1.5852177 -12.762681 0.12601942 42 0 0 0 76.601936
-18.083986 -12.087538 0.19093171 83 0 0 0 90.295105
-17.518284 -12.341952 0.18808405 93 0 0 0 89.90744
7.1322851 -12.272961 0.49622154 47 0 0 0 66.229485
7.3603325 -11.655201 0.48371932 62 0 0 0 65.639938
-6.6979461 -11.167546 0.2879664 299 0 0 0 83.245491
-1.1404889 -11.456811 0.11687886 56 0 0 0 76.216873
-0.70084828 -11.195608 0.11524493 140 0 0 0 75.620728
-0.28392452 -11.007571 0.1142441 63 0 0 0 75.042114
7.4297733 -11.150312 0.47177279 76 0 0 0 65.254562
-6.9094996 -10.902911 0.44613239 105 0 0 0 83.641235
-5.6956491 -10.647941 0.11852083 65 0 0 0 82.470222
0.25041136 -10.797575 0.11312751 166 0 0 0 74.253166
0.63728309 -10.632318 0.11203138 186.5 0 0 0 73.669342
1.1667397 -10.660599 0.11255751 171.5 0 0 0 72.88945
-5.9235201 -10.44765 0.2679199 168 0 0 0 82.865936
7.5577116 -10.21926 0.45052826 94 0 0 0 64.464111
-8.8157053 -9.7258854 0.29032618 375.5 0 0 0 86.378242
-4.4139647 -9.9441271 0.11041155 391 0 0 0 81.294495
-2.9711332 -9.7623768 0.23346063 1021.5 0 0 0 79.340485
-1.6619787 -9.5015192 0.34352246 6 0 0 0 77.383614
1.4291219 -9.7474594 0.10639577 71 0 0 0 72.301056
1.6344372 -9.5187244 0.1050769 155 0 0 0 71.911537
7.6599712 -9.8430729 0.44326589 123 0 0 0 64.077072
-8.7803345 -9.2220116 0.28303891 404.5 0 0 0 86.780731
-0.01590611 -9.1845646 0.21603388 280 0 0 0 74.646629
1.8593453 -9.4359093 0.10485952 267 0 0 0 71.513435
2.2846646 -9.196847 0.10408396 238.33333 0 0 0 70.735435
7.5827527 -9.2666073 0.42750892 121 0 0 0 63.687328
2.78914 -8.7479506 0.17800771 646.33331 0 0 0 69.69146
3.2704282 -8.8497581 0.10451795 236.5 0 0 0 68.974167
3.7345705 -8.7579994 0.10560162 222.5 0 0 0 68.189125
4.1021361 -8.7163582 0.10681438 254 0 0 0 67.6063
4.8810616 -8.652854 0.10998379 250 0 0 0 66.427963
5.2705522 -8.5863285 0.1115924 242.5 0 0 0 65.835472
5.6644592 -8.5086441 0.11329666 291 0 0 0 65.254562
7.5565457 -8.7862892 0.41547191 157 0 0 0 63.297661
4.3127189 -8.4373198 0.18510358 279.33334 0 0 0 67.080452
5.7606697 -8.211544 0.23794761 53 0 0 0 64.859421
6.2797832 -8.2805614 0.11565642 292 0 0 0 64.270592
6.6187077 -8.0902367 0.11672027 262 0 0 0 63.687328
7.6250238 -8.4380445 0.40896142 341 0 0 0 62.896008
40.59288 -8.0105753 0.44333601 25 0 0 0 52.736191
-8.3515654 -7.7587662 0.25778538 146 0 0 0 87.746376
6.9084845 -7.8377686 0.11737669 383 0 0 0 63.096832
7.5850906 -7.7982187 0.39367443 627 0 0 0 62.312855
-9.1704493 -7.1572347 0.40813008 22 0 0 0 89.120766
-8.2332525 -7.2832012 0.11291613 321.5 0 0 0 88.136307
6.9709368 -7.3439293 0.11561113 356 0 0 0 62.50528
7.0821009 -7.1031847 0.115394 131 0 0 0 62.12043
7.557188 -7.2176185 0.3804827 509 0 0 0 61.73024
10.948054 -7.3258114 0.47629935 499 0 0 0 58.99411
18.686773 -7.1926503 0.21978666 142 0 0 0 55.462967
20.681965 -7.3798103 0.23959975 68 0 0 0 55.077541
-9.1341496 -6.7776122 0.11648434 272 0 0 0 89.510872
-8.585804 -6.8746319 0.11344697 195.5 0 0 0 88.922867
7.3437729 -6.7875009 0.19852047 526.66669 0 0 0 61.465439
7.5658569 -6.5440016 0.11692513 649 0 0 0 60.938622
8.1958447 -6.5748587 0.25446582 433 0 0 0 60.356827
11.686944 -6.8193903 0.4910199 442.5 0 0 0 58.011185
13.304896 -6.6952152 0.16741832 242 0 0 0 57.036007
16.770777 -6.9355688 0.20092238 146 0 0 0 55.858841
7.3703055 -6.3787904 0.35859627 557 0 0 0 60.938622
7.9146304 -6.352685 0.24677354 377 0 0 0 60.356827
8.4900093 -6.3099241 0.12365344 496 0 0 0 59.764698
8.718091 -6.3157558 0.26046443 1181.5 0 0 0 59.570179
9.2042494 -6.4967165 0.41187692 437 0 0 0 59.37566
9.5715647 -6.4050093 0.13305768 445 0 0 0 58.99411
10.196835 -6.3471375 0.23745406 410 0 0 0 58.468002
18.598225 -6.1265249 0.21959706 139 0 0 0 54.69622
12.747952 -5.8362837 0.16167271 295 0 0 0 56.444984
18.758774 -5.6713653 0.2216797 114 0 0 0 54.292801
9.8230953 -5.4110756 0.13372116 588 0 0 0 57.621925
19.6535 -5.4171057 0.23113224 90 0 0 0 53.908447
21.473352 -5.3525839 0.24994233 149 0 0 0 53.518032
23.615177 -5.2716379 0.272239 56 0 0 0 53.123039
41.981693 -5.1070065 0.46491915 17 0 0 0 51.562569
6.7338629 2.4476066 0.30034935 570 0 0 0 44.144993
9.5656891 2.4325123 0.15086864 352 0 0 0 45.706673
11.808577 2.3845887 0.32408139 195 0 0 0 46.478119
5.6384482 2.712003 0.42407575 790 0 0 0 42.582169
6.3315454 2.7882283 0.29137209 1071.3334 0 0 0 43.10371
6.7294641 2.7907708 0.34163579 698.20001 0 0 0 43.436661
7.1852756 2.7101107 0.22584903 841.5 0 0 0 43.94503
8.3278046 2.6770723 0.24903801 325.5 0 0 0 44.721794
8.7771759 2.8192177 0.26006514 343 0 0 0 44.721794
9.2537832 2.5977688 0.2707637 291 0 0 0 45.31015
11.366429 2.736599 0.46443641 320.5 0 0 0 45.900032
11.60371 2.6445215 0.17323221 466 0 0 0 46.093391
14.305981 2.5226576 0.20069687 116 0 0 0 46.869007
17.80035 2.6860228 0.23816994 51 0 0 0 47.265911
29.221249 2.9427722 0.35968518 16 0 0 0 48.044006
5.8072882 3.2630742 0.26125005 591.71429 0 0 0 41.576069
6.1571531 3.1503971 0.12056883 1034 0 0 0 42.188049
6.7610874 3.2469027 0.22086352 318 0 0 0 42.582169
5.3659086 3.84676 0.36602277 549.5 0 0 0 39.844151
5.7740026 3.5188477 0.4561131 1398 0 0 0 41.019409
28.104675 3.5312603 0.35082209 25 0 0 0 47.655128
-25.893814 4.3560233 0.05957932 123 0 0 0 2.34583
-20.28896 4.4362884 0.060483363 213 0 0 0 3.12275
5.3549218 4.1487598 0.28896874 1172.5 0 0 0 39.253387
5.6431699 4.3038721 0.26659322 425.20001 0 0 0 39.37154
-25.748032 4.9815435 0.063277215 63 0 0 0 2.7418301
-10.702787 4.9505939 0.35799736 454 0 0 0 6.6419001
-10.174131 4.8534298 0.066209875 624.5 0 0 0 6.8329849
5.4098716 4.5202837 0.30093589 447 0 0 0 38.677231
5.5996003 4.9164529 0.40779528 632 0 0 0 38.274559
8.1801548 4.9706211 0.15359785 114 0 0 0 41.019409
-21.377419 5.2263427 0.065206811 55 0 0 0 3.5204599
-9.6512814 5.1939082 0.33984405 621.5 0 0 0 7.6108646
-8.1365843 5.3107228 0.31105509 464 0 0 0 8.9852304
-7.735764 5.2261748 0.14734483 714 0 0 0 9.2431498
-7.1074638 5.1409311 0.17738388 793.5 0 0 0 9.7628498
-6.6424637 5.267848 0.28002399 819 0 0 0 10.476505
-6.2663589 5.3514657 0.14138339 722 0 0 0 11.061703
-1.2113954 5.4959908 0.087252587 541 0 0 0 21.473129
5.341445 5.1835194 0.12881821 392.5 0 0 0 37.495872
5.7280703 5.2872515 0.23212487 319 0 0 0 37.88644
6.0989652 5.0903306 0.13484059 252 0 0 0 38.677231
-11.418438 5.6279845 0.38608631 380 0 0 0 7.0240698
-10.564985 5.6940379 0.07231725 402 0 0 0 7.6108646
-9.4373064 5.6903014 0.34545526 520.5 0 0 0 8.3948498
-6.1755872 5.7264614 0.25043425 950.5 0 0 0 11.706791
-2.1981461 5.9407058 0.29429039 869 0 0 0 19.258133
-1.742995 5.6969213 0.21343283 661.71429 0 0 0 20.191254
-1.2795532 5.5852742 0.18473952 566 0 0 0 21.340826
-0.72835773 5.754055 0.092036374 508.66666 0 0 0 22.89599
-0.2555075 5.8090768 0.094896682 646.33331 0 0 0 24.204935
2.3788614 5.9962554 0.11251573 742 0 0 0 30.8384
2.7785172 5.8669677 0.17968078 754.20001 0 0 0 31.857351
3.2752316 5.7942944 0.28398785 671.66669 0 0 0 32.990612
3.6072063 5.8577871 0.3770754 681.5 0 0 0 33.572281
5.3885155 5.768908 0.1342833 346 0 0 0 36.715569
5.7047081 5.6657047 0.23587991 358.5 0 0 0 37.300529
-14.265093 6.1986561 0.4591347 89 0 0 0 6.2418499
-6.0933361 6.2327313 0.081335522 806 0 0 0 12.48398
-2.0160809 6.2343745 0.25402287 719 0 0 0 19.909189
-1.561903 6.4101548 0.25888875 288 0 0 0 21.08131
-1.4005027 6.4249678 0.41942921 770 0 0 0 21.473129
-0.56112629 6.0374403 0.2465792 779 0 0 0 23.41538
-0.33917373 6.1025043 0.24965006 760 0 0 0 24.00864
0.037527427 6.1485662 0.099884264 621 0 0 0 24.99069
2.2638135 6.2613959 0.25992388 930.375 0 0 0 30.352236
2.6498387 6.0776191 0.39068389 783.66669 0 0 0 31.36618
3.1381719 6.0653262 0.45768151 555 0 0 0 32.400028
5.2792473 6.1793442 0.21752267 268 0 0 0 36.003731
6.5532684 6.0351562 0.37029594 192 0 0 0 37.889008
-11.24256 6.6049519 0.078864679 259 0 0 0 8.1989098
-6.3102016 6.7853026 0.085835531 743 0 0 0 12.87307
-1.50111 6.9260817 0.27663732 757 0 0 0 21.473129
-1.2210102 6.831511 0.27331704 524 0 0 0 22.052525
-0.97440779 6.9223566 0.2766937 516 0 0 0 22.64444
1.9861656 6.9090395 0.11890672 768 0 0 0 29.27593
2.1585722 6.5882387 0.37508461 890 0 0 0 29.867004
6.2353044 6.6613412 0.37820199 272 0 0 0 36.715569
-11.964944 7.4337535 0.084793314 286 0 0 0 8.5907898
-1.8995984 7.0803094 0.28253087 410 0 0 0 20.69589
-1.1930306 7.2046394 0.46452257 511.66666 0 0 0 22.24983
-0.81329185 7.0372868 0.28100839 529 0 0 0 23.02739
3.6594312 7.4862113 0.34487069 465 0 0 0 32.015282
5.2692447 7.2504754 0.20470876 322.25 0 0 0 34.75116
5.5888329 7.1183729 0.37491834 277.5 0 0 0 35.336243
-7.3285284 7.7057056 0.35562548 1224.5 0 0 0 12.678525
-6.6839981 7.748857 0.22037797 1502.5 0 0 0 13.46624
-6.2334023 7.7842665 0.21832958 1573 0 0 0 14.05456
-5.8098645 7.8223553 0.21668252 1727.25 0 0 0 14.638266
-5.2616677 7.8551741 0.21471936 1870.25 0 0 0 15.42539
-4.7493358 7.8961153 0.21344388 1991.25 0 0 0 16.198021
-4.2577763 7.929595 0.21250862 1936 0 0 0 16.979874
-3.7821784 7.9514599 0.21171105 2012.5 0 0 0 17.755779
-3.3260472 7.9740105 0.21142533 2027 0 0 0 18.547365
-2.8836727 7.9913144 0.31685567 1387.5 0 0 0 19.324425
5.1580472 7.7487388 0.30412424 403.33334 0 0 0 34.094738
-2.35203 8.0260258 0.31600332 826 0 0 0 20.30266
-1.1241701 8.0996428 0.11408894 751 0 0 0 22.64444
-0.12100604 8.1800642 0.32374248 1805 0 0 0 24.59753
0.32465759 8.2112961 0.2453545 1925.2 0 0 0 25.457903
0.79604167 8.2410822 0.22855504 2081.25 0 0 0 26.352982
1.2127324 8.2616444 0.23202972 1854 0 0 0 27.134905
1.7483729 8.2966623 0.23725741 1778.1666 0 0 0 28.107782
2.2648878 8.331192 0.27896804 1668.3334 0 0 0 29.013596
4.13905 8.4483023 0.14902744 1165 0 0 0 32.015282
5.0042977 8.0797653 0.15214066 202 0 0 0 33.572281
-57.491844 -30.73456 0.50736487 20 0 0 0 91.842087
-57.582706 -28.988602 0.50408983 21 0 0 0 92.237671
-6.1296339 -27.255215 0.92621678 19 0 0 0 78.167282
1.9158649 -26.145109 0.87690198 83 0 0 0 73.473396
-2.4335206 -24.589972 0.82593536 65 0 0 0 76.216873
-3.643235 -24.487232 0.82628721 38 0 0 0 76.991058
-1.1982752 -24.137827 0.80985081 59 0 0 0 75.426247
-5.9888625 -23.871101 0.81982559 56 0 0 0 78.552071
-6.091083 -21.976498 0.76195759 67 0 0 0 78.94265
-6.1854124 -18.696228 0.66236979 121 0 0 0 79.729355
-7.0877233 -18.352964 0.66142535 30 0 0 0 80.504478
-6.5978847 -18.415758 0.65801907 111 0 0 0 80.11911
3.8127284 -17.051846 0.59702492 33 0 0 0 71.125443
-19.497757 -16.817448 0.85881412 33 0 0 0 88.33049
4.1921315 -16.802189 0.5922516 27 0 0 0 70.74247
4.5877666 -16.638628 0.59063518 21 0 0 0 70.338394
-19.795994 -16.244919 0.85490102 28 0 0 0 88.724968
4.8683667 -16.105257 0.57695794 23 0 0 0 69.952766
5.7665706 -16.164398 0.58846909 23 0 0 0 69.167725
6.0254779 -15.665725 0.57670313 26 0 0 0 68.780609
6.7509108 -15.788514 0.58985215 19.5 0 0 0 68.189125
7.4547348 -15.798016 0.6001389 17 0 0 0 67.6063
-6.1727724 -14.882363 0.74404836 125 0 0 0 80.900253
-9.4150219 -14.0835 0.5744912 40 0 0 0 84.025009
-6.3868427 -14.390455 0.92123032 93 0 0 0 81.294495
-2.738596 -13.705845 0.82321036 575 0 0 0 77.78109
-2.374764 -13.612151 0.81452048 534 0 0 0 77.383614
-22.433298 -12.707398 0.86523175 40 0 0 0 91.460815
-17.331238 -12.853262 0.72699821 107 0 0 0 89.510872
-23.547565 -11.851653 0.88546407 54 0 0 0 92.237671
-21.933083 -11.722655 0.83658779 55 0 0 0 91.842087
-18.273968 -11.571655 0.73040915 98 0 0 0 90.690331
-17.295975 -11.556657 0.70323926 50 0 0 0 90.295105
-16.746923 -11.794324 0.69248432 73 0 0 0 89.90744
-6.5700359 -11.586571 0.78475249 382 0 0 0 82.865936
-25.650478 -11.368231 0.94185185 30 0 0 0 93.012863
-24.154333 -11.422747 0.8977989 43 0 0 0 92.619774
-6.7687964 -11.283239 0.77568412 224 0 0 0 83.245491
-18.223593 -10.922677 0.71870583 34 0 0 0 91.083717
-6.9107137 -10.904641 0.76180762 330 0 0 0 83.641235
-25.3533 -10.499761 0.92289019 45 0 0 0 93.409805
-0.017061349 -9.193368 0.5554865 17 0 0 0 74.646629
1.5389177 -8.9828568 0.55130154 13 0 0 0 71.911537
2.8386228 -8.6588926 0.55214804 826 0 0 0 69.560799
8.5121784 -8.5347939 0.72792304 887 0 0 0 62.12043
4.2181158 -8.4268227 0.57146686 12 0 0 0 67.208412
5.7553387 -8.206768 0.60810906 9 0 0 0 64.859421
8.7540894 -8.355895 0.73138207 704 0 0 0 61.73024
9.2314777 -8.3865423 0.75339669 544 0 0 0 61.333038
11.082092 -7.8171582 0.82073343 303 0 0 0 59.37566
14.229078 -7.6072521 0.58035302 284 0 0 0 57.426273
-9.1461887 -7.1396222 0.8353284 67 0 0 0 89.120766
9.2351475 -7.2241702 0.71290636 424 0 0 0 60.165234
11.128833 -7.2508321 0.80625564 527 0 0 0 58.79686
11.743233 -6.851325 0.82666487 429.5 0 0 0 58.011185
13.714396 -6.9059763 0.9320696 126 0 0 0 57.036007
7.3443489 -6.3572216 0.59565932 577 0 0 0 60.938622
7.7401814 -6.3725591 0.61430985 321 0 0 0 60.54842
12.829519 -6.26577 0.51982141 180 0 0 0 56.838562
14.605948 -6.1900501 0.83626288 140.33333 0 0 0 55.988846
17.647768 -6.3047009 0.67857695 98 0 0 0 55.077541
18.627394 -6.1412315 0.71041489 109 0 0 0 54.69622
12.97682 -5.7529635 0.51897007 261 0 0 0 56.248859
15.004708 -5.7834167 0.58603477 192 0 0 0 55.462967
18.706911 -5.6607933 0.71000302 122 0 0 0 54.292801
20.179035 -5.566947 0.75984591 92 0 0 0 53.908447
22.176861 -5.5333223 0.82850683 106 0 0 0 53.518032
47.447594 -4.59024 0.52405328 22 0 0 0 51.165501
82.346825 -3.8920295 0.89533669 9 0 0 0 50.38776
7.8175616 1.9892347 0.93072182 523 0 0 0 45.706673
4.020556 2.4642205 0.79994869 5286 0 0 0 41.019409
6.275528 2.3723626 0.94964135 485 0 0 0 43.94503
6.6526871 2.2332253 0.81672508 338 0 0 0 44.527061
7.4335647 2.3573022 0.77525115 742.33331 0 0 0 44.786701
7.8429399 2.4139431 0.5412308 449 0 0 0 44.916527
8.3841295 2.3538487 0.57121718 347 0 0 0 45.31015
8.847393 2.2483184 0.76716506 364.5 0 0 0 45.704224
11.704679 2.2100263 0.76323718 259.5 0 0 0 46.673561
14.190754 2.499146 0.56030482 144 0 0 0 46.869007
3.8227038 2.6561298 0.79020482 5363.6001 0 0 0 40.116745
6.2502232 2.676759 0.7936219 450 0 0 0 43.26405
6.6427779 2.7164063 0.80040056 789.79999 0 0 0 43.516644
7.0504289 2.561841 0.68709588 485 0 0 0 44.144993
7.5941138 2.5455103 0.52969265 683 0 0 0 44.527061
11.748141 2.6740363 0.77311003 358 0 0 0 46.093391
17.730141 2.6713736 0.68622315 51 0 0 0 47.265911
5.4683361 3.1533089 0.81943125 1282.5 0 0 0 41.408314
5.6697173 3.1961129 0.6974746 780 0 0 0 41.565575
6.3377128 3.0956852 0.82284492 756 0 0 0 42.483639
6.6884446 3.4190106 0.68982971 600 0 0 0 42.188049
5.1354427 3.7816038 0.67058688 412 0 0 0 39.64521
5.6703081 3.5540609 0.78363478 776.5 0 0 0 40.823135
7.5981469 3.8780661 0.56420332 181 0 0 0 42.188049
-25.955935 4.3679819 0.71329427 116 0 0 0 2.34583
5.2545714 4.2311492 0.7478053 901 0 0 0 38.965309
6.8110189 4.3796039 0.74153066 320 0 0 0 40.626862
-20.61282 4.5086207 0.58426857 224 0 0 0 3.12275
-20.025433 4.8946929 0.57463592 186 0 0 0 3.5204599
-10.588842 4.8933611 0.78091085 562 0 0 0 6.6419001
5.4096518 4.9955087 0.67849475 272 0 0 0 37.889008
5.8898196 4.9162855 0.51304102 281 0 0 0 38.677231
8.6384926 4.6770616 0.64410257 220 0 0 0 41.800049
-25.994249 5.0308194 0.72111845 111 0 0 0 2.7418301
-10.169089 5.1563993 0.76665378 505.5 0 0 0 7.21772
-9.8060608 5.4305334 0.75890756 655.5 0 0 0 7.81036
-7.2267947 5.3597174 0.62344432 597.25 0 0 0 9.9557343
5.3554049 5.2616191 0.69063616 339 0 0 0 37.398201
6.0016847 5.0104713 0.71792102 412 0 0 0 38.677231
6.7429852 5.3458114 0.99634296 472 0 0 0 39.060501
-13.316561 5.7805996 0.78297216 344 0 0 0 6.2418499
-9.6811762 5.781013 0.71963263 639.33331 0 0 0 8.3295364
-8.0779819 5.5564713 0.55268216 720 0 0 0 9.3721104
-7.1897583 5.894784 0.98410463 561.5 0 0 0 10.738595
-6.7689929 5.6883583 0.72580296 941 0 0 0 10.93084
-2.0748036 5.8937645 0.54909968 926 0 0 0 19.5233
-1.712996 5.7739468 0.73313612 792.36365 0 0 0 20.338345
-1.2861981 5.6801925 0.77157778 637.22223 0 0 0 21.384926
-0.80532283 5.8909025 0.84314537 577.85712 0 0 0 22.74992
3.247443 5.9170341 0.62216264 935.66669 0 0 0 32.793747
3.6059945 5.8592629 0.63420182 708 0 0 0 33.572281
4.9857326 5.615397 0.69076002 171 0 0 0 36.317478
5.3738499 5.8114648 0.64625865 332.39999 0 0 0 36.633766
6.0930543 5.9030209 0.98282772 217 0 0 0 37.498322
-10.077781 6.2429962 0.94984657 477 0 0 0 8.5907898
-9.6547756 6.3141627 0.64283508 608 0 0 0 8.9852304
-6.7233353 6.2377129 0.86591685 838 0 0 0 11.705795
-6.4610581 6.1444731 0.51632333 778.5 0 0 0 11.90252
-2.3480091 6.1976991 0.57916749 191 0 0 0 19.125549
-0.64242184 6.2252016 0.77128983 532.20001 0 0 0 23.260185
-0.37554407 6.2860718 0.66694301 721.33331 0 0 0 23.943644
2.7588189 6.381814 0.70633978 887.79999 0 0 0 31.312382
3.1862118 6.2568579 0.7732324 813 0 0 0 32.306313
3.7448032 6.0755277 0.77155274 755.66669 0 0 0 33.573784
5.2209339 6.3312531 0.74957395 294 0 0 0 35.729958
5.7901716 6.1946268 0.98211676 232 0 0 0 36.715569
6.4874306 6.2778344 0.59679186 155 0 0 0 37.498322
7.0185404 6.1491361 0.84909928 249 0 0 0 38.274559
-1.3188815 6.8780656 0.78893834 477.66666 0 0 0 21.859392
-0.97604299 6.9025993 0.78789693 462 0 0 0 22.64444
-0.36435279 6.6101685 0.75492191 560 0 0 0 24.00864
2.4740715 6.6982608 0.65237594 680 0 0 0 30.448719
2.6394665 6.6372237 0.82733762 895 0 0 0 30.8384
5.2982016 6.5876322 0.7722131 587 0 0 0 35.53614
-1.1995631 7.2390285 0.64868253 523 0 0 0 22.24983
2.6432958 7.1432748 0.87894028 857 0 0 0 30.448719
5.3739071 7.2051325 0.59335858 329.5 0 0 0 34.945442
6.0647974 7.1599112 0.85299599 299 0 0 0 35.923779
-7.3185406 7.6925282 0.61288172 1073.5 0 0 0 12.678525
-6.6781569 7.739481 0.59502637 1355.5 0 0 0 13.46624
-6.2261496 7.7725539 0.58322376 1502 0 0 0 14.05456
-5.7939148 7.7978249 0.57246637 1562 0 0 0 14.638266
-5.1970177 7.7536864 0.55486405 1307.5 0 0 0 15.42539
-4.6793313 7.8469405 0.62345618 1174.3334 0 0 0 16.26173
-4.2067852 7.8296146 0.53660268 1727 0 0 0 16.979874
-3.7334304 7.8430929 0.52839905 1334.5 0 0 0 17.755779
-3.3123641 7.9368362 0.5266602 1544.5 0 0 0 18.547365
3.6686933 7.506083 0.55085731 464 0 0 0 32.015282
5.3526926 7.557477 0.72645605 172 0 0 0 34.556873
-3.7037172 8.0308695 0.75700033 154 0 0 0 17.951281
-0.72367209 8.124855 0.51870853 1736 0 0 0 23.418808
-0.18967021 8.1401072 0.58827573 1172 0 0 0 24.466232
0.2824274 8.1934204 0.52712709 1922 0 0 0 25.380033
0.79379326 8.2264156 0.53369546 2029.5 0 0 0 26.352982
1.2095677 8.2459507 0.53989136 1847 0 0 0 27.134905
1.7447983 8.2832632 0.55023235 1781.3334 0 0 0 28.107782
2.2982759 8.3204536 0.56251884 1591 0 0 0 29.07918
2.6264839 8.2964239 0.56799376 758 0 0 0 29.67308
6.1556702 9.3877773 0.73024839 176 0 0 0 33.962502
4.5902615 -31.016954 1.0419755 66 0 0 0 72.301056
5.374146 -31.032145 1.0466303 53 0 0 0 71.911537
0.74647605 -30.876835 1.0268865 68 0 0 0 74.253166
3.0341423 -30.918627 1.0325681 221 0 0 0 73.085823
3.8030283 -30.922522 1.0354621 113 0 0 0 72.693077
16.453888 -30.789886 1.1652455 37 0 0 0 66.824532
-14.129499 -28.059326 1.0344466 7 0 0 0 82.074051
-27.370974 -27.367922 1.2707511 37 0 0 0 87.164734
-28.149862 -26.797993 1.2765517 30 0 0 0 87.550629
-18.966921 -25.568897 1.0488334 10 0 0 0 84.812523
1.1909099 -24.524109 1.4243975 71 0 0 0 73.865295
1.7781872 -24.295788 1.4135004 38 0 0 0 73.473396
-5.338088 -23.725496 1.4058377 41 0 0 0 78.167282
-1.1853913 -23.862419 1.3855705 95 0 0 0 75.426247
-8.2858315 -23.133917 1.4185964 17 0 0 0 80.11911
-6.1059532 -22.028769 1.3228869 26 0 0 0 78.94265
-5.4344134 -21.654491 1.2931677 67 0 0 0 78.552071
13.881141 -20.791491 1.4607087 28 0 0 0 65.254562
-7.2341313 -18.73184 1.1654898 33 0 0 0 80.504478
-6.1909657 -18.712053 1.1449791 74 0 0 0 79.729355
-5.6468616 -18.582916 1.1290009 86 0 0 0 79.340485
-8.3245344 -17.585405 1.1300921 54 0 0 0 81.681671
12.666413 -16.248831 1.2128707 87 0 0 0 64.077072
-18.099186 -15.611223 1.3845938 18 0 0 0 88.33049
-5.5257235 -15.425162 1.3651477 23 0 0 0 80.11911
-6.9602847 -14.706595 1.3554829 109 0 0 0 81.681671
-6.0497584 -14.591661 1.3170918 127 0 0 0 80.900253
19.716364 -14.621913 1.453215 34 0 0 0 59.764698
-6.427774 -14.489135 1.3214692 9 0 0 0 81.294495
-2.7442753 -13.745501 1.1740514 607 0 0 0 77.78109
-2.3698082 -13.595122 1.3242223 403.5 0 0 0 77.383614
-22.357674 -12.664689 1.4912854 55 0 0 0 91.460815
-17.485538 -12.314459 1.2447407 34 0 0 0 89.90744
-7.369103 -12.289493 1.1979817 78 0 0 0 83.245491
-6.8639102 -12.110043 1.1646881 66 0 0 0 82.865936
-17.863356 -11.935747 1.2508234 50 0 0 0 90.295105
-16.133564 -11.965243 1.1706752 36 0 0 0 89.510872
-7.1191211 -11.872005 1.4943396 32 0 0 0 83.245491
-6.3059373 -11.789242 1.4443518 35 0 0 0 82.470222
-6.5100517 -11.484839 1.4266456 360 0 0 0 82.865936
-18.169554 -10.890388 1.2350391 74 0 0 0 91.083717
-16.623528 -10.526901 1.1491253 71 0 0 0 90.690331
-7.8627276 -10.599814 1.4267174 55 0 0 0 84.812523
-7.3142309 -10.657727 1.2411261 197.5 0 0 0 84.220169
-6.8331947 -10.786191 1.0713233 373 0 0 0 83.641235
-7.6482382 -10.310623 1.077271 17 0 0 0 84.812523
-6.6334023 -10.470369 1.3416643 220 0 0 0 83.641235
-7.7171097 -9.6414223 1.3375707 34.5 0 0 0 85.39859
-8.1551676 -9.2232628 1.3339562 62.5 0 0 0 86.183716
-4.8921361 -9.146492 1.3828847 174 0 0 0 82.470222
-4.1196656 -9.2824888 1.3546872 104 0 0 0 81.294495
-8.3621893 -8.7841864 1.3148191 37 0 0 0 86.780731
-4.2021065 -8.8748655 1.3109266 112 0 0 0 81.681671
8.4082975 -8.8531075 1.0404788 267 0 0 0 62.50528
8.46208 -8.483284 1.1681319 757.5 0 0 0 62.12043
8.7350845 -8.3363895 1.1776271 593 0 0 0 61.73024
9.2259512 -8.3801155 1.2153457 506.5 0 0 0 61.333038
-8.3312788 -7.5559025 1.49885 30 0 0 0 87.942123
11.157282 -7.6650553 1.1575134 377 0 0 0 59.184883
40.265339 -7.9562778 1.4658582 7 0 0 0 52.736191
-9.1685696 -7.1584063 1.2641267 78 0 0 0 89.120766
9.134409 -7.3269711 1.1462222 377.75 0 0 0 60.356827
11.791435 -7.2731819 1.1860893 327 0 0 0 58.402199
15.177697 -7.1780682 1.0171456 99 0 0 0 56.641113
15.524083 -7.3394127 1.4677883 185 0 0 0 56.641113
31.924246 -7.130456 1.1726763 53 0 0 0 53.123039
40.845779 -7.03196 1.4840311 19 0 0 0 52.340714
14.854816 -6.5818849 1.3924739 135 0 0 0 56.248859
14.97444 -6.1986284 1.3906645 105 0 0 0 55.858841
15.866586 -6.1139679 1.458867 150 0 0 0 55.462967
17.972382 -6.4217935 1.1584573 126 0 0 0 55.077541
18.464449 -6.0891294 1.1814051 149 0 0 0 54.69622
21.332399 -6.4547696 1.3509041 57 0 0 0 54.292801
15.327409 -5.9086471 1.0007915 202 0 0 0 55.462967
21.624308 -5.9662895 1.361694 93 0 0 0 53.908447
6.8384061 1.9243144 1.1784894 309 0 0 0 45.31015
8.2353745 1.8801953 1.1810247 213 0 0 0 46.093391
8.7262478 1.8772399 1.3555911 325.5 0 0 0 46.285755
4.0523028 2.4841936 1.2794288 5086.6665 0 0 0 41.019409
5.8766184 2.1391139 1.3555465 408 0 0 0 44.144993
6.1649976 2.2679977 1.258267 513.85712 0 0 0 44.08276
6.60671 2.0973318 1.2096049 526.66669 0 0 0 44.786701
7.0687418 2.3727522 1.0499191 372 0 0 0 44.527061
7.8004093 2.1904538 1.2047201 495 0 0 0 45.311115
8.5920143 2.3003063 1.1312672 445.5 0 0 0 45.508411
10.21961 2.1962771 1.1924133 327 0 0 0 46.285755
11.488261 2.3198743 1.0452274 207 0 0 0 46.478119
11.726777 2.0672395 1.3508314 497 0 0 0 46.869007
12.220577 2.1544852 1.1031555 182 0 0 0 46.869007
3.7865019 2.6865444 1.251375 5292.9375 0 0 0 39.964375
5.3187084 2.8950582 1.2400849 774 0 0 0 41.800049
5.7905631 2.7263415 1.2544912 528 0 0 0 42.713581
6.0987601 2.6608086 1.2313979 694.5 0 0 0 43.164341
5.3773665 3.1022902 1.2922269 731.66669 0 0 0 41.408314
5.578424 3.0348537 1.0612615 838 0 0 0 41.800049
6.1777778 3.1614151 1.2086169 487.66666 0 0 0 42.188049
6.3327622 3.6463759 1.3971689 521 0 0 0 41.408314
28.873297 3.6210032 1.0871559 12 0 0 0 47.655128
4.9643207 4.3695502 1.2684412 683.33331 0 0 0 38.274559
5.1533599 4.1834726 1.3070216 584.59998 0 0 0 38.907192
4.805727 4.6150479 1.3608435 604.25 0 0 0 37.594769
5.383749 4.9742398 1.2190169 217 0 0 0 37.889008
-26.496176 5.1251802 1.3914871 40 0 0 0 2.7418301
-10.560706 5.1925902 1.217164 317 0 0 0 7.0240698
-10.288584 5.3728995 1.203001 692 0 0 0 7.4113698
5.3384914 5.3125877 1.0635877 239 0 0 0 37.300529
5.7670965 5.3251104 1.2054713 376 0 0 0 37.88644
6.3424907 5.2939954 1.3685775 503 0 0 0 38.677231
6.5073361 5.1628618 1.1688396 350 0 0 0 39.060501
7.2128644 5.1561141 1.0251296 147 0 0 0 39.844151
-10.157125 5.7880239 1.2149266 506 0 0 0 8.0046349
-1.7227218 5.8895888 1.1419685 1018 0 0 0 20.400908
-1.2654184 5.8141842 1.2236015 832.25 0 0 0 21.519386
-0.8496412 5.8893023 1.1539289 780.25 0 0 0 22.640368
5.1901007 5.5636573 1.4529454 142 0 0 0 36.715569
6.6522741 5.9768114 1.0339741 293.5 0 0 0 38.081783
-0.64739019 6.0815172 1.2238607 786 0 0 0 23.221386
-0.43201271 6.3039055 1.031822 742 0 0 0 23.81365
5.7828879 6.189847 1.4016354 169 0 0 0 36.715569
6.057466 6.4796591 1.2448639 197 0 0 0 36.715569
6.6402173 6.1196275 1.2669362 278 0 0 0 37.889008
2.8761895 6.7409539 1.0295067 821 0 0 0 31.23679
3.1377792 6.6549416 1.0344779 793.5 0 0 0 31.820122
5.7942343 6.5158095 1.2242289 272 0 0 0 36.317478
-6.7563534 7.8181553 1.3572867 29.5 0 0 0 13.46624
-4.6612687 7.958837 1.0034869 160 0 0 0 16.389151
5.3403764 7.7476125 1.3160866 57 0 0 0 34.359207
6.99263 9.1141224 1.034776 117 0 0 0 35.136341
6.7412519 9.7452297 1.0652398 175 0 0 0 34.359207
4.29883 12.384253 1.1648397 211 0 0 0 30.06093
4.2981491 14.635937 1.3465056 204 0 0 0 29.27593
3.7500908 15.553564 1.4073633 164 0 0 0 28.49666
3.5630889 16.535452 1.4840637 118 0 0 0 28.11352
0.7568022 -31.326529 1.8081557 18 0 0 0 74.253166
4.6245494 -31.254131 1.8229046 19 0 0 0 72.301056
20.367155 -24.819677 1.870872 78 0 0 0 63.687328
-17.257298 -24.49745 1.722229 18 0 0 0 84.415329
-13.090545 -24.479628 1.5973835 15 0 0 0 82.470222
-15.941848 -23.85182 1.6501217 36 0 0 0 84.025009
-17.412796 -23.473091 1.6808999 19 0 0 0 84.812523
-17.807545 -22.813538 1.665116 30 0 0 0 85.200623
-3.394851 -22.83123 1.911857 15 0 0 0 76.991058
-6.6264343 -21.825901 1.8873215 49 0 0 0 79.340485
-5.4065776 -21.557558 1.8404708 49 0 0 0 78.552071
-4.8200345 -21.432499 1.8199224 12 0 0 0 78.167282
-21.021236 -20.011684 1.6725117 31 0 0 0 87.550629
-7.3375106 -19.008976 1.6890525 69 0 0 0 80.504478
-6.1534429 -18.608318 1.6263487 31 0 0 0 79.729355
-5.1106143 -18.44153 1.5892388 15 0 0 0 78.94265
-20.97558 -17.212852 1.5676832 26 0 0 0 88.724968
-8.4443083 -16.769096 1.5587918 12 0 0 0 82.074051
14.331081 -16.623529 1.8383856 62 0 0 0 63.297661
12.819678 -16.440729 1.7462401 98 0 0 0 64.077072
14.637924 -16.159334 1.8275797 24 0 0 0 62.896008
-7.8297944 -15.54716 1.8702193 24 0 0 0 82.074051
-17.499617 -15.099442 1.9152923 19 0 0 0 88.33049
-5.8398046 -15.122734 1.7442847 55 0 0 0 80.504478
-5.48981 -15.323988 1.7514428 219 0 0 0 80.11911
-4.2155051 -15.202411 1.6990844 46 0 0 0 78.94265
-6.9873629 -14.763438 1.7569596 48 0 0 0 81.681671
-6.0151033 -14.507396 1.6907892 128 0 0 0 80.900253
