# .PCD v0.7 - Point Cloud Data file format
VERSION 0.7
FIELDS x y z intensity normal_x normal_y normal_z curvature
SIZE 4 4 4 4 4 4 4 4
TYPE F F F F F F F F
COUNT 1 1 1 1 1 1 1 1
WIDTH 944
HEIGHT 1
VIEWPOINT 0 0 0 1 0 0 0
POINTS 944
DATA ascii
13.920198 -5.68712 1.2432117 328 0 0 0 55.746033
15.282166 -5.8065662 1.3480988 252 0 0 0 55.355301
4.3772402 -5.3860822 1.2357295 673.25 0 0 0 63.649857
4.6327138 -5.3538375 1.3033916 420.33334 0 0 0 63.16452
5.1422701 -5.381072 1.1848204 365 0 0 0 62.383099
10.979938 -5.4688659 1.0216272 498 0 0 0 56.916019
11.394466 -5.3281684 1.0463731 366 0 0 0 56.523487
18.405678 -5.4760017 1.0971997 61 0 0 0 54.18248
19.178322 -5.1941681 1.1335529 48 0 0 0 53.801086
44.339806 -5.1801257 1.4039458 39 0 0 0 51.450752
17.588387 -3.8445199 1.0294604 305 0 0 0 53.013889
-25.213964 -1.1699734 1.4519184 15 0 0 0 98.705475
-22.847958 -0.49662682 1.3180304 41 0 0 0 99.09108
-8.2878876 3.477268 1.2216331 640 0 0 0 6.2281799
-8.1185055 3.7630768 1.3236216 568.5 0 0 0 6.8115549
-7.8129244 3.7322233 1.2820246 628.5 0 0 0 7.0061398
-15.941217 4.1128907 1.4304682 55 0 0 0 3.9024
-10.584111 4.4544897 1.2764016 254 0 0 0 6.2281799
-8.1144991 4.2529702 1.2434978 425.5 0 0 0 7.5955501
-7.3939233 4.224617 1.3651687 659.33331 0 0 0 8.180913
-4.8241887 4.482708 1.2179884 937 0 0 0 11.869631
-4.4881825 4.4851007 1.0185307 1005 0 0 0 12.45452
-12.588761 4.5939164 1.1648859 407 0 0 0 5.4481602
-12.430679 4.8837814 1.160217 308 0 0 0 5.8467002
-10.41746 4.6869574 1.2691873 298 0 0 0 6.6136398
-9.058198 4.6145296 1.1304168 271 0 0 0 7.3986402
-8.3963099 4.5356202 1.0618174 335 0 0 0 7.79246
-7.8282571 4.9994631 1.4865636 130 0 0 0 8.9601097
-7.0802755 4.5150199 1.139667 292 0 0 0 8.9601097
-5.0010295 4.5376191 1.083245 728 0 0 0 11.67615
-4.6632442 4.6651783 1.2195534 745.5 0 0 0 12.455726
-4.1511588 4.7691169 1.1972728 991.5 0 0 0 13.559833
-3.9976363 4.8625078 1.0100026 1179 0 0 0 14.01302
-20.748489 5.364707 1.3249217 96 0 0 0 3.9024
-11.226215 5.3890009 1.3811862 124 0 0 0 7.00947
-9.4187183 5.3956609 1.469355 273 0 0 0 8.1824303
-7.8463688 5.1482611 1.0427704 425.5 0 0 0 9.1520948
-4.1910253 5.3711205 1.2587018 645.66669 0 0 0 14.409169
-3.9027956 5.2606544 1.3705277 860.33331 0 0 0 14.801663
-1.8988627 5.4786201 1.0733424 1098.5 0 0 0 19.669636
-13.555264 5.7166028 1.2749908 146 0 0 0 6.2281799
-10.411575 5.9722013 1.3299341 182 0 0 0 8.1824303
-9.2099648 5.5789824 1.4571978 305 0 0 0 8.5678501
-5.246304 5.8066545 1.4435736 631 0 0 0 13.23807
-4.6328673 5.948102 1.2056772 606 0 0 0 14.41331
-4.0678892 5.7791224 1.3045106 544 0 0 0 15.1905
-2.272619 5.7919374 1.3539711 826.5 0 0 0 19.018448
-1.7321523 5.6600018 1.1960462 826.66669 0 0 0 20.254396
-1.2891257 5.873054 1.1860539 631.25 0 0 0 21.516411
0.80675507 5.9200592 1.3236187 761.25 0 0 0 27.070004
1.0829662 5.9193692 1.3573765 648 0 0 0 27.780928
-19.330805 6.020937 1.2503885 83 0 0 0 4.6758099
-10.637396 6.4548483 1.3772594 17 0 0 0 8.5678501
-9.1904268 6.2027698 1.4986762 387 0 0 0 9.34408
-5.1604533 6.0017228 1.4596742 547 0 0 0 13.62207
-4.4695969 6.0373616 1.2010955 646 0 0 0 14.80118
-2.1367052 6.2021132 1.3717835 380 0 0 0 19.669636
-1.7825429 6.435544 1.395669 415 0 0 0 20.64327
-1.1658872 6.0759029 1.1931566 630.33331 0 0 0 21.932825
-0.93865871 6.3105402 1.2560261 757 0 0 0 22.57712
0.46817303 6.2883015 1.3175145 785.33331 0 0 0 26.10025
0.60774523 6.1339111 1.2868084 670.33331 0 0 0 26.481649
1.2166574 6.0703802 1.2945964 227 0 0 0 28.039499
1.7735306 6.2249336 1.4457424 530.59998 0 0 0 29.288471
2.1677911 6.4834352 1.4258369 132 0 0 0 29.985519
0.89970767 6.5436687 1.2168708 410 0 0 0 27.070004
1.3044401 6.7567096 1.1527985 703.33331 0 0 0 27.910212
1.6906527 6.6647439 1.4341476 631 0 0 0 28.82572
5.3435135 6.9004097 1.1612191 767.5 0 0 0 35.255695
5.6008978 6.8728809 1.2892215 856.5 0 0 0 35.65073
-21.31279 7.2197647 1.3856537 79 0 0 0 5.06428
-9.2678604 7.3043942 1.0188378 296 0 0 0 10.50939
-1.5814594 7.0655446 1.1548758 110 0 0 0 21.41378
4.9616513 7.29812 1.3929342 645 0 0 0 34.276958
5.1194744 7.1434021 1.3872163 525 0 0 0 34.67366
6.0991983 7.2918749 1.4973588 720 0 0 0 35.849079
8.3922958 7.4343562 1.3432682 574.5 0 0 0 38.189007
8.6674767 7.3028374 1.3563454 244 0 0 0 38.57695
-21.250957 7.7848125 1.3920095 65 0 0 0 5.4481602
-10.996383 7.8360143 1.1643173 76 0 0 0 9.73557
-10.062552 7.5437675 1.0851525 173 0 0 0 10.12769
-7.1122537 7.5265455 1.1429551 466 0 0 0 12.85075
-6.7924933 7.5483475 1.1206708 410 0 0 0 13.23807
-6.1344957 7.7150297 1.0872281 881 0 0 0 14.213165
-5.7409534 7.7899213 1.1851797 925.5 0 0 0 14.80118
-5.3646278 7.8663616 1.1659323 879.5 0 0 0 15.382251
-4.8757215 7.9596066 1.2572205 957.66669 0 0 0 16.160669
-4.289854 7.835484 1.3129441 991.25 0 0 0 16.933365
-3.84655 7.9238868 1.2942636 934.5 0 0 0 17.71962
4.9922853 7.744833 1.4529727 387 0 0 0 33.89492
5.7108221 7.7506208 1.0400977 582 0 0 0 34.866333
8.2495575 7.6802616 1.3504159 501.5 0 0 0 37.807209
-10.141895 8.0015926 1.4251248 122 0 0 0 10.50939
-3.5960751 8.1633711 1.3099563 785.5 0 0 0 18.30035
-2.5246537 8.393096 1.1775458 295 0 0 0 20.253019
-2.0971735 8.4589176 1.170187 802 0 0 0 21.03104
9.513505 8.4200001 1.0508603 159 0 0 0 38.189007
-1.7496119 8.5452414 1.242435 216 0 0 0 21.6782
-1.2570041 8.6408472 1.2786838 247.16667 0 0 0 22.581163
-0.71685123 8.6285954 1.2671123 935.75 0 0 0 23.560986
-0.29532874 8.8773823 1.2982955 408.25 0 0 0 24.343418
0.92187738 8.966876 1.315166 759 0 0 0 26.481649
8.7237139 8.5289755 1.0106854 416 0 0 0 37.40686
9.4008541 8.7437935 1.0616728 417 0 0 0 37.807209
0.25935471 9.0751257 1.3256824 117.33334 0 0 0 25.316992
0.70253015 9.0127392 1.3192647 661.5 0 0 0 26.10025
1.2747345 9.2228107 1.2889189 118.6 0 0 0 27.029989
1.6555065 9.2642899 1.2542729 121 0 0 0 27.65164
3.3597178 9.5545902 1.2196574 216 0 0 0 30.185329
3.6737735 9.5570593 1.2747905 531.66669 0 0 0 30.643206
4.2595019 9.7292519 1.2769374 260.25 0 0 0 31.354061
4.7555189 9.8493996 1.31322 226.5 0 0 0 31.94067
5.1595039 9.7427416 1.3233532 486.25 0 0 0 32.524334
5.659934 9.7899132 1.3560114 486 0 0 0 33.10424
6.177248 10.093239 1.2713661 39 0 0 0 33.500408
6.7897301 10.215862 1.1670299 161 0 0 0 34.085941
8.374835 10.497688 1.436752 52 0 0 0 35.452381
8.4112625 10.543895 1.1146443 37 0 0 0 35.452381
8.9553566 10.670639 1.319283 56 0 0 0 35.849079
9.4831505 10.746721 1.1818331 36 0 0 0 36.2355
10.071874 10.858263 1.2198778 142 0 0 0 36.63065
10.732369 11.009081 1.2648736 19 0 0 0 37.020439
-6.8887596 -9.294446 1.826906 423 0 0 0 84.648323
-6.4200778 -9.122611 1.762763 426 0 0 0 84.253349
-5.0423636 -9.4454432 1.9578742 533 0 0 0 82.30574
-4.6612687 -9.2728891 1.8987674 505 0 0 0 81.92424
-4.3245659 -9.1568937 1.8534554 542 0 0 0 81.527489
-2.7278392 -9.0141716 1.9571006 539 0 0 0 79.179878
-5.2538409 -8.7744446 1.6188288 444 0 0 0 83.086403
-3.7673678 -8.7995195 1.7537973 644.5 0 0 0 80.934532
-3.1814885 -8.5712519 1.6764932 705 0 0 0 80.157173
-2.3067334 -8.7710972 1.8859236 545 0 0 0 78.595886
-1.8204157 -8.6249886 1.8338304 702 0 0 0 77.809723
-4.6539507 -8.4632721 1.5307465 587 0 0 0 82.504349
-2.7444286 -8.3242455 1.608391 642 0 0 0 79.566154
-2.2417984 -8.1107492 1.545647 772 0 0 0 78.79055
-1.8070765 -8.0699682 1.519165 564 0 0 0 78.003922
-1.2433325 -8.419116 1.7716669 850 0 0 0 76.841888
-0.70802993 -8.2834435 1.731107 863.5 0 0 0 75.859322
-0.29824257 -8.2347889 1.7160019 790 0 0 0 75.079712
0.20446372 -8.0977259 1.6875092 767.66669 0 0 0 74.102737
0.7068032 -8.1482124 1.7032418 704.5 0 0 0 73.12619
1.2179568 -8.159812 1.7179394 712 0 0 0 72.154816
1.6194212 -8.1054468 1.7206699 322 0 0 0 71.372437
2.2679827 -8.1594229 1.7623841 667.66669 0 0 0 70.198235
2.818289 -8.1618958 1.7959632 633 0 0 0 69.21962
3.2732334 -8.1533318 1.8269246 618 0 0 0 68.441605
3.7063947 -8.0614433 1.844709 661 0 0 0 67.662491
4.2084703 -8.0794582 1.8931476 511 0 0 0 66.879494
4.6802111 -8.2286882 1.9658159 515 0 0 0 66.28833
3.339437 -7.5102973 1.5090446 757 0 0 0 67.860336
3.5796502 -7.5442972 1.5326107 837 0 0 0 67.464653
4.6803913 -7.5654907 1.6306163 679.5 0 0 0 65.708916
5.2925749 -7.6802249 1.707863 671 0 0 0 64.920204
5.7291379 -7.6912699 1.7548658 616 0 0 0 64.339821
7.1804471 -7.8804789 1.9464086 596 0 0 0 62.771481
9.7346859 -7.5415301 1.9359708 431 0 0 0 60.032001
3.7709355 -7.4673829 1.5353093 728 0 0 0 67.073151
4.1395092 -7.4938107 1.5705228 768.5 0 0 0 66.487083
6.4395189 -7.0708447 1.5127369 747 0 0 0 62.771481
7.0926228 -7.0548129 1.5804088 559 0 0 0 61.985779
7.8135056 -7.0396428 1.659284 544 0 0 0 61.210129
8.4228745 -7.2192206 1.7480549 413 0 0 0 60.822514
9.036376 -7.3653207 1.8349427 458 0 0 0 60.424919
12.160643 -7.2185497 1.8657931 346 0 0 0 58.089279
-4.3827457 -6.6840386 1.7313404 415 0 0 0 83.73838
7.344923 -6.9539676 1.5973375 715 0 0 0 61.593712
9.6021194 -6.7101483 1.5525604 507 0 0 0 59.260281
10.144589 -6.7223215 1.6111774 529 0 0 0 58.8605
11.032988 -6.9243422 1.7217277 356 0 0 0 58.472206
14.157416 -6.6155047 1.6715258 281 0 0 0 56.523487
15.271752 -6.6813054 1.7802188 214 0 0 0 56.13763
27.398624 -6.695179 1.5938873 55 0 0 0 53.400208
13.008075 -6.4752645 1.557155 275 0 0 0 56.916019
19.304974 -6.2609682 1.6640111 116 0 0 0 54.57164
21.468243 -6.3805947 1.8321021 86 0 0 0 54.18248
1.2057518 -5.6889153 1.7199887 374.875 0 0 0 71.177376
4.310987 -5.5059228 1.9775378 340 0 0 0 63.945461
4.3107939 -5.3421969 1.7378429 549.40002 0 0 0 63.708977
4.5548377 -5.2618899 1.7969484 409.66666 0 0 0 63.16452
50.810688 -4.6691632 1.5987995 36 0 0 0 51.060127
50.108921 -3.3617928 1.5731905 53 0 0 0 50.674358
49.947304 -2.1159666 1.5652266 53 0 0 0 50.278393
49.566017 -0.87695491 1.5515583 59 0 0 0 49.897793
49.159264 0.34220776 1.5380944 71 0 0 0 49.50259
51.580029 1.6311392 1.6121258 19 0 0 0 49.109032
-8.621932 3.7047088 1.809836 475 0 0 0 6.3566666
-8.0890055 3.629179 1.8550622 600 0 0 0 6.6136398
-7.7511091 3.8207483 1.9113104 432.5 0 0 0 7.2040548
-17.002478 4.3893523 1.9486405 93 0 0 0 3.9024
-9.0319824 4.3252082 1.6039413 288 0 0 0 7.00947
-8.6356087 4.2645044 1.7792387 351.5 0 0 0 7.2040548
-7.8036213 4.1290045 1.9156307 386.66666 0 0 0 7.6611867
-7.0489731 4.4959798 1.8493791 58.5 0 0 0 8.9601097
-16.856428 4.7947288 1.9437556 58 0 0 0 4.2870398
-15.556661 4.8373942 1.8071667 58 0 0 0 4.6758099
-13.246783 4.8367987 1.5650167 206 0 0 0 5.4481602
-12.714006 4.8140106 1.8411479 437.5 0 0 0 5.6474304
-8.3502598 4.5103893 1.7527028 445 0 0 0 7.79246
-7.7544723 4.6894665 1.8943546 186 0 0 0 8.5678501
-7.076118 4.5135188 1.5503616 10 0 0 0 8.9601097
-5.1592293 4.799932 1.7289612 698 0 0 0 11.869631
-4.7734985 4.8046098 1.7464734 641.875 0 0 0 12.505254
-4.3940034 4.927844 1.7563378 801.66669 0 0 0 13.36607
58.829407 4.7704935 1.836917 25 0 0 0 48.337448
-19.075281 5.4290876 1.7179277 32 0 0 0 4.2870398
-12.739789 5.0069818 1.5188091 197 0 0 0 5.8467002
-7.5612702 5.0932627 1.9049339 636 0 0 0 9.34408
-5.1824765 5.1951838 1.5343659 411 0 0 0 12.45693
-4.5797882 5.1830978 1.614136 416 0 0 0 13.43007
-4.2662616 5.1997814 1.8164518 847.5 0 0 0 14.015355
-3.9567125 5.0629454 1.5003465 994 0 0 0 14.41331
-19.24832 5.9924006 1.7446221 51 0 0 0 4.6758099
-17.045391 5.7653613 1.9931015 83 0 0 0 5.06428
-5.0934992 5.6352649 1.5869938 356 0 0 0 13.23807
-2.1048815 5.7049999 1.6199678 1001.6667 0 0 0 19.341953
-1.7362438 5.7564487 1.6829714 778.25 0 0 0 20.302834
-1.4057935 5.8871775 1.6377543 660 0 0 0 21.22241
-18.270222 6.1813169 1.668815 70 0 0 0 5.06428
-1.6770525 6.3430138 1.767679 789.5 0 0 0 20.837154
-1.2692456 6.3689122 1.6762943 352.33334 0 0 0 21.81041
0.80922973 6.1926045 1.6527143 753.5 0 0 0 26.972931
1.2319018 6.1416869 1.6956786 668.33331 0 0 0 28.041159
1.6755309 6.1399679 1.6819468 643 0 0 0 29.114941
2.0775855 6.2243772 1.5307969 688 0 0 0 29.985519
58.626938 6.2122431 1.8337015 14 0 0 0 47.943859
-2.0909827 6.9080172 1.5067222 558 0 0 0 20.253019
-1.8307796 6.613574 1.6012866 434.5 0 0 0 20.642029
-1.4931473 6.6510959 1.5901513 360 0 0 0 21.41378
1.4887837 6.5548496 1.5674137 389 0 0 0 28.432329
4.9787922 7.3222895 1.6172094 748 0 0 0 34.276958
5.1887364 7.238184 1.6262797 683 0 0 0 34.67366
5.9451151 7.4747419 1.9768386 206 0 0 0 35.452381
8.8182983 7.2453012 1.6482387 498.5 0 0 0 38.775326
9.0956831 7.2857428 1.8269681 552 0 0 0 38.973701
9.7713175 7.4356427 1.6181203 130 0 0 0 39.361248
-11.140059 7.9403477 1.509683 61 0 0 0 9.73557
-10.941971 7.7960482 1.8114702 24 0 0 0 9.73557
-5.2914329 7.863184 1.68381 750 0 0 0 15.478126
-4.8633237 7.9412642 1.8262556 913.75 0 0 0 16.160669
-4.2826195 7.824625 1.7497238 874.75 0 0 0 16.933365
-3.8383207 7.9096737 1.7244245 943.5 0 0 0 17.71962
4.8739791 7.5628572 1.6428016 686 0 0 0 33.89492
5.8403993 7.7279239 1.7634292 319 0 0 0 35.05901
8.4712706 7.8858027 1.8147707 335 0 0 0 37.807209
8.5000868 7.5297885 1.7812533 535 0 0 0 38.189007
57.399117 7.5173593 1.8001194 22 0 0 0 47.550713
-28.815191 8.221158 1.8414894 45 0 0 0 4.2870398
-11.269818 8.4588089 1.5535312 60 0 0 0 10.12769
-3.5907807 8.1543598 1.7468827 718 0 0 0 18.30035
-3.3818643 8.2205439 1.6337537 28 0 0 0 18.697479
-2.0912583 8.4424257 1.8103886 381 0 0 0 21.03104
8.4023533 8.2183952 1.6975837 418.5 0 0 0 37.40686
12.753154 8.2785997 1.9943484 402 0 0 0 40.530762
-10.932924 8.6297646 1.8756464 56 0 0 0 10.50939
-1.043702 8.6803169 1.7108516 57 0 0 0 22.97402
-0.7338959 8.5891571 1.7499778 936.79999 0 0 0 23.521641
-0.29383278 8.8735228 1.7361209 417.75 0 0 0 24.34342
0.26102376 9.0794382 1.7751287 114.83334 0 0 0 25.316992
1.6738728 9.3557711 1.7369235 84 0 0 0 27.65164
2.2301898 9.2609205 1.6927135 676.40002 0 0 0 28.589685
2.6271734 9.2778931 1.6410284 671.5 0 0 0 29.212299
-11.786619 9.7919359 1.6856443 69 0 0 0 10.89562
3.3483286 9.5226097 1.5907459 11.5 0 0 0 30.185329
3.7487564 9.5167494 1.7376077 570 0 0 0 30.77224
4.1201172 9.7408667 1.6642402 19 0 0 0 31.16181
4.8731956 9.781889 1.8533986 249 0 0 0 32.136543
5.1495295 9.724432 1.729238 505 0 0 0 32.524338
5.6585889 9.787879 1.7752438 450 0 0 0 33.10424
12.903493 9.8023148 1.7245687 231 0 0 0 39.361248
-11.79316 10.298149 1.7208384 100 0 0 0 11.29419
6.2541122 10.219833 1.7307097 22 0 0 0 33.500408
6.6455564 10.277962 1.6150151 22 0 0 0 33.89492
7.0028396 10.263262 1.6387001 129 0 0 0 34.276958
7.5061383 10.433783 1.6937674 17 0 0 0 34.67366
-11.761335 10.791576 1.7529678 48 0 0 0 11.67615
4.7792726 10.549106 1.8188212 45 0 0 0 31.54631
9.4458923 10.703951 1.5247207 182 0 0 0 36.2355
9.667181 10.956092 1.919704 16 0 0 0 36.2355
10.060848 10.847149 1.7611963 138 0 0 0 36.63065
10.683081 10.958035 1.6316286 165 0 0 0 37.020439
-11.614493 11.194657 1.7702823 142 0 0 0 12.06311
11.475351 11.200154 1.7077686 28 0 0 0 37.40686
14.474048 11.564025 1.9669259 163 0 0 0 38.973701
-38.633472 -11.638878 2.3022554 19 0 0 0 94.815788
-7.9658437 -10.747587 2.4381068 302 0 0 0 84.648323
-7.4223657 -10.546844 2.35164 232 0 0 0 84.253349
-5.6531591 -10.590231 2.4862034 350 0 0 0 82.30574
-5.2830682 -10.510744 2.4369397 333 0 0 0 81.92424
-4.826715 -10.221104 2.342809 447 0 0 0 81.527489
-5.8929114 -9.8421106 2.0953479 447 0 0 0 83.086403
-5.4501996 -9.6320515 2.022634 490 0 0 0 82.70295
-4.2317514 -9.8860502 2.2305334 446.5 0 0 0 80.934532
-3.6934509 -9.5935202 2.1334631 415 0 0 0 80.353722
-3.1721711 -9.6304808 2.3524902 421 0 0 0 79.566154
-2.7903714 -9.6533451 2.33178 478 0 0 0 78.985062
-2.3974826 -9.6089506 2.2983396 418 0 0 0 78.401527
-0.34661698 -9.6908274 2.4886363 384.5 0 0 0 75.079712
0.47864717 -9.5198917 2.4464688 555 0 0 0 73.712303
-3.187109 -9.277832 2.037477 613.5 0 0 0 79.76339
-2.1063933 -9.4210625 2.3595006 423.5 0 0 0 78.003922
-1.7150494 -9.2453089 2.1838193 588 0 0 0 77.42347
-1.2593822 -9.3347626 2.1874571 563 0 0 0 76.647125
-0.77918625 -9.1445847 2.1320581 595 0 0 0 75.859322
0.18972036 -9.2074833 2.2306874 428.79999 0 0 0 74.180824
0.67411637 -9.0060892 2.0981042 605 0 0 0 73.318802
2.2771773 -9.0401325 2.1644468 444 0 0 0 70.585388
2.995779 -9.0237322 2.2067428 568 0 0 0 69.41172
3.2443409 -9.0238066 2.2252891 529 0 0 0 69.027512
3.638134 -9.0530519 2.2638872 495 0 0 0 68.441605
4.1638618 -9.0452852 2.3099048 510 0 0 0 67.662491
4.5882854 -9.0716572 2.3573921 501 0 0 0 67.073151
5.0106907 -9.3277216 2.4539614 353 0 0 0 66.685837
-0.32156098 -8.9663067 2.0848982 685.5 0 0 0 75.079712
0.88821799 -8.9185467 2.0823622 690 0 0 0 72.933586
1.2218441 -8.9190083 2.0915289 683.5 0 0 0 72.349579
1.556392 -8.90734 2.1004612 614 0 0 0 71.765289
2.4958749 -8.9715357 2.1620514 527 0 0 0 70.195717
2.7434843 -8.9982815 2.1837337 641 0 0 0 69.813583
6.2872458 -8.6547213 2.2169313 453 0 0 0 64.532227
10.037522 -8.5975981 2.403286 164 0 0 0 60.822514
12.838775 -8.5011883 2.4106772 215 0 0 0 58.8605
4.9934573 -8.2965269 2.0100374 501 0 0 0 65.906448
5.3592606 -8.4264383 2.0718367 590 0 0 0 65.511383
5.6840167 -8.4684458 2.1152155 630 0 0 0 65.115776
8.0510101 -8.0037622 2.0699928 423 0 0 0 61.985779
8.6483555 -8.1825895 2.1689651 449 0 0 0 61.593712
9.3206997 -8.3918438 2.2827129 384 0 0 0 61.210129
11.576535 -8.0846853 2.213953 195 0 0 0 59.260281
7.6248498 -7.9639316 2.0115712 426 0 0 0 62.383099
10.384703 -7.6419721 2.0250466 367 0 0 0 59.643799
13.615358 -7.6323509 2.0552151 240 0 0 0 57.69558
14.432099 -7.6278615 2.1472981 243 0 0 0 57.303459
15.635865 -7.7757726 2.2941158 153 0 0 0 56.916019
17.544407 -7.1592369 2.4847751 74 0 0 0 55.746033
18.01108 -7.3533463 2.071202 196 0 0 0 55.746033
37.809841 -7.2820506 2.1614597 48 0 0 0 52.623951
-4.4171357 -6.6193719 2.2454903 470 0 0 0 83.869469
18.260612 -6.9349003 2.0789135 131 0 0 0 55.355301
-4.515173 -6.4181757 2.1178265 216 0 0 0 84.253349
4.4683456 -6.0009642 2.2974629 4 0 0 0 64.339821
18.28178 -6.4318385 2.0623999 92 0 0 0 54.967312
1.2417568 -5.6460423 2.1505966 263.39999 0 0 0 71.058975
4.322155 -5.5179038 2.1545136 345 0 0 0 63.945461
4.3565626 -5.3961654 2.337817 377.79999 0 0 0 63.708977
4.6310053 -5.3478575 2.2617865 217 0 0 0 63.16452
44.293358 -5.1741638 2.4948771 37 0 0 0 51.450752
8.5413475 -4.2530861 2.3293438 144 0 0 0 56.916019
-24.883276 -1.1589829 2.0537474 34 0 0 0 98.705475
-22.04719 -0.48307177 2.3582411 64 0 0 0 99.09108
-14.640486 3.3943565 2.4079692 187 0 0 0 3.50822
-16.506866 3.8296826 2.2964668 130 0 0 0 3.50822
-14.24436 3.6713228 2.3562877 147 0 0 0 3.9024
-10.695153 3.8972611 2.1031802 330 0 0 0 5.4481602
-7.8305855 3.7424018 2.1320665 707 0 0 0 7.0078049
-16.068617 4.1444416 2.2482474 115 0 0 0 3.9024
-14.323177 4.2599306 2.3924122 157 0 0 0 4.4814248
-10.48221 4.1120324 2.0799768 363 0 0 0 5.8467002
-7.6052995 4.2649283 2.1765013 553.33331 0 0 0 8.0524397
-7.1645293 4.4866905 2.1764314 276 0 0 0 8.8293562
-16.044279 4.5599613 2.258745 108 0 0 0 4.2870398
-15.534295 4.8282046 2.2023089 211 0 0 0 4.6758099
-7.8714252 4.7605028 2.3699327 640 0 0 0 8.5678501
-4.7777052 4.7812123 2.0729067 10 0 0 0 12.45452
-15.754728 5.3238301 2.2500887 47 0 0 0 5.06428
-12.652445 5.3325973 2.195641 196 0 0 0 6.2281799
-8.9023724 5.0986972 2.1436682 431 0 0 0 8.1824303
-8.0441647 5.4215283 2.2618291 340 0 0 0 9.34408
-4.6010165 5.3392382 2.1614203 565 0 0 0 13.62207
-10.205822 5.8530073 2.1694462 96 0 0 0 8.1824303
-8.9864101 6.3926139 2.3016491 310 0 0 0 9.73557
1.3970971 6.5257368 2.0505881 551 0 0 0 28.235914
5.5439386 6.9771934 2.1757116 528 0 0 0 35.452381
5.2509494 7.251338 2.2068038 471.60001 0 0 0 34.748459
5.8812652 7.034719 2.1243756 403 0 0 0 35.849079
9.3359737 7.4761395 2.4658492 469 0 0 0 38.973701
-5.7139564 7.7542706 2.3591547 638.5 0 0 0 14.80118
-5.3397026 7.8309584 2.3215728 735.25 0 0 0 15.38225
-4.8592443 7.9337864 2.2786384 755.75 0 0 0 16.160669
-4.2569056 7.8228836 2.2471993 748 0 0 0 16.97237
-3.8329391 7.8983512 2.2587483 812.16669 0 0 0 17.71962
5.2030802 7.8540745 2.182035 390.5 0 0 0 34.085938
8.8468533 7.6412506 2.4112089 444 0 0 0 38.38298
9.3492985 7.67869 2.1956687 206 0 0 0 38.775326
-3.5882394 8.1478043 2.180356 523.5 0 0 0 18.30035
8.6297617 8.0312653 2.4310591 570 0 0 0 37.807209
9.413065 8.3324871 2.279892 206 0 0 0 38.189007
12.879785 8.3600273 2.3944993 277 0 0 0 40.530762
13.201296 8.1119833 2.2242174 254 0 0 0 40.921162
13.873459 8.0586205 2.1021025 44 0 0 0 41.307232
-1.2665532 8.7193785 2.2646904 122.33334 0 0 0 22.581163
-0.69115764 8.5926561 2.2578197 822 0 0 0 23.60033
-0.31528124 8.8484669 2.2305346 355.39999 0 0 0 24.304636
12.407012 8.955348 2.0072439 160 0 0 0 39.753471
12.684162 8.6864862 2.0163 103 0 0 0 40.14584
0.26005274 9.0674047 2.2173913 85.666664 0 0 0 25.316992
0.70315748 9.0054541 2.3182147 570 0 0 0 26.10025
12.417537 9.1987534 2.4103363 294 0 0 0 39.557358
13.171698 9.0184317 2.4880633 161 0 0 0 40.14584
3.6443467 9.5982695 2.2502337 293.25 0 0 0 30.57869
4.9950047 9.7213297 2.2580826 467 0 0 0 32.33242
5.2987385 9.7128754 2.1489501 484.5 0 0 0 32.716251
5.6577768 9.7847986 2.194303 464.5 0 0 0 33.10424
-13.700661 10.296905 2.304816 23 0 0 0 10.12769
-11.782375 10.286404 2.1020408 37 0 0 0 11.29419
-10.807076 10.407798 2.0153842 35 0 0 0 12.06311
4.8869162 10.11581 2.1820629 50.5 0 0 0 31.94067
6.2682009 10.240383 2.3282697 22.5 0 0 0 33.500408
65.356483 10.203162 2.0510504 9 0 0 0 47.164566
-11.910322 10.927032 2.1706409 72 0 0 0 11.67615
4.77425 10.535856 2.2456422 34 0 0 0 31.54631
8.2358198 10.588223 2.4311652 12 0 0 0 35.255695
9.5956182 10.874652 2.2652686 6 0 0 0 36.2355
10.05653 10.843204 2.3090575 85 0 0 0 36.63065
-13.233851 11.00173 2.3120947 67 0 0 0 10.89562
10.850693 11.131689 2.2326956 9 0 0 0 37.020439
5.1500502 12.134227 2.3925762 25 0 0 0 31.16181
4.6667128 14.911713 2.4450343 15 0 0 0 29.59602
-8.2953339 -11.787318 2.978673 262 0 0 0 84.253349
-6.6370382 -11.085288 2.6734149 298 0 0 0 83.086403
-5.3677807 -11.372932 2.9104409 332 0 0 0 81.527489
-4.9503546 -11.193049 2.8332303 291 0 0 0 81.129791
-6.1672955 -10.899889 2.5923297 341 0 0 0 82.70295
-4.2811594 -10.725643 2.6753361 355.5 0 0 0 80.546494
4.6849627 -10.510771 2.9466066 361 0 0 0 67.860336
-31.818647 -10.453649 2.7516851 15 0 0 0 94.426735
-3.7175767 -10.419203 2.5638371 283 0 0 0 79.960625
-3.1402998 -10.387356 2.7815871 179 0 0 0 79.179878
-2.8607574 -10.376307 2.7591772 431 0 0 0 78.790237
-2.0726905 -10.476836 2.7378573 251 0 0 0 77.615517
-0.2431244 -10.412689 2.9289834 194 0 0 0 74.878357
3.1925073 -10.018177 2.6951852 479.5 0 0 0 69.612656
3.8064284 -10.179235 2.7846034 387.5 0 0 0 68.832703
4.293859 -10.309575 2.8605721 431 0 0 0 68.245316
-2.3974547 -9.6090269 2.5411854 263 0 0 0 78.401527
-1.820163 -9.8342953 2.6893961 194.5 0 0 0 77.42347
-1.253652 -9.7479286 2.7004657 286.75 0 0 0 76.547981
-0.82884073 -9.7582302 2.6923223 293.5 0 0 0 75.859322
-0.46457025 -9.6895351 2.8493886 171.5 0 0 0 75.281059
0.86238116 -9.8589153 2.5389996 353 0 0 0 73.12619
1.3546315 -9.8789234 2.5578742 437.5 0 0 0 72.349579
1.6979288 -9.7082615 2.5282979 439 0 0 0 71.765289
2.4959061 -9.9011402 2.6181746 339 0 0 0 70.585388
2.7284257 -9.8008194 2.6086667 389 0 0 0 70.195717
6.3234634 -9.6652231 2.6738658 368 0 0 0 65.313583
6.8675413 -9.6965446 2.7494671 440 0 0 0 64.724632
7.3701382 -9.8797855 2.8507812 360 0 0 0 64.339821
9.707674 -9.6442223 2.8248396 232 0 0 0 61.985779
13.150537 -9.6703777 2.9587345 154 0 0 0 59.643799
-2.195612 -9.2838411 2.8025568 200.25 0 0 0 78.202728
-1.6850705 -9.3122864 2.8189795 200.66667 0 0 0 77.359459
0.23823084 -9.1829681 2.7737658 208.83333 0 0 0 74.102745
0.69772661 -9.3016205 2.7401085 308 0 0 0 73.318802
5.3554683 -9.4057512 2.5077143 426 0 0 0 66.28833
5.7176585 -9.4898472 2.5661273 369 0 0 0 65.906448
8.7948532 -9.1809149 2.6272461 234 0 0 0 62.383099
11.569834 -9.4225597 2.7084346 212 0 0 0 60.424919
12.268452 -9.497467 2.8143966 181 0 0 0 60.032001
16.3629 -9.167963 2.9270625 171 0 0 0 57.69558
-0.20834664 -8.8822298 2.8313973 228 0 0 0 74.878357
0.22839721 -8.8331175 2.7805328 262.66666 0 0 0 74.10273
8.2008591 -8.9955454 2.5171096 338 0 0 0 62.771481
14.224333 -8.9204397 2.6249311 184 0 0 0 58.472206
15.12644 -8.9734335 2.7474563 207 0 0 0 58.089279
32.904587 -8.8966942 2.7691884 11 0 0 0 53.801086
17.416433 -8.129693 2.9970026 143 0 0 0 56.523487
17.817909 -8.3171644 2.5782082 101 0 0 0 56.523487
34.378014 -8.3910065 2.8726518 69 0 0 0 53.400208
-9.9009085 -7.7239056 2.7530432 196.5 0 0 0 88.953804
17.417919 -7.6133766 2.9639497 100 0 0 0 56.13763
17.924124 -7.8346066 2.5644882 92 0 0 0 56.13763
35.918781 -7.8339591 2.9820857 54 0 0 0 53.013889
17.738791 -7.2379532 2.98647 79 0 0 0 55.746033
-4.6291013 -6.5801334 2.6668813 55 0 0 0 84.253349
-4.4297409 -6.6399493 2.7437298 313 0 0 0 83.869469
17.894592 -6.7920084 2.7468152 79 0 0 0 55.355301
18.086142 -6.35922 2.5125504 100 0 0 0 54.967312
4.3466854 -5.4086895 2.645504 272 0 0 0 63.74839
50.823086 -4.6697292 2.8492827 22 0 0 0 51.060127
8.492135 -4.2283292 2.6687121 151 0 0 0 56.916019
50.069393 -3.3586276 2.8011534 44 0 0 0 50.674358
49.95686 -2.1159027 2.7902966 48 0 0 0 50.278393
49.677853 -0.87851095 2.7720351 5 0 0 0 49.897793
-21.648258 -0.47811133 2.8489463 32 0 0 0 99.09108
49.116791 0.34227878 2.7399631 58 0 0 0 49.50259
52.044006 1.6461464 2.9017704 20 0 0 0 49.109032
-7.0164461 4.4755726 2.6538634 96.5 0 0 0 8.9601097
-6.9825945 4.4519897 2.9435833 50 0 0 0 8.9601097
-15.427851 4.7964272 2.982831 72 0 0 0 4.6758099
-17.233091 5.8277159 2.9081216 36 0 0 0 5.06428
-16.242561 5.9380617 2.7641892 102 0 0 0 5.4481602
-15.757836 6.2016654 2.7059653 63 0 0 0 5.8467002
-5.831708 7.7144217 2.8441765 563 0 0 0 14.607245
-5.3304095 7.8180146 2.7828479 623.25 0 0 0 15.382251
-4.8513474 7.9219227 2.7319407 688.75 0 0 0 16.160669
-4.2898946 7.7939196 2.7696958 645.59998 0 0 0 16.89436
-3.8245003 7.8827868 2.7925515 634.75 0 0 0 17.71962
-3.5794151 8.1300879 2.7220805 325 0 0 0 18.30035
-3.2765684 8.2540436 2.831156 266.25 0 0 0 18.889299
-2.7773767 8.3406544 2.8241012 312.39999 0 0 0 19.786312
-2.2700088 8.2875309 2.8445547 640 0 0 0 20.64327
-1.8800066 8.4758615 2.6594417 599 0 0 0 21.41378
9.1581583 8.110074 2.8213229 72 0 0 0 38.189007
-2.1088927 8.5239401 2.9063377 98 0 0 0 21.03104
-1.7518948 8.5698662 2.8239231 242.33333 0 0 0 21.6782
-1.2543386 8.6352739 2.7811911 353.66666 0 0 0 22.581163
-0.70981753 8.5661449 2.7389839 728.5 0 0 0 23.560986
-0.27085584 8.8433981 2.7524936 332.20001 0 0 0 24.382202
0.19932716 8.9137669 2.7854786 419.25 0 0 0 25.219952
0.81009978 8.9484692 2.7504432 516.83331 0 0 0 26.290949
-3.643326 9.2022705 2.7877884 27.5 0 0 0 18.889299
0.26045892 9.0501223 2.6604304 85.25 0 0 0 25.316296
1.2471975 9.1362495 2.7451439 360.66666 0 0 0 27.003317
1.6325058 9.1350117 2.8388891 115 0 0 0 27.65164
2.3555388 9.1829071 2.8992069 568 0 0 0 28.82572
2.7253592 9.3219328 2.8091621 428 0 0 0 29.340204
3.1998641 9.4734888 2.8095491 501 0 0 0 29.985519
3.7393706 9.4909592 2.8652155 439 0 0 0 30.77224
-4.0811715 9.9656649 2.76494 19 0 0 0 18.697479
3.3769152 9.6025696 2.7327213 234 0 0 0 30.185329
3.6432028 9.5950508 2.6275504 241 0 0 0 30.57869
4.2844348 9.7863932 2.7331991 33 0 0 0 31.354061
4.9037991 9.7423191 2.6997235 355.66666 0 0 0 32.201836
5.2879353 9.6949615 2.687551 411.5 0 0 0 32.716251
5.6453013 9.7651415 2.7439909 398 0 0 0 33.10424
23.013918 9.7853975 2.6394627 101 0 0 0 43.268101
4.8855414 10.115395 2.595459 34 0 0 0 31.94067
6.2097235 10.147593 2.8901615 144 0 0 0 33.500408
6.8161907 10.255981 2.5389068 62.5 0 0 0 34.085938
7.5361667 10.472232 2.6578178 16 0 0 0 34.67366
22.338728 10.15702 2.5907569 104 0 0 0 42.866871
4.7634954 10.514987 2.6664059 35 0 0 0 31.54631
9.0367203 10.767237 2.7184839 15 0 0 0 35.849079
9.5901079 10.86718 2.8019264 15 0 0 0 36.2355
10.045471 10.830544 2.6727726 92 0 0 0 36.63065
-12.777757 11.164029 2.6970599 10 0 0 0 11.29419
10.900183 11.180983 2.8230577 17 0 0 0 37.020439
11.499642 11.225353 2.9041488 11 0 0 0 37.40686
5.1530714 12.139354 2.7184384 32 0 0 0 31.16181
32.837723 12.079151 2.8277471 81 0 0 0 44.038609
4.958364 13.483849 2.605535 32 0 0 0 30.385139
4.79285 14.091924 2.6988392 20 0 0 0 29.985519
4.6349525 14.808551 2.8126895 14 0 0 0 29.59602
-7.5901151 -12.68257 3.4150782 197 0 0 0 83.086403
-5.1995792 -12.585226 3.4826987 212 0 0 0 80.739273
-7.045826 -12.458214 3.308013 193 0 0 0 82.70295
-6.4897828 -12.163383 3.1875501 214 0 0 0 82.30574
-4.7058144 -12.233351 3.3534408 213 0 0 0 80.353722
-8.8491173 -11.939249 3.0701201 235 0 0 0 84.648323
-5.8923306 -11.728749 3.036283 226 0 0 0 81.92424
-4.2368546 -11.876933 3.2273684 274 0 0 0 79.960625
-3.8011093 -11.54378 3.1116066 347 0 0 0 79.566154
-1.6359205 -11.122577 3.2970126 144.5 0 0 0 76.845428
-1.0792634 -11.093124 3.1322634 183 0 0 0 76.054047
1.7974768 -11.061736 3.1490865 351 0 0 0 71.96096
2.8381505 -11.248475 3.2583416 342 0 0 0 70.585388
3.2727115 -11.209883 3.2798858 249.5 0 0 0 70.004654
3.723629 -11.200893 3.314543 298 0 0 0 69.41172
4.2153521 -11.270012 3.3784719 305.5 0 0 0 68.832703
4.7246766 -11.338488 3.4481182 305 0 0 0 68.245316
7.798316 -11.005368 3.4477646 212 0 0 0 64.724632
-3.2445447 -10.733068 3.151355 134 0 0 0 79.179878
-2.9850202 -10.832125 3.2955866 154 0 0 0 78.790237
1.2245784 -10.89291 3.0809197 342 0 0 0 72.738052
5.2259016 -10.646044 3.0359733 318 0 0 0 67.268906
5.8005037 -10.790809 3.1348698 258 0 0 0 66.685837
6.1866884 -10.858747 3.1972523 287 0 0 0 66.28833
6.7905788 -10.953419 3.2961783 286.5 0 0 0 65.708916
7.3763556 -10.973622 3.3805742 222 0 0 0 65.115776
9.9270658 -10.878175 3.3986433 179 0 0 0 62.771481
10.38063 -10.826591 3.4605651 151 0 0 0 62.383099
12.60248 -10.787259 3.4159949 182 0 0 0 60.822514
-1.2511847 -10.236828 3.4088082 136 0 0 0 76.44883
10.851439 -10.259294 3.0792935 170 0 0 0 61.593712
11.532744 -10.376414 3.1972487 199 0 0 0 61.210129
-0.70959884 -9.7879505 3.0026183 182 0 0 0 75.664597
-0.45426533 -9.5259762 3.3879399 137 0 0 0 75.281059
14.293773 -9.9763184 3.1565821 141 0 0 0 59.260281
15.098942 -9.9932547 3.2769668 149 0 0 0 58.8605
15.909167 -9.9739122 3.3965178 129 0 0 0 58.472206
18.563498 -9.8053713 3.2714105 98 0 0 0 57.303459
-2.0610664 -9.2182808 3.1248193 157 0 0 0 78.003922
-1.6864346 -9.1118221 3.1798196 180.5 0 0 0 77.42347
-1.3517671 -9.1853619 3.1857748 205.5 0 0 0 76.845428
-0.7952019 -9.3709507 3.22664 151.5 0 0 0 75.859322
-0.32710904 -9.2442131 3.175854 146.5 0 0 0 75.079712
0.013574656 -9.3363028 3.3173006 216 0 0 0 74.488991
0.70041698 -9.3457937 3.1003039 34 0 0 0 73.318802
17.484976 -8.692667 3.0447052 102 0 0 0 56.916019
-9.8810015 -7.7097244 3.2085886 154 0 0 0 88.953804
37.835911 -7.2796307 3.1227946 43 0 0 0 52.623951
-4.6328421 -6.5903344 3.0646632 40 0 0 0 84.253349
-4.4302325 -6.6432052 3.0378759 270 0 0 0 83.869469
18.51755 -6.5101662 3.0578475 19 0 0 0 54.967312
-38.192101 -2.7227168 3.1364317 16 0 0 0 98.309593
30.069403 -2.7588382 3.1865413 18 0 0 0 51.060127
-28.907614 -1.3463885 3.082799 2257 0 0 0 98.705475
-10.657769 3.8822293 3.481508 220 0 0 0 5.4481602
-15.775482 4.0697322 3.0096309 31 0 0 0 3.9024
-15.057484 4.2797222 3.2743511 72 0 0 0 4.2870398
-10.543542 4.1351395 3.4757357 217 0 0 0 5.8467002
-10.327403 4.3440247 3.4379692 233 0 0 0 6.2281799
-9.9784794 4.4877176 3.0897155 294 0 0 0 6.6136398
-9.221693 4.1449513 3.3500845 158 0 0 0 6.6136398
-6.9842825 4.4536624 3.1456361 33 0 0 0 8.9601097
-17.314423 4.9250584 3.3234565 39 0 0 0 4.2870398
-15.642293 4.8643413 3.425302 74 0 0 0 4.6758099
-10.199921 4.7388959 3.450891 164.5 0 0 0 6.8115549
-9.9131441 4.7532043 3.1041679 218 0 0 0 7.00947
-9.3834734 4.6397233 3.4685233 153.5 0 0 0 7.2040548
-8.7102938 4.8007321 3.3733635 195.33333 0 0 0 7.9224496
57.432289 4.6575222 3.2054498 47 0 0 0 48.337448
-10.028099 5.1140032 3.3154125 259 0 0 0 7.3986402
-9.6571369 5.2248983 3.2324204 102 0 0 0 7.79246
-8.5723171 5.1919174 3.3195162 229 0 0 0 8.5678501
-16.653877 5.631494 3.2439256 100 0 0 0 5.06428
56.993832 6.0394902 3.1873884 28 0 0 0 47.943859
-7.0512896 7.4634295 3.271755 442.5 0 0 0 12.85075
56.560974 7.4077754 3.1715753 21 0 0 0 47.550713
-6.7696528 7.5249825 3.2252769 374.5 0 0 0 13.23807
-6.2842793 7.6147189 3.2668686 459.5 0 0 0 13.915282
-5.8261442 7.7079287 3.3154867 484 0 0 0 14.607245
-5.3233032 7.8083467 3.2429595 521.5 0 0 0 15.38225
-4.8417859 7.9068785 3.1817303 548.5 0 0 0 16.160669
-4.2599201 7.7822261 3.2615423 532 0 0 0 16.933365
-3.8192677 7.8690624 3.2160692 541.5 0 0 0 17.71962
-3.5798688 8.1287241 3.2654207 94.5 0 0 0 18.30035
-3.2926981 8.2934656 3.2806532 41.75 0 0 0 18.889299
-2.7438526 8.3713903 3.2395198 136.16667 0 0 0 19.864098
-2.2692647 8.276722 3.1556432 503 0 0 0 20.64327
-0.81163853 8.4918079 3.0325155 701 0 0 0 23.36426
-2.1105824 8.522028 3.2276402 59 0 0 0 21.03104
-1.8010999 8.626915 3.2402911 45.75 0 0 0 21.612095
-1.2620255 8.6802502 3.2254152 125.5 0 0 0 22.581163
-0.67707902 8.5856171 3.201926 551.33331 0 0 0 23.626562
-0.29333046 8.8487453 3.2550073 124 0 0 0 24.343418
0.034478754 8.9883862 3.304009 38.5 0 0 0 24.928829
0.80821872 8.9406204 3.299849 370.25 0 0 0 26.290951
0.39305994 9.0445766 3.2608712 38.400002 0 0 0 25.55044
1.303389 9.2485123 3.2030647 36 0 0 0 27.070004
1.7937332 9.350565 3.2645147 30.5 0 0 0 27.84557
2.2417517 9.2068844 3.248925 419 0 0 0 28.629025
2.6147103 9.2318726 3.2890389 409 0 0 0 29.212299
3.7378383 9.4871387 3.2415094 382 0 0 0 30.77224
2.9772394 9.5888901 3.19274 40.5 0 0 0 29.59602
3.2527394 9.6265612 3.2305989 29 0 0 0 29.985519
3.5273314 9.6440783 3.26372 38.5 0 0 0 30.385139
4.3200788 9.8654966 3.1556282 39.5 0 0 0 31.354061
4.8726439 9.7818842 3.2010789 189.5 0 0 0 32.136547
5.2791348 9.6786556 3.2285433 341.5 0 0 0 32.716251
5.6372724 9.7511139 3.297616 349 0 0 0 33.10424
6.2658081 10.236606 3.3635378 19 0 0 0 33.500408
6.729641 10.21852 3.3276622 37.666668 0 0 0 34.022266
9.5122919 10.782099 3.3095756 7 0 0 0 36.2355
10.052269 10.838518 3.2200756 67 0 0 0 36.63065
10.653537 10.928596 3.1362507 102 0 0 0 37.020439
22.368944 10.848916 3.2365108 81 0 0 0 42.478031
11.464039 11.190017 3.2900133 7 0 0 0 37.40686
5.1215439 12.069974 3.0241835 32 0 0 0 31.16181
-8.3829679 -13.256517 3.6220794 86 0 0 0 83.476196
-6.367908 -13.493458 3.8131695 184 0 0 0 81.527489
-5.8693447 -13.272778 3.7097318 179 0 0 0 81.129791
-4.4206834 -13.428644 3.9654512 167 0 0 0 79.566154
1.2122624 -12.093831 3.7113316 256 0 0 0 72.933586
1.5029825 -12.01157 3.6963854 239 0 0 0 72.542526
3.6731315 -12.017282 3.8355896 206 0 0 0 69.813583
4.240931 -12.235374 3.9518714 216.5 0 0 0 69.21962
1.7921135 -11.933688 3.6849124 272 0 0 0 72.156631
2.0903361 -11.916704 3.6942995 276 0 0 0 71.765289
3.1667318 -11.913969 3.7637525 227 0 0 0 70.390549
5.4908662 -11.540586 3.5863333 277 0 0 0 67.464653
5.9200077 -11.690799 3.6764379 257 0 0 0 67.073151
6.287498 -11.692725 3.7241921 297 0 0 0 66.685837
6.7705846 -11.879218 3.8346052 190 0 0 0 66.28833
7.1857419 -11.915268 3.9015973 197 0 0 0 65.906448
5.0991917 -11.435406 3.5141551 262 0 0 0 67.860336
8.3197727 -11.147791 3.55443 203 0 0 0 64.339821
11.284444 -11.201512 3.666054 169 0 0 0 61.985779
12.099841 -11.431792 3.8360798 155 0 0 0 61.593712
14.514206 -11.230853 3.7743647 119 0 0 0 60.032001
15.487518 -11.384029 3.9509416 105 0 0 0 59.643799
-2.734072 -10.963212 3.7320957 87 0 0 0 78.401527
-2.4275966 -10.882352 3.9562757 60 0 0 0 78.003922
-1.2838478 -10.537581 3.7679296 119 0 0 0 76.44883
10.515105 -10.965986 3.8780067 138 0 0 0 62.383099
13.365829 -10.880691 3.5471983 151 0 0 0 60.424919
18.013187 -10.681342 3.7833617 90 0 0 0 58.089279
19.283346 -10.800066 3.9902558 75 0 0 0 57.69558
33.798622 -10.950849 3.750329 103 0 0 0 54.57164
-0.7510885 -10.398092 3.9560199 122 0 0 0 75.664597
0.2613354 -10.004172 3.5536883 226 0 0 0 74.106918
0.51886469 -10.221419 3.6336117 55 0 0 0 73.712303
-11.75814 -9.6480789 3.8866477 39 0 0 0 88.559807
-0.96952337 -9.9929142 3.8108771 100 0 0 0 76.054047
-0.47147608 -9.8981075 3.7616765 101 0 0 0 75.281059
33.506458 -9.9508696 3.6892278 98 0 0 0 54.18248
32.900707 -8.8950529 3.5973239 21 0 0 0 53.801086
17.645792 -8.2360516 3.5184026 80 0 0 0 56.523487
34.180943 -8.3423843 3.7116387 42 0 0 0 53.400208
-9.9038744 -7.72753 3.5278513 113 0 0 0 88.953804
35.872128 -7.8232207 3.8707161 43 0 0 0 53.013889
26.638369 -5.8066545 3.5545578 26 0 0 0 53.013889
44.316162 -5.1684289 3.6076264 29 0 0 0 51.450752
30.039204 -2.7504413 3.925787 44 0 0 0 51.060127
30.22798 -2.0176404 3.9420567 15 0 0 0 50.674358
49.45734 -0.86555624 3.9921765 54 0 0 0 49.897793
49.019596 0.35053322 3.9558694 44 0 0 0 49.50259
48.40081 1.5397295 3.9075172 10 0 0 0 49.109032
-10.765023 3.6285989 3.7664273 170 0 0 0 5.06428
-10.490472 3.8233113 3.7013652 76 0 0 0 5.4481602
-8.7957554 3.8216414 3.6442537 256 0 0 0 6.4209099
-10.278323 4.2259459 3.773782 179.66667 0 0 0 6.1010203
-9.1025639 4.2243199 3.5694351 186.5 0 0 0 6.8115549
-8.675703 4.2832913 3.6763959 221 0 0 0 7.2040548
-8.2792606 4.4707994 3.5745022 263 0 0 0 7.79246
-15.731119 4.8899364 3.845938 48 0 0 0 4.6758099
-9.0080681 4.5870695 3.5950799 96 0 0 0 7.3986402
-8.5971632 4.9198685 3.5222149 150 0 0 0 8.1824303
-8.2417755 4.8501754 3.6331127 209 0 0 0 8.3751402
-15.876763 5.3655934 3.9115765 87 0 0 0 5.06428
-8.593647 5.2015934 3.5718396 53 0 0 0 8.5678501
-17.620213 5.9612894 3.8876071 86 0 0 0 5.06428
-15.374014 5.6179452 3.8196256 127 0 0 0 5.4481602
-17.198698 6.2918005 3.8265073 57 0 0 0 5.4481602
-15.306823 6.0225391 3.8375473 81 0 0 0 5.8467002
-10.820983 6.2084446 3.8261309 72 0 0 0 8.1824303
-16.788952 6.6121359 3.7693028 67 0 0 0 5.8467002
-7.0393171 7.4487371 3.7667444 354.5 0 0 0 12.85075
-6.7579169 7.5099001 3.713124 366.5 0 0 0 13.23807
-6.3895397 7.5818982 3.6842222 358.66666 0 0 0 13.752387
-5.8211842 7.7000928 3.6656146 390.5 0 0 0 14.607244
-5.3171701 7.7981529 3.5842872 404 0 0 0 15.38225
-4.8339729 7.8930473 3.5150928 462.5 0 0 0 16.160669
1.2974677 9.2123375 3.5327027 18.5 0 0 0 27.070004
1.7733053 9.252656 3.5770016 15 0 0 0 27.84557
2.2394123 9.2001514 3.5949178 374 0 0 0 28.629025
2.7642889 9.3139515 3.6876388 300.5 0 0 0 29.40416
3.3097634 9.4163761 3.7874093 257 0 0 0 30.185329
3.795557 9.4091578 3.7659333 321 0 0 0 30.902098
4.278594 9.4600182 3.9378345 320 0 0 0 31.54631
2.9779286 9.5966768 3.5659821 13 0 0 0 29.59602
3.2522314 9.6304226 3.6068859 13 0 0 0 29.985519
3.5023649 9.5821695 3.6199524 19 0 0 0 30.385139
4.2792029 9.7722139 3.6510472 75.25 0 0 0 31.354061
4.8410435 9.7177887 3.7157807 167 0 0 0 32.136543
5.2744451 9.6697998 3.7695389 326 0 0 0 32.716251
5.6309233 9.7399616 3.8493028 274.5 0 0 0 33.10424
6.2128296 10.151291 3.7747493 18.5 0 0 0 33.500408
6.7093463 10.188333 3.8182373 34.666668 0 0 0 34.022266
7.3476911 10.216195 3.8344376 114 0 0 0 34.67366
7.8786922 10.399076 3.9738462 4 0 0 0 35.05901
7.5585194 10.503945 3.6232498 12 0 0 0 34.67366
8.2042332 10.548659 3.7404556 11 0 0 0 35.255695
8.8487558 10.545535 3.8515568 106 0 0 0 35.849079
9.0595989 10.795948 3.5915155 11 0 0 0 35.849079
9.5928936 10.872033 3.6936412 5 0 0 0 36.2355
10.057264 10.844566 3.7669468 50 0 0 0 36.63065
10.686857 10.964857 3.8981907 33 0 0 0 37.020439
10.746387 11.026373 3.5411079 6 0 0 0 37.020439
17.955032 12.279047 3.9159551 34 0 0 0 40.14584
-6.0759029 -14.708334 4.4599628 87 0 0 0 80.739273
-8.8651409 -14.019132 4.2356062 19 0 0 0 83.476196
-6.6267157 -14.04226 4.3524504 97 0 0 0 81.527489
-6.4052792 -14.485682 4.4390559 105 0 0 0 81.129791
-4.1291366 -13.67422 4.3572097 181 0 0 0 79.179878
3.1935294 -12.646858 4.3029022 166 0 0 0 70.585388
4.9047208 -12.62518 4.1317492 149 0 0 0 68.637901
7.7297292 -12.130301 4.0320411 156 0 0 0 65.511383
8.2481232 -12.265603 4.1423621 130 0 0 0 65.115776
10.901461 -11.942357 4.125422 175 0 0 0 62.771481
13.027454 -11.713037 4.0349817 130 0 0 0 61.210129
-8.692647 -11.152495 4.3141589 42 0 0 0 85.039909
16.141439 -11.262294 4.0442257 79 0 0 0 59.260281
10.439303 -10.88669 4.2251439 166 0 0 0 62.383099
-12.211816 -10.020133 4.4275703 17 0 0 0 88.559807
9.753026 -10.16902 4.2959857 22 0 0 0 62.383099
-10.773012 -9.7684202 4.4361744 29 0 0 0 87.780685
-12.176033 -9.0264378 4.2496505 20 0 0 0 89.341858
-10.946327 -9.4438267 4.2333708 32.5 0 0 0 88.171158
-10.902165 -8.7272186 4.2617521 70.5 0 0 0 88.756805
32.943302 -8.8997784 4.4414916 17 0 0 0 53.801086
-10.073491 -7.4684997 4.1402068 57 0 0 0 89.341858
-9.9899282 -7.411953 4.4120731 101 0 0 0 89.341858
37.678707 -7.2488556 4.0426273 54 0 0 0 52.623951
39.5298 -6.5986958 4.219996 37 0 0 0 52.2309
41.86607 -5.9317532 4.449554 40 0 0 0 51.846199
50.616749 -4.6412973 4.1040378 36 0 0 0 51.060127
-40.299561 -3.8722899 4.2981558 16 0 0 0 97.928841
50.07172 -3.3494751 4.0514202 34 0 0 0 50.674358
-38.257378 -2.7273581 4.0736084 21 0 0 0 98.309593
-32.885685 -2.3502619 4.3180628 12 0 0 0 98.309593
49.646553 -2.0936193 4.0110693 26 0 0 0 50.278393
-9.8277979 3.8513203 4.0122991 169 0 0 0 5.8467002
-15.013628 4.2657604 4.0262127 88 0 0 0 4.2870398
-14.799987 4.2053194 4.3493848 166 0 0 0 4.2870398
-14.677034 4.5614777 4.3439951 132 0 0 0 4.6758099
-17.915272 5.0953717 4.3489623 37 0 0 0 4.2870398
-14.839543 5.2163239 4.2513447 69.5 0 0 0 5.2562199
-8.9628735 6.048645 4.1079354 60 0 0 0 9.34408
4.7614346 9.5595331 4.0496912 294.5 0 0 0 32.136543
5.269105 9.6623592 4.1717501 287 0 0 0 32.716251
5.6202083 9.7238646 4.2564116 254 0 0 0 33.10424
6.3214765 10.050735 4.206429 5 0 0 0 33.697662
6.9507284 10.186678 4.2154694 70 0 0 0 34.276958
7.3592706 10.234 4.4627676 5 0 0 0 34.67366
8.2899179 10.396101 4.0491691 7 0 0 0 35.452381
9.4933271 10.759067 4.0127301 7 0 0 0 36.2355
10.022702 10.808201 4.3027482 40 0 0 0 36.63065
14.418079 11.524381 4.2368627 135 0 0 0 38.973701
15.355098 11.661714 4.42382 73 0 0 0 39.361248
15.719794 11.934005 4.0435548 42 0 0 0 39.361248
16.494976 11.890756 4.1644568 75 0 0 0 39.753471
17.771257 12.153127 4.4066553 75 0 0 0 40.14584
19.432383 12.594413 4.1660237 47 0 0 0 40.530762
20.78266 12.750494 4.3841572 35 0 0 0 40.921162
23.140387 13.41996 4.1430397 27 0 0 0 41.307232
24.534864 13.429372 4.3299408 30 0 0 0 41.700111
27.722652 14.294226 4.051383 18 0 0 0 42.095112
-4.146235 -13.722475 4.7271056 72 0 0 0 79.179878
13.564868 -13.458644 4.8681903 82 0 0 0 61.985779
3.2071743 -12.681499 4.6355891 92 0 0 0 70.585388
13.67088 -12.911817 4.7908607 169 0 0 0 61.593712
14.396319 -12.9403 4.9302454 56 0 0 0 61.210129
15.097853 -12.91275 4.5705318 99 0 0 0 60.822514
17.146141 -12.595363 4.8903313 92 0 0 0 59.643799
18.822392 -12.451407 4.6312699 21 0 0 0 58.8605
19.66539 -12.322973 4.7607741 24 0 0 0 58.472206
20.643003 -12.237023 4.9209156 14 0 0 0 58.089279
-8.9843769 -11.522593 4.8181705 29 0 0 0 85.039909
10.142974 -11.112241 4.9574637 151 0 0 0 62.771481
10.790631 -10.707496 4.6318812 137 0 0 0 61.985779
33.766327 -10.933192 4.6199021 93 0 0 0 54.57164
9.2826233 -10.164797 4.8764181 61 0 0 0 62.771481
9.7056408 -10.115376 4.9652619 26 0 0 0 62.383099
12.638366 -10.284768 4.5600553 119 0 0 0 60.424919
-10.786633 -9.7773104 4.8010736 17 0 0 0 87.780685
8.7944956 -9.6315298 4.9418931 40 0 0 0 62.771481
33.474331 -9.9343319 4.5447469 89 0 0 0 54.18248
-10.57879 -9.1252155 4.6086102 45 0 0 0 88.171158
9.3084011 -9.2363157 4.9682226 56 0 0 0 61.985779
-12.280709 -8.6472187 4.5807657 29 0 0 0 89.739883
-11.439089 -8.9246187 4.7848711 68 0 0 0 88.953804
-10.687327 -8.7697268 4.5608869 43 0 0 0 88.559807
-10.256991 -8.8539705 4.8028669 29 0 0 0 88.171158
8.9901505 -8.4929466 4.6875801 76 0 0 0 61.593712
34.169605 -8.3327103 4.5757427 63 0 0 0 53.400208
10.632788 -7.8118587 4.9975457 36 0 0 0 59.643799
-9.9303455 -7.367743 4.6888175 104 0 0 0 89.341858
10.985838 -7.2661505 4.665535 26 0 0 0 58.8605
12.442758 -7.3793535 4.7649727 22 0 0 0 58.089279
37.591 -7.2246232 4.9751062 38 0 0 0 52.623951
10.847379 -6.7969751 4.5351825 58 0 0 0 58.472206
44.063736 -5.1384892 4.6655521 28 0 0 0 51.450752
30.409029 -3.5418253 4.7425952 20 0 0 0 51.450752
29.669605 -2.7163219 4.6158738 80 0 0 0 51.060127
30.027836 -2.0039935 4.6615953 8 0 0 0 50.674358
-15.287912 4.3428397 4.8819895 90 0 0 0 4.2870398
-15.137831 4.703618 4.868577 65 0 0 0 4.6758099
-14.478792 4.8894105 4.6926928 90 0 0 0 5.06428
-17.165087 5.3396058 4.6361475 57 0 0 0 4.6758099
-14.989684 5.4781766 4.5091572 64 0 0 0 5.4481602
-17.225304 5.8253236 4.6885881 38 0 0 0 5.06428
-16.324482 6.4271202 4.737771 71.5 0 0 0 5.8467002
-16.121334 6.8078671 4.7258911 91.5 0 0 0 6.2281799
-16.025436 7.2348065 4.5299358 81 0 0 0 6.6136398
-17.813139 7.525341 4.5095272 103 0 0 0 6.2281799
6.7432961 10.150381 4.6151915 33.5 0 0 0 34.085938
7.3813944 10.263549 4.7859693 7 0 0 0 34.67366
7.838933 10.348454 4.7535896 50.5 0 0 0 35.05901
8.2314177 10.325218 4.6729798 7 0 0 0 35.452381
8.8294363 10.527555 4.8606944 24 0 0 0 35.849079
10.031857 10.814916 4.8530755 20 0 0 0 36.63065
10.576384 10.84982 4.9837041 39 0 0 0 37.020439
11.966927 11.120724 4.9652829 46 0 0 0 37.807209
12.882132 11.385471 4.7998409 8 0 0 0 38.189007
14.376088 11.490283 4.677093 108 0 0 0 38.973701
15.350399 11.657506 4.896318 80 0 0 0 39.361248
16.491776 11.892191 4.662436 74 0 0 0 39.753471
17.696962 12.106385 4.91435 54 0 0 0 40.14584
19.13489 12.40153 4.6645527 37 0 0 0 40.530762
20.759186 12.735518 4.9791102 37 0 0 0 40.921162
22.620464 13.118532 4.698802 38 0 0 0 41.307232
27.895226 14.382427 4.8537478 16 0 0 0 42.095112
34.124424 15.510015 4.8608999 17 0 0 0 42.866871
18.27194 -14.859084 5.4109817 36 0 0 0 60.424919
18.76771 -14.508862 5.4493184 64 0 0 0 60.032001
-8.8748074 -14.034492 5.4713011 18 0 0 0 83.476196
-10.032578 -13.54578 5.1368608 25 0 0 0 84.648323
-9.5071659 -13.519347 5.0372171 119 0 0 0 84.253349
-8.8332329 -13.974108 5.0384922 102 0 0 0 83.476196
-3.8138144 -13.861982 5.4451003 55 0 0 0 78.790237
26.122765 -13.789594 5.3199263 31 0 0 0 57.303459
13.50641 -13.400186 5.320158 62 0 0 0 61.985779
15.988334 -13.004637 5.2458477 34 0 0 0 60.424919
-10.592738 -12.921595 5.0920572 30 0 0 0 85.427528
-5.5905118 -12.654129 5.2408156 29 0 0 0 81.129791
13.674776 -12.914914 5.2596264 123 0 0 0 61.593712
15.100258 -12.914207 5.059278 73 0 0 0 60.822514
17.129875 -12.582808 5.407815 48 0 0 0 59.643799
18.7967 -12.42907 5.17628 15 0 0 0 58.8605
19.750591 -12.370801 5.351398 16 0 0 0 58.472206
22.096668 -12.372108 5.1902919 51 0 0 0 57.69558
11.034337 -11.504517 5.2502441 91 0 0 0 62.383099
13.749688 -11.182339 5.3928142 71 0 0 0 60.424919
-8.8778543 -10.833781 5.3064041 19 0 0 0 85.427528
11.009051 -10.394239 5.3594594 26 0 0 0 61.593712
12.794769 -10.410733 5.4301124 18 0 0 0 60.424919
-10.603095 -9.6177206 5.0722866 6 0 0 0 87.780685
13.215867 -9.7118254 5.3984756 11 0 0 0 59.643799
14.010592 -9.7693472 5.197402 18 0 0 0 59.260281
33.527454 -9.9494267 5.4178805 58 0 0 0 54.18248
-10.978118 -9.0145969 5.0335569 15 0 0 0 88.559807
13.471669 -9.3974714 5.4062543 6 0 0 0 59.260281
14.18259 -9.378521 5.1736073 15 0 0 0 58.8605
-12.147288 -8.5564184 5.263648 15 0 0 0 89.739883
-11.027238 -8.60958 5.3006639 17 0 0 0 88.953804
33.006096 -8.9161139 5.296495 36 0 0 0 53.801086
-10.211264 -8.3851738 5.0079241 25 0 0 0 88.559807
34.240841 -8.3494654 5.4579349 54 0 0 0 53.400208
12.053337 -7.5497966 5.3834324 49 0 0 0 58.472206
39.632484 -6.6081405 5.2194371 43 0 0 0 52.2309
41.786087 -5.9124389 5.4794617 37 0 0 0 51.846199
30.050615 -4.253068 5.4543796 20 0 0 0 51.846199
-33.494225 -3.224426 5.2394667 13 0 0 0 97.928841
30.171686 -2.7618635 5.4439211 51 0 0 0 51.060127
-15.291007 3.9451463 5.240818 72 0 0 0 3.9024
-14.835989 4.2170267 5.117722 99 0 0 0 4.2870398
-14.463062 4.4911323 5.393981 114 0 0 0 4.6758099
-14.843385 4.6150365 5.157042 88 0 0 0 4.6758099
-14.31225 4.8314767 5.3795118 110 0 0 0 5.06428
-14.282476 5.2146015 5.4140921 85 0 0 0 5.4481602
8.3552208 10.47846 5.0709777 9 0 0 0 35.452381
9.9775572 10.763453 5.1891379 24 0 0 0 36.63065
14.374142 11.488061 5.1341448 89 0 0 0 38.973701
15.247312 11.578853 5.3399358 14 0 0 0 39.361248
17.809563 12.18254 5.4757085 38 0 0 0 40.14584
19.271816 12.494176 5.2609138 23 0 0 0 40.530762
24.499363 13.409387 5.0157375 17 0 0 0 41.700111
30.663351 14.861728 5.2663727 17 0 0 0 42.478031
91.560875 18.954201 5.1724849 6 0 0 0 46.387321
90.782707 21.139116 5.1554627 12 0 0 0 45.989674
-7.9323835 -14.881029 5.9690776 23 0 0 0 82.30574
-7.2591982 -14.463864 5.7295833 26 0 0 0 81.92424
15.949289 -14.33257 5.9906149 14 0 0 0 61.210129
