# .PCD v0.7 - Point Cloud Data file format
VERSION 0.7
FIELDS x y z intensity normal_x normal_y normal_z curvature
SIZE 4 4 4 4 4 4 4 4
TYPE F F F F F F F F
COUNT 1 1 1 1 1 1 1 1
WIDTH 929
HEIGHT 1
VIEWPOINT 0 0 0 1 0 0 0
POINTS 929
DATA ascii
-7.9875464 -6.5584168 0.10854472 72 0 0 0 88.648239
-6.6907682 -6.5284834 0.21824136 230.25 0 0 0 87.29113
-6.2175126 -6.5320001 0.21194625 71 0 0 0 86.700684
-5.7762733 -6.5317712 0.20584071 82 0 0 0 86.117416
-5.2213788 -6.5228796 0.19876853 110.75 0 0 0 85.322472
-4.7293544 -6.5407066 0.29247132 129.16667 0 0 0 84.541435
-4.2544017 -6.5357528 0.28363368 238.5 0 0 0 83.759087
-3.7634618 -6.5297523 0.2754564 383.42856 0 0 0 82.902199
-3.2611587 -6.5194597 0.26718891 378 0 0 0 81.958778
-2.7066827 -6.5210824 0.25999081 253.33333 0 0 0 80.833939
-2.2535887 -6.533895 0.25507435 1215.5 0 0 0 79.857742
-1.724944 -6.5185828 0.24937843 249.16667 0 0 0 78.684036
-1.3373919 -6.5134888 0.24611261 504.60001 0 0 0 77.787376
-0.13083529 -6.5349598 0.201983 2737.25 0 0 0 74.868004
0.3083967 -6.5142193 0.24179243 1094.8334 0 0 0 73.798737
0.79138166 -6.5180993 0.24285004 983.33331 0 0 0 72.624893
1.2839748 -6.5224962 0.24504678 1052 0 0 0 71.452522
1.7702475 -6.52596 0.26938194 1268.5 0 0 0 70.328484
2.3171291 -6.5179453 0.3017199 546.71429 0 0 0 69.101784
2.8271005 -6.5216556 0.30178615 142.25 0 0 0 68.026009
10.415842 -6.5948305 0.11434966 443 0 0 0 58.54483
11.074705 -6.6349545 0.11807474 338 0 0 0 58.16021
11.695373 -6.6204281 0.12145857 354 0 0 0 57.7593
13.197887 -6.6338477 0.13000204 253 0 0 0 56.983112
13.910907 -6.5677857 0.13393344 54 0 0 0 56.587738
16.186729 -6.6869555 0.14762361 243 0 0 0 55.808918
17.388433 -6.6863847 0.15481009 165 0 0 0 55.419739
24.636692 -6.7784886 0.19961499 60 0 0 0 53.86372
-8.7440166 -6.4857564 0.38396829 450 0 0 0 89.435844
-1.9722286 -6.4816203 0.25052306 622.66669 0 0 0 79.264168
-1.2513701 -6.4578066 0.24467944 934.75 0 0 0 77.610367
-0.96940792 -6.4786987 0.16236423 430.5 0 0 0 76.930817
1.9541835 -6.4892378 0.080544718 213 0 0 0 69.887985
2.3105583 -6.4943891 0.081066564 156 0 0 0 69.102676
39.05439 -5.7205825 0.29084599 48 0 0 0 51.904728
-20.667622 -5.1722078 0.18468599 147 0 0 0 95.685966
-18.606205 -5.1456356 0.17086856 117 0 0 0 95.289345
-16.795149 -5.0925264 0.15873714 46 0 0 0 94.9095
14.258759 -5.0866947 0.13248067 259 0 0 0 55.035919
29.327646 -5.0369515 0.22777228 23 0 0 0 52.298279
43.597057 -5.2944031 0.31987524 17 0 0 0 51.518841
-9.250308 -4.9468961 0.10973516 484 0 0 0 91.776794
-8.7715073 -4.9717498 0.10688793 597 0 0 0 91.39389
-8.2372522 -4.9401917 0.1035476 688 0 0 0 91.000839
-7.7793641 -4.9293685 0.10077596 788 0 0 0 90.614166
-7.3529606 -4.9163556 0.098217405 802 0 0 0 90.228523
-6.7722721 -4.8961511 0.094784431 948.5 0 0 0 89.631287
-6.2591438 -4.8880529 0.091849893 947 0 0 0 89.04467
-5.6434431 -4.633131 0.35851961 513 0 0 0 88.648239
-5.3906255 -4.7689514 0.26533473 1080 0 0 0 88.065247
4.2651238 -4.728785 0.23437347 850.44446 0 0 0 62.844978
4.5615306 -4.5813785 0.23737793 971.33331 0 0 0 62.065689
9.1091499 -4.8703279 0.23039259 747.5 0 0 0 57.374126
19.497255 -4.8544602 0.16474935 95 0 0 0 53.467648
-0.5868482 -4.421124 0.30146661 131.71428 0 0 0 76.653999
-0.39809844 -4.4369564 0.26120505 134.33333 0 0 0 75.974419
70.858612 0.14542697 0.49525809 16 0 0 0 49.571873
67.724304 1.8035157 0.47501275 15 0 0 0 49.186047
16.964478 2.9897461 0.1465849 113 0 0 0 46.837559
29.646574 2.9875312 0.2284022 69 0 0 0 48.008671
-3.0962088 3.2818911 0.28580689 473.66666 0 0 0 12.87511
-2.8847852 3.3436809 0.25606456 513.30768 0 0 0 13.595438
6.8999825 3.4486682 0.34079149 1056.3334 0 0 0 42.293213
7.0116243 3.3619628 0.2777957 705 0 0 0 42.54908
8.9090223 3.4789836 0.33594307 611 0 0 0 43.722271
9.4897404 3.4369674 0.35257274 716 0 0 0 44.114792
10.163686 3.3985422 0.37229425 599 0 0 0 44.505791
10.956713 3.3641922 0.39580914 471 0 0 0 44.893871
11.927086 3.3411734 0.42498177 443 0 0 0 45.284729
13.019681 3.3020308 0.45795897 361 0 0 0 45.669807
16.678566 3.3650291 0.14507763 335 0 0 0 46.455158
64.590141 3.3097734 0.45492631 23 0 0 0 48.790489
-2.7302351 3.5225849 0.065716028 394 0 0 0 14.44468
6.8619523 3.610024 0.27811694 1069 0 0 0 41.964516
8.3738184 3.5119975 0.32072002 888 0 0 0 43.334019
19.654472 4.4697852 0.16516532 103 0 0 0 46.061607
-1.0873824 4.9462476 0.067129053 131 0 0 0 21.454229
-0.7739886 4.9536715 0.15923941 177.5 0 0 0 22.432627
-0.096388012 4.9232693 0.18750113 195 0 0 0 24.579651
0.14779693 4.9279466 0.17327949 214.55556 0 0 0 25.36377
1.2902693 4.9920287 0.065840103 385 0 0 0 28.87818
5.9295759 4.9411988 0.083260708 789 0 0 0 38.644161
6.3127975 4.8742647 0.085069135 594.5 0 0 0 39.232971
6.5609837 4.686667 0.085796326 430 0 0 0 39.816193
7.3511944 4.9769878 0.091059782 572 0 0 0 40.212261
7.6825747 4.9277458 0.092753142 468 0 0 0 40.595081
8.2476969 4.8635979 0.095763892 796 0 0 0 41.183273
9.0026722 4.8695326 0.10010903 556 0 0 0 41.763752
10.531728 4.7217798 0.10870646 408 0 0 0 42.936241
14.584646 4.8717971 0.13362087 139 0 0 0 44.505791
15.81158 4.8506107 0.1412781 170 0 0 0 44.893871
16.76824 4.6945224 0.14710043 153 0 0 0 45.284729
18.298283 4.6388602 0.15672007 145 0 0 0 45.669807
29.892199 4.5063171 0.23085319 89 0 0 0 47.224926
61.566303 4.6740775 0.4357127 17 0 0 0 48.398273
-16.52035 5.3435988 0.17077111 112 0 0 0 4.68506
-15.668848 5.4927015 0.16448675 282 0 0 0 5.0692701
-14.504513 5.4830275 0.15552245 342 0 0 0 5.4586802
-13.116529 5.323864 0.14457303 362 0 0 0 5.8529801
-11.817501 5.4786286 0.13517331 276 0 0 0 6.62816
-10.960122 5.4064989 0.12860125 541 0 0 0 7.0243001
-10.244603 5.3650374 0.12321541 538 0 0 0 7.4102302
-9.6820087 5.3739042 0.2564407 404 0 0 0 7.80338
-9.1151142 5.351203 0.24441978 321 0 0 0 8.1976099
-8.6103992 5.3386207 0.23500514 278 0 0 0 8.5817699
-8.2181425 5.3750477 0.23053013 542.5 0 0 0 8.9778204
-7.6486897 5.268209 0.104367 688 0 0 0 9.3660803
-7.1420403 5.1775646 0.20986038 626.5 0 0 0 9.7513199
-6.7052612 5.2393546 0.097855411 632 0 0 0 10.34292
-6.1666074 5.1909966 0.19435069 378 0 0 0 10.9202
-5.7795072 5.2901545 0.28417704 449 0 0 0 11.594435
-5.2730165 5.3038163 0.15093462 366 0 0 0 12.357421
-4.8130336 5.1613359 0.085533112 729 0 0 0 12.87511
-2.2234387 5.2425609 0.2550891 570.90002 0 0 0 18.494499
-1.7381308 5.1892414 0.26106209 477.53333 0 0 0 19.742788
-1.2663412 5.219769 0.30154112 416.33334 0 0 0 21.100058
-0.77750146 5.0996327 0.27532789 307.45456 0 0 0 22.48587
-0.30082271 5.1245861 0.26161453 330.86667 0 0 0 23.955257
0.2993288 5.1038146 0.35540077 344.85715 0 0 0 25.810989
0.74352163 5.1945043 0.26496133 330.5625 0 0 0 27.12018
1.1182412 5.2720346 0.23057362 361.79999 0 0 0 28.179428
3.8787782 5.3029943 0.18584703 753.33331 0 0 0 34.798119
4.2746315 5.2374525 0.26943058 473 0 0 0 35.623943
4.7893806 5.3164277 0.21416342 829.5 0 0 0 36.395706
5.1908545 5.2364984 0.23705705 756.83331 0 0 0 37.144405
5.6806254 5.1780715 0.2373693 831.40002 0 0 0 37.944817
6.3140287 5.1243057 0.28981966 651.5 0 0 0 38.84256
6.6776652 5.0205669 0.29697374 675 0 0 0 39.42498
7.3012481 5.2085953 0.31632 805 0 0 0 39.816193
7.6000595 5.1421318 0.32294789 776 0 0 0 40.212261
8.0044947 5.130621 0.33344805 599 0 0 0 40.595081
8.7892256 5.1808701 0.35541433 726.5 0 0 0 41.183273
9.3312349 5.0439563 0.36823711 356 0 0 0 41.763752
11.56742 5.1811423 0.4333322 376 0 0 0 42.936241
12.152279 5.0886426 0.1192115 217 0 0 0 43.334019
13.03005 5.0809207 0.12446456 208 0 0 0 43.722271
14.166483 5.1238565 0.13142604 166 0 0 0 44.114792
-12.843862 5.5815997 0.14313518 225 0 0 0 6.2474899
-7.7504549 5.6229887 0.3431074 560 0 0 0 9.7585649
-7.2268853 5.8023348 0.33261043 512 0 0 0 10.53479
1.2991695 5.5563769 0.35196796 327.5 0 0 0 28.493299
3.7455189 5.6881804 0.24715179 672.33331 0 0 0 34.014065
5.2153292 5.5710578 0.46086574 713 0 0 0 36.692432
5.9950614 5.5154514 0.49009144 607 0 0 0 37.866119
1.8636464 6.456696 0.07538566 611 0 0 0 29.26902
2.2058315 6.4252753 0.075785674 680.66669 0 0 0 30.049368
2.7479203 6.4067287 0.076829769 684 0 0 0 31.219019
3.2185702 6.3802261 0.0778974 727.5 0 0 0 32.193569
3.6752374 6.2266507 0.25891224 580.33331 0 0 0 33.239704
-12.427977 6.5239 0.4903689 299 0 0 0 7.4102302
1.7365376 6.8277116 0.36733234 546 0 0 0 28.749886
2.2150097 6.9867582 0.26236129 700 0 0 0 29.658634
2.7312253 6.8202319 0.26292172 478.33334 0 0 0 30.82872
3.2681968 6.757422 0.34244078 623.20001 0 0 0 31.923639
3.6061897 6.654532 0.39426351 798.33331 0 0 0 32.649887
2.2251441 7.2237535 0.39438868 629.66669 0 0 0 29.52636
2.7257369 7.3085823 0.46827832 737.33331 0 0 0 30.439789
3.121676 7.2543268 0.47369909 688 0 0 0 31.21505
58.8862 7.3950319 0.41964597 19 0 0 0 47.626472
-84.488846 -16.770956 0.63360751 5 0 0 0 96.454361
28.147121 -11.62157 0.99135774 42 0 0 0 55.808918
14.987809 -11.10905 0.62096536 37 0 0 0 59.7197
11.387545 -10.844831 0.91419077 276 0 0 0 61.670391
11.79291 -10.690268 0.92492515 363 0 0 0 61.284538
12.198471 -10.522902 0.54108918 233 0 0 0 60.892952
13.021251 -10.684535 0.56410843 286 0 0 0 60.504368
13.924482 -10.862734 0.5897302 202 0 0 0 60.112553
5.1607881 -10.273278 0.9648605 400 0 0 0 67.151321
5.8559222 -10.354636 0.99689656 307 0 0 0 66.363251
6.1930823 -10.068275 0.69642591 435.5 0 0 0 65.780373
6.754787 -10.12705 0.71592671 415 0 0 0 65.200401
7.1472163 -10.164585 0.72994882 383 0 0 0 64.802567
7.8760152 -10.105732 0.75137639 498 0 0 0 64.018715
8.3839436 -10.227728 0.77443498 353 0 0 0 63.635727
11.161247 -10.119111 0.50832081 322 0 0 0 61.284538
11.817516 -10.195352 0.90766555 198 0 0 0 60.892952
15.769606 -10.249197 0.62580192 111 0 0 0 58.73848
4.8601608 -9.6818657 0.64158046 439 0 0 0 67.151321
5.2682171 -9.8783894 0.80135441 337.5 0 0 0 66.761086
7.2696977 -9.8178062 0.71814895 421 0 0 0 64.408607
5.3252497 -9.4242077 0.64085585 486 0 0 0 66.363251
21.108942 -9.3338442 0.76003075 113 0 0 0 56.204006
-11.676378 -6.6139202 0.79331708 79 0 0 0 91.39389
-11.016707 -6.6028867 0.76081043 69 0 0 0 91.000839
-10.467851 -6.6287231 0.73517281 61 0 0 0 90.614166
-9.858181 -6.587348 0.70502317 41 0 0 0 90.228523
-9.3339329 -6.5754395 0.82215798 245 0 0 0 89.826721
-8.8611965 -6.5737925 0.79601038 142.5 0 0 0 89.435844
-8.42272 -6.5751209 0.77157897 347.5 0 0 0 89.04467
-6.7122474 -6.5495367 0.68153709 175 0 0 0 87.291122
-6.2415237 -6.5572119 0.65866971 149.5 0 0 0 86.700684
-5.7586641 -6.5443916 0.69915974 140.60001 0 0 0 86.077492
-5.2422566 -6.549377 0.71534038 117.16666 0 0 0 85.322464
-4.7445917 -6.5634727 0.79184073 108.25 0 0 0 84.541443
-4.2676544 -6.55795 0.76590848 238.5 0 0 0 83.759087
-3.7554202 -6.5488663 0.72208244 231.60001 0 0 0 82.868454
-3.2408481 -6.5465317 0.80637032 224.28572 0 0 0 81.896301
-2.7178946 -6.5512743 0.7839123 220 0 0 0 80.833946
-2.2605894 -6.5581093 0.767057 685.16669 0 0 0 79.857742
-1.8139932 -6.5340538 0.7506997 329.33334 0 0 0 78.877411
-1.3085828 -6.5438256 0.73919272 549 0 0 0 77.708702
-0.13009322 -6.5673361 0.76821744 2425.25 0 0 0 74.868004
0.31024817 -6.5353208 0.72523022 942.5 0 0 0 73.798744
0.79605901 -6.5462637 0.73047644 627.88892 0 0 0 72.624893
1.2907128 -6.5501904 0.73872387 1083.1111 0 0 0 71.45253
1.7980601 -6.5434232 0.7500481 755.44446 0 0 0 70.279541
2.237159 -6.5432663 0.76332635 418.5 0 0 0 69.295464
2.6962032 -6.54177 0.75867891 214.125 0 0 0 68.321373
14.253898 -5.0879827 0.51091719 70 0 0 0 55.035919
29.298056 -5.0375037 0.97055572 27 0 0 0 52.298279
-22.949022 -4.5536919 0.78315341 99 0 0 0 96.454361
-21.056635 -4.7190242 0.72524709 112 0 0 0 96.064476
-19.454185 -4.8650994 0.67662942 145 0 0 0 95.685966
-5.634377 -4.6278634 0.80608612 954.33331 0 0 0 88.648232
-5.4638362 -4.835928 0.80679244 986.66669 0 0 0 88.065247
-0.3419635 -4.5073009 0.84475392 146 0 0 0 75.755554
4.2545843 -4.7154021 0.70385337 830.22223 0 0 0 62.844978
4.562665 -4.5816183 0.63659811 542 0 0 0 62.065689
8.9514742 -4.7856936 0.8564325 891 0 0 0 57.374126
9.0152464 -4.8215389 0.6073252 816 0 0 0 57.374126
14.377718 -4.7366095 0.69632488 75.5 0 0 0 54.640942
19.356178 -4.823276 0.6625458 183 0 0 0 53.467648
-0.60659879 -4.3555913 0.7371335 209.88889 0 0 0 76.758575
-0.39625689 -4.4096103 0.70219767 193.42857 0 0 0 75.980667
16.851025 2.9666078 0.78342474 175.5 0 0 0 46.837559
29.6828 2.9857135 0.97437727 52 0 0 0 48.008671
-3.1701045 3.2779081 0.77816093 470.85715 0 0 0 12.681485
-2.9612129 3.3758709 0.66497689 683.5 0 0 0 13.45981
6.8754373 3.437789 0.78360391 1078.3334 0 0 0 42.293213
7.0030236 3.3585699 0.66477901 658 0 0 0 42.54908
8.3279791 3.4945402 0.76701969 554 0 0 0 43.334019
8.8623543 3.4617047 0.68708229 661 0 0 0 43.722271
9.4758482 3.4319191 0.59975803 612 0 0 0 44.114792
9.5126238 3.4469979 0.85484439 434 0 0 0 44.114792
10.226723 3.4204268 0.77437282 469.5 0 0 0 44.505791
11.056555 3.3956723 0.82820511 424.5 0 0 0 44.893871
11.978789 3.3555267 0.732126 453 0 0 0 45.284729
13.069673 3.3145833 0.79058158 311 0 0 0 45.669807
14.450907 3.2867548 0.68380499 232 0 0 0 46.061607
16.479239 3.3217323 0.97685343 356 0 0 0 46.455158
16.595821 3.3452609 0.56813836 324 0 0 0 46.455158
-2.999516 3.5076501 0.85120398 130 0 0 0 13.65306
6.7937469 3.6823874 0.75533545 711.5 0 0 0 41.763752
8.3480759 3.5020573 0.7658267 666 0 0 0 43.334019
-8.7027378 5.3978949 0.61355132 405 0 0 0 8.5817699
-2.161551 5.3156834 0.63437939 678 0 0 0 18.733139
-1.8716408 5.3337359 0.62548667 491.66666 0 0 0 19.508177
-1.000756 5.1744537 0.5852434 296 0 0 0 21.84693
-0.72913134 5.0947838 0.57246184 311.5 0 0 0 22.63069
-0.28929773 5.1692538 0.57583731 397 0 0 0 23.994282
0.17833464 5.1429625 0.61503214 358 0 0 0 25.429205
0.78116101 5.4378591 0.65527529 459.16666 0 0 0 27.120321
1.2553806 5.3810625 0.61352479 386 0 0 0 28.493299
4.7545919 5.4762573 0.62083077 692.5 0 0 0 36.098949
6.6325684 5.3810859 0.51254702 479 0 0 0 38.84256
7.1482964 5.2335348 0.53061593 515 0 0 0 39.620586
8.255949 5.4340858 0.58804959 555 0 0 0 40.403671
8.6501799 5.2451735 0.60117888 453 0 0 0 40.988552
9.1968279 5.2688184 0.62825525 323 0 0 0 41.377998
-8.5836 5.6185575 0.61444616 197 0 0 0 8.9778204
-1.6801472 5.9600263 0.68232602 524.5 0 0 0 20.486431
-1.3567625 5.9058418 0.66834784 434.5 0 0 0 21.260014
-0.78339911 5.522038 0.61757398 490 0 0 0 22.6222
-0.10051619 5.8843966 0.86714387 284.5 0 0 0 24.579651
0.80011165 5.5710192 0.76222926 390 0 0 0 27.119774
1.1468045 5.5228372 0.62545282 394 0 0 0 28.10096
3.8510344 5.7456374 0.59273601 566.5 0 0 0 34.14307
4.3354149 5.6715884 0.61120349 741.33331 0 0 0 35.123859
5.4036293 5.7716885 0.67379308 776 0 0 0 36.692432
5.7403851 5.8327732 0.69634366 726 0 0 0 37.077999
6.3060446 5.8586755 0.7741226 771 0 0 0 37.786629
6.8055491 5.953063 0.76612055 553 0 0 0 38.260921
-13.141333 6.4967208 0.86731511 261 0 0 0 7.0243001
-8.4316216 6.4497662 0.6343556 433 0 0 0 10.15105
-7.759676 6.3927584 0.60207081 399 0 0 0 10.727495
-6.3076682 6.162652 0.53103644 420 0 0 0 12.09702
-5.9707451 6.1223445 0.51570725 481 0 0 0 12.48762
-1.2212785 6.4127202 0.87756109 559.33331 0 0 0 21.847731
-0.74037749 6.4465656 0.87257743 580 0 0 0 23.015791
-0.34186608 6.4754486 0.87194401 622.5 0 0 0 23.995825
3.7300818 6.2051592 0.61847866 553 0 0 0 33.370239
4.2456355 6.3214998 0.83447146 708.5 0 0 0 34.14307
4.7440495 6.1922383 0.85466009 749.66669 0 0 0 35.123859
5.3607521 6.165781 0.89395642 826 0 0 0 36.098949
5.79041 6.028039 0.91419089 944 0 0 0 36.885216
7.2992964 6.0705109 0.80274779 585 0 0 0 38.644161
7.6835313 6.0736685 0.82717049 422 0 0 0 39.040958
8.1880903 6.1478977 0.86324519 512 0 0 0 39.42498
8.6950607 6.1968474 0.89876419 321 0 0 0 39.816193
9.2141657 6.2278171 0.93477046 427 0 0 0 40.212261
9.8642817 6.3161182 0.98267508 393 0 0 0 40.595081
13.720078 6.1405497 0.87613118 272 0 0 0 42.936241
-18.247601 6.9131408 0.67167538 128 0 0 0 5.4586802
-16.439346 6.6879277 0.61331695 162 0 0 0 5.8529801
-15.210575 6.6225877 0.57498145 181 0 0 0 6.2474899
-14.227247 6.6097159 0.54508561 230 0 0 0 6.62816
-13.241612 6.5465569 0.51474506 209 0 0 0 7.0243001
-12.626104 6.629014 0.84424514 221 0 0 0 7.4102302
-12.079366 6.7214828 0.81900358 348 0 0 0 7.80338
-11.692065 6.8840809 0.80417156 321 0 0 0 8.1976099
-9.7927074 6.7688293 0.70837182 458 0 0 0 9.3660803
-8.9700565 6.524281 0.66173941 517 0 0 0 9.7513199
-8.1750202 6.9100642 0.90335685 336 0 0 0 10.9202
-7.7725687 6.8997188 0.87773389 475 0 0 0 11.31617
-7.1597052 6.834487 0.83704126 412.5 0 0 0 11.901094
-6.4603796 6.6310253 0.78438962 349 0 0 0 12.48762
-2.5469868 6.7930536 0.97172594 487 0 0 0 19.119841
-2.2624035 6.7772551 0.95751053 772 0 0 0 19.702345
-1.7656068 6.5980797 0.91675049 634.66669 0 0 0 20.679552
0.40025052 6.7999568 0.91483957 314 0 0 0 25.750259
0.58136761 6.9292679 0.93335533 655 0 0 0 26.14994
1.4085152 6.7080331 0.92126018 473 0 0 0 28.10096
1.7633945 6.8809481 0.82219625 584 0 0 0 28.78196
3.2735775 6.827373 0.70693165 604.66669 0 0 0 31.871653
3.6603599 6.7012787 0.76229125 868.79999 0 0 0 32.702675
4.0325866 6.5135994 0.83899301 862 0 0 0 33.564289
-20.870171 7.3339314 0.75781471 103 0 0 0 5.0692701
-8.8297386 7.1061196 0.95513731 346 0 0 0 10.53479
3.1817503 7.2345796 0.79901713 590.66669 0 0 0 31.348608
2.2761919 7.8287687 0.69082671 717 0 0 0 29.26902
2.7130735 7.8538337 0.70369387 625.33331 0 0 0 30.049368
3.1309791 7.7935371 0.81399387 516.5 0 0 0 30.82629
2.3832493 8.1847048 0.927993 562 0 0 0 29.26902
2.7390399 8.2477217 0.94562125 467.5 0 0 0 29.851639
3.0711377 8.2174034 0.95430607 490 0 0 0 30.44482
37.05743 -18.599627 1.336563 27 0 0 0 56.983112
25.38423 -17.848257 1.009131 20 0 0 0 59.329247
37.465504 -17.665297 1.3353175 38 0 0 0 56.587738
15.546262 -12.751198 1.1589665 90 0 0 0 60.504368
12.833923 -12.214266 1.466792 242 0 0 0 61.670391
13.339566 -12.084335 1.4896207 109 0 0 0 61.284538
6.2391648 -11.029369 1.367398 409 0 0 0 66.363251
6.6188316 -11.057144 1.3899038 382 0 0 0 65.972542
7.0179729 -11.095458 1.4152386 379 0 0 0 65.588203
6.6539049 -10.521991 1.041434 244 0 0 0 65.588203
7.1535826 -10.718618 1.2341893 258.5 0 0 0 65.200401
7.5481524 -10.728808 1.4139723 134 0 0 0 64.802567
8.2221146 -10.814402 1.1329775 329.5 0 0 0 64.213661
8.7596645 -10.949301 1.3369747 197.5 0 0 0 63.827221
18.210251 -10.900249 1.2215475 49 0 0 0 58.16021
18.65889 -10.554245 1.2335312 37 0 0 0 57.7593
6.2414622 -10.429172 1.0176725 329 0 0 0 65.972542
7.210402 -10.250416 1.0479684 405 0 0 0 64.802567
11.79465 -10.172263 1.2939191 81 0 0 0 60.892952
14.152073 -10.491257 1.019958 89 0 0 0 59.7197
15.459336 -10.321483 1.0742913 112 0 0 0 58.932129
20.020254 -10.057802 1.2876995 45 0 0 0 56.983112
4.7736888 -9.5024204 1.4147764 351 0 0 0 67.151321
5.0925379 -9.5486698 1.1729932 224 0 0 0 66.761086
12.059701 -9.8944349 1.295907 55 0 0 0 60.504368
15.790403 -9.9899683 1.079748 52 0 0 0 58.54483
20.524469 -9.686264 1.3039995 49 0 0 0 56.587738
4.9348207 -9.2506151 1.3953121 158 0 0 0 66.761086
21.015076 -9.2927132 1.3198681 56 0 0 0 56.204006
4.5087595 -8.9816484 1.0919027 135 0 0 0 67.151321
-11.829666 -6.7033811 1.1416903 90 0 0 0 91.39389
-11.007051 -6.5996871 1.0795966 118 0 0 0 91.000839
-10.41939 -6.6005788 1.0388991 124 0 0 0 90.614166
-9.8168411 -6.5621872 1.1383302 62 0 0 0 90.228523
-9.3585329 -6.5939512 1.2446191 234 0 0 0 89.826721
-8.8747473 -6.5850115 1.2025858 93 0 0 0 89.435844
-8.429389 -6.5814862 1.1648564 88 0 0 0 89.04467
-6.7266474 -6.5647736 1.1452808 60.5 0 0 0 87.29113
-6.2568178 -6.7377472 1.0060661 32 0 0 0 86.508865
-4.6221938 -6.5659418 1.0796312 107 0 0 0 84.343788
-4.2976766 -6.7908444 1.0805818 181.33333 0 0 0 83.565941
-3.611237 -6.559866 1.0088737 258 0 0 0 82.594772
-3.1071782 -6.5671844 1.1589907 39 0 0 0 81.620163
-2.8627748 -6.6736736 1.1584595 49.5 0 0 0 81.031715
-2.3238971 -6.7380009 1.1374867 157 0 0 0 79.857742
-1.8183913 -6.5525002 1.0867826 372 0 0 0 78.877411
-1.3123478 -6.5688701 1.153936 173.33333 0 0 0 77.70871
-0.17535664 -6.7209263 1.1596559 1223.5 0 0 0 74.967987
0.31127843 -6.5365443 1.1277287 620.25 0 0 0 73.798737
0.79630327 -6.5428643 1.1353645 521.5 0 0 0 72.624886
1.2872566 -6.5286965 1.1457794 454.83334 0 0 0 71.452522
1.7971545 -6.5365047 1.1664662 284.16666 0 0 0 70.279541
2.2334383 -6.5301313 1.1867762 183.25 0 0 0 69.295456
2.6965778 -6.5401826 1.1983311 188 0 0 0 68.321342
-10.566029 -6.3354197 1.3368711 6 0 0 0 91.000839
-10.064084 -6.3756318 1.2939038 32 0 0 0 90.614166
-8.3114948 -6.3278961 1.3954293 16.5 0 0 0 89.240257
-6.8340135 -6.405726 1.3316388 44.333332 0 0 0 87.611794
-6.2549777 -6.2599916 1.1869301 12 0 0 0 87.098831
-5.8198981 -6.2680683 1.1483357 31.5 0 0 0 86.508865
-5.2074018 -6.3475785 1.1035905 43.666668 0 0 0 85.520912
-4.7651706 -6.3201318 1.1938211 45 0 0 0 84.868065
-4.2896113 -6.2532067 1.2088113 21.5 0 0 0 84.1474
-3.7218451 -6.2946639 1.2112215 33.75 0 0 0 83.08342
-3.2952151 -6.3492541 1.2287102 27.75 0 0 0 82.200974
-2.7687511 -6.2395558 1.2597367 32.333332 0 0 0 81.227867
-2.2171645 -6.2826891 1.2950863 62.599998 0 0 0 79.973869
-1.759326 -6.3405838 1.2948523 70.833336 0 0 0 78.877411
-1.2496405 -6.250813 1.3346208 59.666668 0 0 0 77.708702
-0.36568594 -6.2460189 1.4124562 705.66669 0 0 0 75.492073
0.3531251 -6.3055706 1.4246602 231.66667 0 0 0 73.667305
0.77177382 -6.3409042 1.4140316 103.33334 0 0 0 72.624886
1.2500638 -6.3395638 1.4298528 75.833336 0 0 0 71.452522
1.7736727 -6.4528842 1.3990932 64.666664 0 0 0 70.279541
2.2836487 -6.4182687 1.4236079 48 0 0 0 69.101982
2.7156289 -6.3678923 1.4459698 90 0 0 0 68.124619
38.896381 -5.7048593 1.2721195 38 0 0 0 51.904728
4.1286602 -5.0518856 1.3655173 161 0 0 0 63.635727
5.2451653 -5.0087671 1.2463689 29.5 0 0 0 61.670391
43.246017 -5.2599683 1.4060792 38 0 0 0 51.518841
-21.009598 -4.7084217 1.2507883 51 0 0 0 96.064476
-19.475851 -4.87045 1.1687807 164 0 0 0 95.685966
-5.6011887 -4.7176981 1.2601345 910.75 0 0 0 88.455109
3.9599116 -4.8468213 1.1573219 24 0 0 0 63.635727
4.2269964 -4.7040591 1.2255397 797.36365 0 0 0 62.880028
8.8712597 -4.7421856 1.2174811 977 0 0 0 57.374126
14.257389 -4.6946397 1.2495096 267 0 0 0 54.640942
19.239532 -4.794538 1.1448509 174 0 0 0 53.467648
23.887161 -4.7164731 1.3980306 36 0 0 0 52.691353
-0.62551844 -4.2762966 1.2571069 252.76923 0 0 0 76.871719
-0.43911323 -4.3753772 1.2540308 188.8 0 0 0 76.149506
-3.5472965 3.2531781 1.4676197 345 0 0 0 11.70517
-3.2411871 3.2971158 1.2312952 436.53845 0 0 0 12.54658
6.8419075 3.3873098 1.218558 988.16669 0 0 0 42.357178
8.8573751 3.4606044 1.0375981 678 0 0 0 43.722271
12.060617 3.3805554 1.0497152 404 0 0 0 45.284729
16.428251 3.314373 1.3921974 297 0 0 0 46.455158
42.020493 3.183584 1.361637 28 0 0 0 48.398273
-3.1586537 3.518832 1.2719973 292.5 0 0 0 13.26656
6.7531791 3.6620548 1.2263654 814.66669 0 0 0 41.763752
5.8541541 5.9491153 1.1190002 553 0 0 0 37.077999
6.8382287 5.9834409 1.4412444 683 0 0 0 38.260921
-9.193553 6.0188622 1.4597481 170 0 0 0 8.9778204
4.4274039 6.4192467 1.2378163 673.5 0 0 0 34.33831
4.7144885 6.3180351 1.2503815 550 0 0 0 34.928871
5.2845082 6.2346854 1.1457186 929 0 0 0 35.903206
5.8040085 6.1973658 1.2955889 696.75 0 0 0 36.689915
6.43891 6.2229595 1.1979852 438 0 0 0 37.469994
6.7325439 6.1898999 1.3737383 533.66669 0 0 0 37.865681
13.848701 6.2007251 1.2628124 240 0 0 0 42.936241
-12.745636 6.6896811 1.2077255 240 0 0 0 7.4102302
-11.820274 6.7635803 1.1437826 232 0 0 0 8.000495
-1.3072681 6.8955617 1.1142435 687.33331 0 0 0 21.847731
-0.77086663 6.7612419 1.2489352 702.44446 0 0 0 23.015791
-0.35785258 6.8817964 1.0947568 738.5 0 0 0 23.995825
1.3311493 6.7510481 1.0950387 606 0 0 0 27.904449
3.6051769 6.7219391 1.0232863 556 0 0 0 32.584297
4.3415599 6.699264 1.2681569 491.5 0 0 0 33.885063
4.8667059 6.6898932 1.3131311 559 0 0 0 34.734913
5.1766405 6.7556338 1.3501621 504 0 0 0 35.122833
5.5351987 6.8621588 1.3975586 423 0 0 0 35.513832
7.718462 6.7441912 1.1133018 425 0 0 0 38.260921
8.3103771 6.9041424 1.1716853 424 0 0 0 38.644161
8.7838955 6.9364252 1.2126566 266 0 0 0 39.040958
9.3045149 6.9798117 1.2589474 310 0 0 0 39.42498
10.966304 6.6425209 1.0722511 267 0 0 0 40.988552
11.734629 6.7160769 1.1288561 260 0 0 0 41.377998
-10.190471 7.420104 1.0597677 279 0 0 0 9.7513199
-9.4931507 7.2696939 1.0063733 320 0 0 0 10.15105
-7.9726553 7.4384341 1.1822531 351 0 0 0 11.70517
-7.4786005 7.3234692 1.1357892 441 0 0 0 12.09702
-2.626462 7.2914205 1.2269802 673 0 0 0 19.314651
-2.2089972 7.2201443 1.1961764 714.5 0 0 0 20.093056
-1.8046843 7.1219754 1.1647938 695 0 0 0 20.87389
-1.2024285 7.3678665 1.3672826 664 0 0 0 22.242029
-0.37704295 7.3740702 1.353143 703 0 0 0 23.995825
0.2502763 7.1524072 1.1364584 743.33331 0 0 0 25.362589
0.62265933 7.3600378 1.1720024 652 0 0 0 26.14994
3.6251185 7.3943806 1.1015058 681 0 0 0 31.99962
4.2847986 7.1753926 1.257784 730.33331 0 0 0 33.305557
8.1621628 7.493207 1.4734484 262 0 0 0 37.866119
9.9785223 7.105093 1.324033 358 0 0 0 39.816193
10.967051 7.4047623 1.4274389 273 0 0 0 40.212261
11.654481 7.4553704 1.4908642 243 0 0 0 40.595081
-16.299288 7.5802174 1.0576634 115 0 0 0 6.62816
-12.790957 7.9627905 1.2624071 193 0 0 0 8.5817699
-11.883934 7.8035955 1.1923989 202 0 0 0 8.9778204
-10.937276 7.5661297 1.1168638 170 0 0 0 9.3660803
-9.8199177 7.9128428 1.3640395 356 0 0 0 10.53479
-9.2179317 7.8032384 1.3071531 311 0 0 0 10.9202
-8.5875034 7.6331573 1.2445821 309 0 0 0 11.31617
-2.253602 7.7204423 1.4707179 676.33331 0 0 0 20.289364
-1.725932 7.6170111 1.4290041 599 0 0 0 21.260014
-1.4122459 7.5000081 1.397045 553 0 0 0 21.84693
-0.10509838 7.5035653 1.3748893 291 0 0 0 24.579651
0.2742832 7.6743674 1.4069338 622.33331 0 0 0 25.362589
0.75345194 7.7404556 1.3305788 784.5 0 0 0 26.341591
1.1589828 7.8284483 1.2538817 405 0 0 0 27.119774
3.3098934 7.6911602 1.1192266 522 0 0 0 31.219019
3.7526379 7.8918295 1.3832998 577 0 0 0 31.807671
4.089613 7.6086969 1.3682287 679 0 0 0 32.584297
-18.560188 8.0921535 1.1882225 103 0 0 0 6.2474899
-10.667614 8.17945 1.4525592 215 0 0 0 10.15105
0.89168143 8.0696287 1.4859693 718 0 0 0 26.533239
3.3237779 8.2696886 1.409791 561.33331 0 0 0 30.82872
-22.875034 8.6776199 1.4308687 20 0 0 0 5.4586802
2.6620843 8.7256842 1.2153445 278.5 0 0 0 29.462025
3.101819 8.6196556 1.2205617 399.5 0 0 0 30.246536
10.092375 -12.30043 1.707358 157 0 0 0 63.635727
6.9595366 -11.619536 1.7920892 229 0 0 0 65.972542
8.7276001 -11.772847 1.7564446 126.5 0 0 0 64.408607
9.2221651 -11.81854 1.9793974 90 0 0 0 64.018715
28.230513 -11.656349 1.7424585 23 0 0 0 55.808918
7.5510612 -11.307792 1.7988155 159 0 0 0 65.200401
8.0068007 -11.374203 1.8392859 157 0 0 0 64.802567
8.6109991 -10.496695 1.7961389 132 0 0 0 63.635727
10.408879 -10.407718 1.9446306 121 0 0 0 62.065689
-3.6598225 -9.4862299 1.6085452 45 0 0 0 80.438385
-0.35349315 -9.4334917 1.9605787 8 0 0 0 75.165092
4.676095 -9.3092213 1.6444181 99 0 0 0 67.151321
-6.7881079 -6.7933512 1.5225085 24 0 0 0 87.098831
-0.08255323 -6.0297298 1.7085848 52 0 0 0 74.770882
1.7160274 -6.2413783 1.5126038 51 0 0 0 70.279541
2.2233629 -6.2467346 1.5486656 34.333332 0 0 0 69.101982
2.6630878 -6.2421708 1.5841689 34.5 0 0 0 68.124619
1.4311453 -5.7582393 1.8273077 86 0 0 0 70.667679
-21.002466 -5.2557335 1.7966212 168 0 0 0 95.685966
-10.340601 -5.2091742 1.8297585 504 0 0 0 92.165001
4.0991139 -5.0143466 1.6742412 346 0 0 0 63.635727
5.2514744 -5.013783 1.6945014 140 0 0 0 61.670391
14.078474 -5.023387 1.6080642 37 0 0 0 55.035919
29.234241 -5.0268989 1.6954502 65 0 0 0 52.298279
-16.349661 -4.9573565 1.840499 30 0 0 0 94.9095
-5.7127528 -4.7232308 1.7533889 715.375 0 0 0 88.602501
4.237289 -4.7138071 1.782174 691.63635 0 0 0 62.881813
8.7975359 -4.7022033 1.7016932 904.5 0 0 0 57.374126
14.208323 -4.6774645 1.7935419 144.5 0 0 0 54.640942
19.198994 -4.7811623 1.635797 170 0 0 0 53.467648
22.096563 -4.9273667 1.8666493 96 0 0 0 53.076328
23.792679 -4.6938376 1.9971716 62 0 0 0 52.691353
-5.7596574 -4.4998312 1.5275917 5 0 0 0 89.04467
-0.66640294 -4.2419286 1.601879 169.42857 0 0 0 77.042343
-0.43856794 -4.3843298 1.6345483 66 0 0 0 76.149506
29.668001 2.9840095 1.7047725 51 0 0 0 48.008671
-3.5124168 3.2200909 1.6833557 353 0 0 0 11.70517
-3.3182504 3.3528669 1.6684875 340.55554 0 0 0 12.486583
6.7986255 3.3670447 1.7746805 972.5 0 0 0 42.357178
16.335875 3.2956944 1.790334 400 0 0 0 46.455158
6.7174168 3.6437693 1.7868656 640.33331 0 0 0 41.763752
23.060291 5.241858 1.9486952 26 0 0 0 46.061607
-0.24608783 5.8960319 1.9573619 30 0 0 0 24.1936
-9.1781502 6.0089259 1.8608946 348.5 0 0 0 8.9778204
4.4564452 6.4606633 1.6360174 526 0 0 0 34.33831
4.5798874 6.3010769 1.6244268 213 0 0 0 34.734913
5.18998 6.3320365 1.6386833 438.33334 0 0 0 35.642921
5.7628374 6.2291441 1.6106467 653.5 0 0 0 36.591007
6.1365075 6.2337308 1.7142719 307.5 0 0 0 37.081215
7.6063275 6.0152149 1.7768806 371 0 0 0 39.040958
13.803149 6.1803555 1.6271075 334 0 0 0 42.936241
-16.944576 6.89186 1.7500257 146 0 0 0 5.8529801
-5.4360313 6.7887259 1.7989688 336 0 0 0 14.04753
-0.84589362 6.6618581 1.7262615 492.16666 0 0 0 22.820776
4.3351851 6.811244 1.7812486 386.75 0 0 0 33.756058
5.0732131 6.6223764 1.7372397 517 0 0 0 35.122833
5.8762584 6.9249954 1.6643878 285 0 0 0 35.9011
6.7023139 6.8014584 1.984604 309 0 0 0 37.077999
12.154275 6.9550042 1.5089196 405 0 0 0 41.377998
4.218533 7.199264 1.7358919 521.33331 0 0 0 33.176189
12.186519 7.1741128 1.6989269 197 0 0 0 41.183273
58.896358 7.385437 1.9026492 26 0 0 0 47.626472
-3.297529 7.9366393 1.5693258 605 0 0 0 18.5343
-2.8322062 7.8836584 1.5303895 458.5 0 0 0 19.314651
4.1636667 7.5212479 1.7871748 366 0 0 0 32.781071
9.2211113 7.6577516 1.5913258 281 0 0 0 38.644161
9.6581001 7.6245856 1.6328716 248 0 0 0 39.040958
10.660231 7.9929419 1.7651055 303 0 0 0 39.42498
-25.410587 8.2450581 1.5606278 28 0 0 0 4.68506
-11.510684 8.3917952 1.5380558 176 0 0 0 9.7513199
-8.7048826 8.1281128 1.7262051 244.5 0 0 0 11.70517
-8.2017803 8.0389385 1.5242336 353 0 0 0 12.09702
-3.8292091 8.082016 1.6319087 559.5 0 0 0 17.750759
-2.7717366 8.3673878 1.824944 503 0 0 0 19.702345
-2.2967427 8.2704067 1.7779626 617 0 0 0 20.486431
-1.7404933 8.1668377 1.7308663 526 0 0 0 21.455652
-1.3073997 8.0620985 1.6934569 567 0 0 0 22.242029
-0.50359195 8.0523949 1.6736581 732 0 0 0 23.79805
-0.20729139 8.1579142 1.6928213 530 0 0 0 24.386625
0.19920005 8.2673645 1.7155726 703.5 0 0 0 25.168755
0.5160535 8.4285917 1.7513775 719 0 0 0 25.750259
1.1360229 8.3589859 1.5429279 706 0 0 0 26.92091
3.9051921 8.4690523 1.7048538 482 0 0 0 31.615721
4.2847271 8.2034245 1.7503459 504.75 0 0 0 32.388931
11.401718 8.1152201 1.852265 238 0 0 0 39.816193
-19.928894 8.6886587 1.812503 47 0 0 0 6.2474899
-13.398081 8.8072138 1.7287093 155 0 0 0 8.9778204
-12.437805 8.6146727 1.6323591 188 0 0 0 9.3660803
-10.423133 8.8323145 1.8094214 192 0 0 0 10.9202
-9.6163855 8.5561457 1.7058883 254 0 0 0 11.31617
-3.8514867 8.6876411 1.9652452 342 0 0 0 18.13928
-3.3392038 8.6503067 1.9182789 434 0 0 0 18.926491
0.85757685 8.675415 1.8075374 532.5 0 0 0 26.341591
1.3886948 8.6032038 1.5930167 536 0 0 0 27.31864
1.7620249 8.8114166 1.6420007 463 0 0 0 27.904449
3.3181925 8.8666592 1.7294044 500 0 0 0 30.44482
3.6212671 8.6843967 1.7194946 571.5 0 0 0 31.02067
-11.321087 9.1325788 1.9251878 192 0 0 0 10.53479
1.2461747 9.1153679 1.9059836 552 0 0 0 26.92091
1.5123937 9.3273926 1.9569223 467 0 0 0 27.31864
2.2624173 9.4528427 1.532796 329 0 0 0 28.493299
2.6293898 9.426918 1.5434842 587 0 0 0 29.073601
3.1228931 9.2579432 1.6209894 460 0 0 0 29.917175
59.891697 9.0101309 1.9402483 21 0 0 0 47.224926
2.3970027 9.996006 1.8735894 475 0 0 0 28.493299
2.7831566 9.9630995 1.8856916 424 0 0 0 29.073601
3.1593456 9.8831959 1.8914746 481 0 0 0 29.655029
-43.933159 14.282935 1.5512191 62 0 0 0 4.68506
33.27177 -23.386784 2.3074162 22 0 0 0 59.329247
8.9690485 -15.828702 2.3952401 117 0 0 0 66.363251
9.9982386 -15.783121 2.4585478 121 0 0 0 65.588203
15.808503 -15.03827 2.328269 62 0 0 0 61.670391
15.524149 -12.729012 2.1453443 83 0 0 0 60.504368
34.834938 -12.41318 2.1023326 23 0 0 0 55.035919
8.3281069 -11.829166 2.2695735 107 0 0 0 64.802567
8.7506838 -11.801963 2.3043575 71 0 0 0 64.408607
26.84034 -11.858419 2.406564 13 0 0 0 56.204006
-0.0047873892 -11.329315 2.0678132 45 0 0 0 74.576637
7.6740751 -11.491452 2.1694741 71 0 0 0 65.200401
10.302239 -10.301573 2.2858751 291 0 0 0 62.065689
0.46607789 -9.6276951 2.0009291 16 0 0 0 73.791138
-1.7171812 -9.2099962 2.28968 261 0 0 0 77.513786
0.79091692 -9.2610979 2.3857918 261.5 0 0 0 73.210037
38.748104 -5.6835818 2.2269247 48 0 0 0 51.904728
-21.080698 -5.2752271 2.3310857 139 0 0 0 95.685966
-10.398375 -5.2382102 2.2711482 507 0 0 0 92.165001
4.1277246 -5.3054585 2.39908 37 0 0 0 64.018715
5.2658339 -5.0271358 2.4183538 151 0 0 0 61.670391
29.263134 -5.0269513 2.4371033 36 0 0 0 52.298279
43.155197 -5.2494068 2.4682693 25 0 0 0 51.518841
-16.399878 -4.9756417 2.2675934 180 0 0 0 94.9095
-15.074111 -4.9812822 2.4960942 206 0 0 0 94.526443
-5.7739797 -4.7161798 2.2682946 462.375 0 0 0 88.700333
4.2078495 -4.7747941 2.2749193 509.58334 0 0 0 63.042664
5.27912 -4.9143229 2.1291366 294.25 0 0 0 61.477467
8.7388363 -4.6702318 2.1791186 719.5 0 0 0 57.374126
13.988885 -4.9891667 2.3320103 70 0 0 0 55.035919
14.087866 -4.6368742 2.3289893 147 0 0 0 54.640942
19.058466 -4.7465048 2.1019056 243 0 0 0 53.467648
74.342834 -1.6879652 2.3754861 7 0 0 0 49.956207
70.697136 0.1321163 2.2602315 10 0 0 0 49.571873
67.642593 1.7889402 2.1648352 18 0 0 0 49.186047
29.618208 2.9840145 2.4441216 33 0 0 0 48.008671
6.7278824 3.3537869 2.2804637 828.59998 0 0 0 42.318798
16.253759 3.2820377 2.1903205 227 0 0 0 46.455158
41.88903 3.1733124 2.3868175 48 0 0 0 48.398273
64.490265 3.2928398 2.0674398 22 0 0 0 48.790489
6.6512146 3.6093657 2.2390375 547 0 0 0 41.763752
-9.1404514 5.9842181 2.2540011 130 0 0 0 8.9778204
-0.24721661 5.8692994 2.1638193 144 0 0 0 24.1936
7.4717436 5.9117165 2.4506099 434 0 0 0 39.040958
14.04622 6.2916312 2.0346406 123 0 0 0 42.936241
-5.4033647 6.8838491 2.1942925 202.8 0 0 0 14.20639
-0.84558034 6.6536355 2.219548 330.5 0 0 0 22.820776
5.2327571 6.8303161 2.0018179 275 0 0 0 35.122833
4.9057426 7.1046686 2.0076742 269 0 0 0 34.33831
5.2140112 7.1632113 2.0596387 236 0 0 0 34.734913
5.8913174 7.3008642 2.1793575 159 0 0 0 35.513832
6.3562112 7.4868259 2.2800119 55 0 0 0 35.9011
-10.154114 7.7796049 2.1675515 96 0 0 0 10.15105
4.2955985 7.7586336 2.0599694 297 0 0 0 32.781071
4.7598977 7.6765118 2.3209734 340 0 0 0 33.562012
-25.774752 8.3589678 2.254426 28 0 0 0 4.68506
-8.6697874 8.0955219 2.3017678 657 0 0 0 11.70517
-2.5788991 8.1087227 2.2826374 272.5 0 0 0 19.895229
4.3667817 8.1970491 2.30773 281.33334 0 0 0 32.518703
5.00038 8.0559568 2.4336848 147 0 0 0 33.564289
10.804064 8.3089314 2.142909 257 0 0 0 39.232971
-19.854694 8.6563206 2.329447 369 0 0 0 6.2474899
-17.431534 8.6325426 2.0937579 67 0 0 0 7.0243001
-16.465776 8.6561804 2.4580669 110 0 0 0 7.4102302
-9.5990438 8.5411377 2.3347943 35 0 0 0 11.31617
-1.7723367 8.8842888 2.0963819 373.5 0 0 0 21.650579
-1.4185011 8.7866716 2.0601182 339 0 0 0 22.242029
-0.65928042 8.9038563 2.0670538 358.5 0 0 0 23.601936
-0.22030285 8.9093609 2.0636716 466 0 0 0 24.386625
4.2285461 8.8730707 2.0373344 408 0 0 0 31.807671
10.368744 8.6042986 2.1182883 247 0 0 0 38.644161
12.730792 8.5922232 2.0292456 158 0 0 0 40.212261
13.576676 8.6819534 2.1274688 157 0 0 0 40.595081
14.171848 8.5769339 2.185993 127 0 0 0 40.988552
-17.346384 9.1258726 2.1093411 55 0 0 0 7.4102302
-16.886646 9.4177322 2.0808482 87 0 0 0 7.80338
-16.188828 9.0225582 2.4488177 177 0 0 0 7.80338
-7.3309975 9.1987133 2.1389344 89 0 0 0 14.04753
-4.4136319 9.0560656 2.0817325 487 0 0 0 17.55842
-2.8347797 9.3442345 2.2571354 271 0 0 0 20.093056
-2.2765536 9.0788021 2.1648083 378 0 0 0 20.87389
0.22705755 9.1193027 2.1121607 444 0 0 0 25.168755
0.58099979 9.3656683 2.1720803 536 0 0 0 25.750259
3.7421408 9.2881546 2.0744705 501 0 0 0 30.82872
-16.245646 9.5836344 2.4916627 120 0 0 0 8.1976099
0.83175367 9.5601664 2.2208498 423 0 0 0 26.14994
1.1010317 9.8195248 2.2860718 563 0 0 0 26.533239
1.7939298 9.5528736 2.0122497 457 0 0 0 27.707939
3.26108 9.7901592 2.1356926 339 0 0 0 29.851639
4.2832241 9.9040575 2.4968333 380 0 0 0 31.21505
4.5207191 9.7835112 2.4941449 352 0 0 0 31.615721
-10.525106 10.345227 2.3156047 82 0 0 0 12.09702
1.4119003 10.266179 2.3962004 410 0 0 0 26.92091
1.8570756 10.572838 2.4815862 236.5 0 0 0 27.51329
2.3111827 10.779334 2.2779539 328 0 0 0 28.10096
2.7255642 10.752926 2.2924473 371 0 0 0 28.68574
3.1387753 10.703855 2.305166 433 0 0 0 29.26902
8.1500607 -15.246765 2.7058239 33 0 0 0 66.761086
8.2876778 -14.629823 2.6324403 47 0 0 0 66.363251
15.480531 -12.689031 2.6316993 95 0 0 0 60.504368
19.246616 -12.162848 2.9888823 58 0 0 0 58.54483
8.2712955 -11.748878 2.6100993 27 0 0 0 64.802567
28.271236 -11.667769 2.5069029 23 0 0 0 55.808918
10.27981 -10.279447 2.820044 212.5 0 0 0 62.065689
-32.929272 -9.1032219 2.8140137 34 0 0 0 95.289345
-1.8333516 -9.2115517 2.7591515 364.5 0 0 0 77.706947
0.78490567 -9.1760836 2.7056944 325 0 0 0 73.210045
-15.676826 -8.8853502 2.8278615 91 0 0 0 91.39389
16.867348 -8.470521 2.9523211 69 0 0 0 56.983112
-33.978432 -7.6186304 2.8672945 37 0 0 0 96.064476
-6.1506405 -7.138875 2.7692962 65 0 0 0 85.917793
-5.9695215 -7.2810884 2.6516831 20 0 0 0 85.518929
-10.606318 -5.6758752 2.7873943 97 0 0 0 91.776794
-21.0956 -5.2827959 2.8676665 126 0 0 0 95.685966
-10.426303 -5.2544913 2.8499155 332.5 0 0 0 92.165001
5.2467546 -5.0056577 2.6760285 76 0 0 0 61.670391
8.9350243 -5.0602179 2.890898 47 0 0 0 57.7593
-5.7929506 -4.7169008 2.6986835 422.60001 0 0 0 88.729553
8.616951 -4.6040745 2.7504547 933.33331 0 0 0 57.374126
13.926508 -4.7750196 2.6773391 181 0 0 0 54.838432
18.992449 -4.7268362 2.5767007 180 0 0 0 53.467648
23.703249 -4.6765227 2.5774524 99 0 0 0 52.691353
33.914883 -4.9698558 2.8079603 41 0 0 0 51.904728
8.9284916 -4.2197409 2.7825541 47 0 0 0 56.587738
-79.275131 1.6125644 2.6554959 28 0 0 0 0
6.6944137 3.2978535 2.7068362 684 0 0 0 42.395557
16.246172 3.2804089 2.6004326 225 0 0 0 46.455158
-78.87764 3.5409651 2.6431069 21 0 0 0 0.39135
6.569365 3.5665138 2.6740484 573.66669 0 0 0 41.763752
-5.6443233 6.874918 2.8180661 177.5 0 0 0 13.850295
-0.85465932 6.7248087 2.5742826 249.5 0 0 0 22.820774
-10.158627 7.7821913 2.7938793 80 0 0 0 10.15105
17.484365 7.8253593 2.9976599 161 0 0 0 42.936241
-8.9011793 8.3117132 2.8076808 9 0 0 0 11.70517
-2.5524986 8.0193911 2.7748039 662 0 0 0 19.895229
10.652618 8.4045658 2.8047178 126 0 0 0 39.040958
11.021095 8.2618742 2.6771765 219 0 0 0 39.42498
-9.5878754 8.5300331 2.8017859 410.5 0 0 0 11.31617
-3.2235839 8.6615276 2.7045197 545.5 0 0 0 19.119841
10.643298 8.8307114 2.6867623 87 0 0 0 38.644161
4.8351045 9.8177786 2.5323493 349 0 0 0 31.99962
10.707159 9.8113022 2.6397078 114 0 0 0 37.866119
26.440773 9.5455856 2.9915559 35 0 0 0 44.114792
3.9219213 10.449289 2.5806885 357 0 0 0 30.44482
4.1074457 10.176678 2.5384209 324 0 0 0 30.82629
-9.0911303 10.876186 2.9206746 42 0 0 0 13.65306
1.6356235 10.867506 2.8093147 273 0 0 0 27.119774
3.3325498 10.71963 2.6859839 301 0 0 0 29.52636
3.7044365 10.659393 2.7485285 271 0 0 0 30.04825
4.1267023 10.984404 2.9996636 226 0 0 0 30.44482
-13.245007 11.24802 2.7235014 87 0 0 0 10.9202
1.133732 11.273555 2.8947253 393 0 0 0 26.341591
2.6941366 11.824244 2.7996294 163 0 0 0 28.297131
3.1321106 11.728343 2.8025661 172 0 0 0 28.87818
-45.568779 16.062366 2.800559 18 0 0 0 5.0692701
-42.414272 17.329754 2.6557019 16 0 0 0 5.8529801
33.283768 -23.387005 3.3212206 36 0 0 0 59.329247
-13.888315 -16.110369 3.3304458 19 0 0 0 85.917793
-13.301576 -16.218184 3.2845962 33 0 0 0 85.518929
-14.350952 -15.843469 3.3470373 20 0 0 0 86.317039
-14.733206 -15.484041 3.3466213 43 0 0 0 86.700684
7.6917491 -15.280905 3.101454 24 0 0 0 67.151321
8.1930799 -15.327094 3.1500661 19 0 0 0 66.761086
8.906415 -14.857842 3.1396863 57 0 0 0 65.972542
-3.3450413 -13.364945 3.1835933 212 0 0 0 78.492622
15.420224 -12.639931 3.1153615 84 0 0 0 60.504368
7.9138985 -11.84518 3.2873738 95 0 0 0 65.200401
8.8205843 -11.894136 3.2337804 65.5 0 0 0 64.408607
9.2384825 -11.839853 3.0960493 24 0 0 0 64.018715
-53.010933 -10.51396 3.0837762 24 0 0 0 96.454361
7.877697 -10.09806 3.2737672 84 0 0 0 64.018715
10.287146 -10.283404 3.3568163 158 0 0 0 62.065689
0.47906807 -9.8163853 3.3696108 130.5 0 0 0 73.791138
23.525482 -9.7078638 3.3375347 33 0 0 0 55.808918
-10.26067 -9.3093119 3.2037857 29 0 0 0 87.86853
-2.08881 -9.3034382 3.2696233 252 0 0 0 78.098541
-1.8507699 -9.2954559 3.1342938 208 0 0 0 77.706947
0.44840947 -9.1761036 3.4888904 216 0 0 0 73.791138
0.81916732 -9.1370649 3.1095383 115 0 0 0 73.145241
1.162356 -9.4466486 3.3802912 225 0 0 0 72.62159
20.459011 -8.4449787 3.4559243 39 0 0 0 55.808918
24.889008 -7.5078478 3.4091442 22 0 0 0 54.257381
-9.0125427 -6.6919489 3.1567461 40 0 0 0 89.435844
-8.7724037 -6.5161076 3.34251 53 0 0 0 89.435844
-8.9324169 -6.3007622 3.343683 47 0 0 0 89.826721
-29.18421 -5.7949548 3.1781268 30 0 0 0 96.454361
11.609698 -5.8344769 3.3246431 27 0 0 0 56.983112
12.18932 -5.753808 3.4476805 76 0 0 0 56.587738
-21.177141 -5.3031306 3.4189372 121 0 0 0 95.685966
-15.732769 -5.1986694 3.2175298 153 0 0 0 94.526443
-10.450373 -5.2665701 3.2905474 271 0 0 0 92.165001
8.7530413 -5.0970488 3.2248957 154 0 0 0 57.959755
14.065013 -5.0166435 3.0827911 214 0 0 0 55.035919
29.233833 -5.0222735 3.1560347 51 0 0 0 52.298279
8.4301329 -4.5055666 3.1665909 428 0 0 0 57.374126
13.891154 -4.5714903 3.1991918 278.5 0 0 0 54.640942
18.88763 -4.7010708 3.0451 161 0 0 0 53.467648
23.894371 -4.7101192 3.1975355 99 0 0 0 52.691353
8.3138304 -4.4400754 3.3545251 409 0 0 0 57.374126
8.8574791 -4.1845608 3.001997 566 0 0 0 56.587738
9.0624981 -4.0132875 3.2828348 209 0 0 0 56.204006
8.7683687 -3.8800733 3.4128969 69 0 0 0 56.204006
39.700695 -2.8525951 3.2552855 12 0 0 0 50.741859
-12.371313 0.24133939 3.4550884 155 0 0 0 0
-13.235593 2.8824263 3.4492731 238 0 0 0 3.1271501
16.415588 2.8954611 3.2342367 64.5 0 0 0 46.837559
29.593458 2.9813094 3.1655657 48 0 0 0 48.008671
-13.119167 3.1937275 3.273622 410 0 0 0 3.51665
16.258587 3.2827554 3.2186322 161 0 0 0 46.455158
41.737007 3.1688147 3.4214559 42 0 0 0 48.398273
-19.83658 6.4208393 3.2672904 71 0 0 0 4.68506
-7.5917897 6.4083424 3.265187 50 0 0 0 10.9202
27.553593 6.2607594 3.0083191 19 0 0 0 46.061607
-6.0344114 6.8238358 3.4395008 49 0 0 0 13.26656
-5.7752109 6.859735 3.2776685 136.5 0 0 0 13.65306
56.094276 7.0339613 3.1987901 18 0 0 0 47.626472
17.379086 7.7783194 3.4521496 124 0 0 0 42.936241
-27.283201 8.117568 3.0562422 44 0 0 0 4.2955699
10.631794 8.3912153 3.1320789 163 0 0 0 39.040958
11.06329 8.2963018 3.1972136 10 0 0 0 39.42498
54.022224 8.1275015 3.0919974 12 0 0 0 47.224926
-9.5983553 8.5383997 3.2743208 34 0 0 0 11.31617
-9.3323555 8.719346 3.2554767 40 0 0 0 11.70517
-3.240669 8.7054653 3.2313566 157.5 0 0 0 19.120571
10.529734 8.7400961 3.3319592 170 0 0 0 38.644161
-7.7880259 10.835093 3.4014854 184 0 0 0 14.82688
-4.3175411 10.846508 3.2679162 187 0 0 0 18.733139
1.6248369 10.799055 3.0630767 314 0 0 0 27.119774
3.4210944 10.687599 3.1486948 348 0 0 0 29.655029
3.7203968 10.703903 3.1796241 300 0 0 0 30.04825
4.1110659 10.943224 3.2792399 287 0 0 0 30.44482
-8.0638685 11.223246 3.1845136 74 0 0 0 14.82688
1.129257 11.233265 3.1648374 312.5 0 0 0 26.341591
3.3126383 11.288673 3.1514864 159 0 0 0 29.26902
-5.71068 12.152598 3.0947561 335.5 0 0 0 17.750759
-5.2529545 12.33906 3.0906239 89 0 0 0 18.335461
-4.9491415 12.465919 3.0909834 207 0 0 0 18.733139
18.097479 12.196964 3.4078677 69 0 0 0 40.212261
-4.6381969 12.574593 3.2520401 189 0 0 0 19.119841
17.673485 12.555156 3.385175 73 0 0 0 39.816193
-3.2621219 13.174652 3.460017 175 0 0 0 20.87389
-2.8006854 13.414005 3.4928129 200 0 0 0 21.454229
-7.2839499 -15.410086 3.5150702 23 0 0 0 81.620163
-6.8256207 -15.414955 3.889225 45 0 0 0 81.230385
8.801506 -14.677814 3.9423428 32 0 0 0 65.972542
23.637461 -14.131929 3.6076562 13 0 0 0 58.16021
-3.3455672 -13.367212 3.6930964 185 0 0 0 78.492622
15.310982 -12.550801 3.5839672 61 0 0 0 60.504368
31.050039 -12.813369 3.5662012 25 0 0 0 55.808918
9.5610609 -12.247716 3.5824132 36 0 0 0 64.018715
19.229546 -12.152349 3.5496678 105 0 0 0 58.54483
31.329779 -12.036201 3.563447 19 0 0 0 55.419739
8.7627945 -11.814526 3.754545 180 0 0 0 64.408607
113.49397 -10.973434 3.6223271 11 0 0 0 51.130409
7.6291342 -10.29121 3.5928113 77 0 0 0 64.408607
-10.049308 -9.5775175 3.5506825 16 0 0 0 87.483429
-2.0930827 -9.3303308 3.6300304 230 0 0 0 78.098541
9.134655 -9.1336498 3.784529 101.5 0 0 0 62.065689
-18.953909 -8.967598 3.8039942 24 0 0 0 92.556282
16.9492 -8.5120039 3.9036703 41 0 0 0 56.983112
18.846046 -8.3288975 3.7302911 14 0 0 0 56.204006
-34.253372 -7.6801348 3.7430453 21 0 0 0 96.064476
11.887063 -7.5188761 3.5947275 28 0 0 0 58.54483
17.071287 -7.5464807 3.842612 83 0 0 0 56.204006
19.170879 -7.9146137 3.7548299 31 0 0 0 55.808918
19.868097 -7.6356206 3.8525639 32 0 0 0 55.419739
12.100896 -7.243783 3.9553561 49 0 0 0 58.16021
15.024253 -7.0874109 3.8312547 13 0 0 0 56.587738
17.261801 -7.1283941 3.8450317 127 0 0 0 55.808918
15.643758 -6.9138823 3.9436455 25 0 0 0 56.204006
16.036366 -6.6204953 3.9999633 71 0 0 0 55.808918
17.900457 -6.8812704 3.9474897 30 0 0 0 55.419739
-8.9765835 -6.0052414 3.5712469 77 0 0 0 90.228523
20.30957 -6.1294684 3.8405561 48 0 0 0 54.257381
-20.651903 -5.7143393 3.8869362 22 0 0 0 95.289345
-14.520049 -5.6061387 3.9790807 75 0 0 0 93.733551
-10.53184 -5.6359472 3.9470427 94 0 0 0 91.776794
-9.1864347 -5.8288178 3.8641093 20 0 0 0 90.614166
-8.7110395 -5.8320889 3.9810321 30 0 0 0 90.228523
8.8535042 -5.602335 3.9804482 103 0 0 0 58.54483
12.770737 -5.6477776 3.9179258 124 0 0 0 56.204006
18.488111 -5.5812006 3.9755855 82 0 0 0 54.257381
-15.776972 -5.2162433 3.8378689 80 0 0 0 94.526443
-10.60726 -5.0239463 3.7341485 188.5 0 0 0 92.556282
-10.457689 -5.2713528 3.7260981 292.5 0 0 0 92.165001
-8.7026615 -5.2270012 3.856617 70 0 0 0 91.000839
8.9619169 -5.3667002 3.7126741 371 0 0 0 58.16021
9.1485996 -5.1769471 3.9941614 28 0 0 0 57.7593
19.699705 -5.4208317 3.7007046 31 0 0 0 53.86372
24.047062 -5.3579569 3.8443165 13 0 0 0 53.076328
-21.260967 -4.7721491 3.9520495 93 0 0 0 96.064476
-16.088263 -4.8840451 3.8828809 113 0 0 0 94.9095
9.3284349 -4.6883459 3.7116721 388 0 0 0 56.983112
9.8896961 -4.6722727 3.6181681 35 0 0 0 56.587738
13.884555 -4.5682826 3.7365046 192 0 0 0 54.640942
18.782118 -4.6751289 3.5081449 162 0 0 0 53.467648
24.094185 -4.7497368 3.8324738 63 0 0 0 52.691353
8.2657633 -4.414639 3.5654852 189 0 0 0 57.374126
18.796204 -4.190701 3.9655616 206 0 0 0 53.076328
24.265301 -4.1662793 3.8424292 121 0 0 0 52.298279
29.12752 -4.264771 3.8575277 37 0 0 0 51.904728
8.7364979 -3.7381134 3.6165295 108.5 0 0 0 56.006462
24.40077 -3.5741048 3.8489988 133 0 0 0 51.904728
-12.327721 -3.4171662 3.9096432 95 0 0 0 95.289345
21.388664 -3.1340129 3.9146905 27 0 0 0 51.904728
35.100597 -3.3920164 3.7456787 19 0 0 0 51.130409
-14.488534 -2.5151489 3.7621284 71 0 0 0 96.850487
-12.993368 -2.5863903 3.7221279 118 0 0 0 96.454361
18.795887 -2.7551606 3.9132652 271 0 0 0 51.904728
-10.799387 -1.6068317 3.8808212 57 0 0 0 97.249481
22.929943 -1.6457912 3.5913024 56 0 0 0 50.741859
37.087284 -1.750317 3.9420192 11 0 0 0 50.34557
17.063456 -0.38079616 3.9395909 17 0 0 0 49.956207
-16.921917 0.33183658 3.8969948 47 0 0 0 0
69.302727 0.1288972 3.9138763 20 0 0 0 49.571873
-20.105898 0.89011961 3.6510065 29 0 0 0 0.39135
-17.228577 0.76167256 3.5512733 72 0 0 0 0.39135
-16.23349 0.714459 3.7413468 23 0 0 0 0.39135
-16.105558 1.1028292 3.7168779 33 0 0 0 0.78403002
-15.854809 1.474723 3.666187 153 0 0 0 1.17951
-15.065617 1.0309829 3.8449998 19 0 0 0 0.78403002
-11.714412 1.0862756 3.8595793 46 0 0 0 1.17951
-11.101593 1.2978944 3.9377332 70 0 0 0 1.5689499
-10.1995 1.1911598 3.8655109 111 0 0 0 1.5689499
13.074782 1.323827 3.6945021 31 0 0 0 48.008671
25.132116 1.2924051 3.9279144 12 0 0 0 48.790489
13.926729 2.2845573 3.9645371 35.5 0 0 0 47.031242
-14.349403 2.7624829 3.7207985 39 0 0 0 2.73985
-12.990936 2.8286972 3.7130501 385 0 0 0 3.1271501
