# .PCD v0.7 - Point Cloud Data file format
VERSION 0.7
FIELDS x y z intensity normal_x normal_y normal_z curvature
SIZE 4 4 4 4 4 4 4 4
TYPE F F F F F F F F
COUNT 1 1 1 1 1 1 1 1
WIDTH 918
HEIGHT 1
VIEWPOINT 0 0 0 1 0 0 0
POINTS 918
DATA ascii
7.3317423 -9.4257259 -0.46883479 124 0 0 0 63.96468
7.6832771 -9.3922329 -0.47677073 148 0 0 0 63.56749
8.2392731 -9.3444767 -0.49010828 104.5 0 0 0 62.976517
19.788239 -9.3734541 -0.34252453 18 0 0 0 56.527969
20.577589 -9.1350327 -0.35248065 35 0 0 0 56.144913
5.6001711 -8.8766651 -0.27984375 574.5 0 0 0 65.526123
21.258749 -8.8185797 -0.36037838 38 0 0 0 55.756592
28.73045 -8.7251244 -0.47728041 204 0 0 0 54.196327
4.8753319 -8.3994045 -0.25649625 2422 0 0 0 66.109192
21.97662 -8.4895315 -0.368983 32 0 0 0 55.366039
22.7097 -8.1371508 -0.37789974 35 0 0 0 54.982674
3.2094345 -7.5251212 -0.11087672 268.5 0 0 0 68.060242
3.567759 -7.5820427 -0.21721999 254.5 0 0 0 67.480164
4.1789541 -7.8544526 -0.23205602 345 0 0 0 66.690262
28.657848 -7.9398246 -0.47138184 208 0 0 0 53.812801
2.8282356 -7.1995988 -0.22805291 217.66667 0 0 0 68.518402
3.1684103 -7.3492255 -0.43310472 337 0 0 0 67.995201
28.591331 -7.170167 -0.46597815 188 0 0 0 53.415154
2.6527719 -6.9217434 -0.45959115 278 0 0 0 68.649933
30.360027 -6.8251786 -0.49294677 56 0 0 0 53.033379
-0.59771466 -6.0031643 -0.070674896 302 0 0 0 76.079926
-0.23413663 -6.2117295 -0.074307047 423.75 0 0 0 75.101379
0.14298809 -6.1903305 -0.074149244 183 0 0 0 74.120567
9.1404438 -6.1273937 -0.29066092 443 0 0 0 58.88308
-2.0154188 -5.6286497 -0.06835378 235 0 0 0 79.985153
-1.7302823 -5.6956406 -0.068196587 225.33333 0 0 0 79.195061
-1.2566242 -5.9116864 -0.070301257 262.25 0 0 0 77.830887
-0.81483209 -5.9580626 -0.070141673 261.5 0 0 0 76.663315
1.3681778 -5.5185604 -0.20463483 900 0 0 0 70.604866
1.722999 -5.6087461 -0.24517876 839.15387 0 0 0 69.731659
2.000731 -5.6379657 -0.36377537 443 0 0 0 69.046013
2.9039366 -5.8067074 -0.23954 1068 0 0 0 67.08654
9.2604265 -5.7762132 -0.24282794 457 0 0 0 58.358902
29.269461 -5.828939 -0.47033805 151 0 0 0 52.637482
-5.1603413 -5.0407429 -0.17531174 293.5 0 0 0 87.215157
-4.716258 -5.1071081 -0.21884103 363.60001 0 0 0 86.390701
-4.2780266 -5.2173934 -0.17359257 519.57141 0 0 0 85.449165
-3.7608125 -5.1624751 -0.25376916 424.66666 0 0 0 84.530563
-0.53286415 -5.0213089 -0.26890951 395 0 0 0 76.176765
-0.19554766 -5.0966763 -0.30363032 444.83334 0 0 0 75.101387
0.25854927 -5.2185221 -0.26545203 400.81818 0 0 0 73.689217
0.71539217 -5.3424678 -0.25769374 568 0 0 0 72.361832
1.1660256 -5.4582224 -0.29166776 826 0 0 0 71.127228
30.11244 -5.2310848 -0.48158097 787 0 0 0 52.24276
-6.7325578 -4.5838032 -0.16961353 308 0 0 0 90.012939
-6.3070612 -4.6823206 -0.28981289 454.28571 0 0 0 89.357338
-5.6508441 -4.7382064 -0.23095235 480 0 0 0 88.413139
-5.3805671 -4.8237681 -0.30547667 411.75 0 0 0 87.890991
-4.7641225 -4.7707062 -0.40903679 841 0 0 0 87.019104
-4.0718398 -4.9662762 -0.38811675 273 0 0 0 85.443916
-3.8736911 -4.9681358 -0.3801131 557 0 0 0 85.060448
-2.7333813 -4.5621161 -0.25090688 900.5 0 0 0 83.102928
-2.2668147 -4.6415634 -0.242981 1007.3125 0 0 0 81.738831
-1.7797499 -4.7305875 -0.26375401 733.21429 0 0 0 80.231102
-1.2816956 -4.8468199 -0.29696879 378.58334 0 0 0 78.609261
-0.81932855 -4.9507113 -0.30881861 362.09091 0 0 0 77.105873
-9.0358782 -4.0104246 -0.13192487 362 0 0 0 92.866653
-7.6911469 -4.1992517 -0.18255688 602.33331 0 0 0 91.572113
-7.2255507 -4.3831553 -0.23205197 341.39999 0 0 0 90.85096
-6.7318401 -4.2667718 -0.48967215 608.33331 0 0 0 90.538094
-5.7439828 -4.4883051 -0.44479811 200 0 0 0 88.970657
-2.976851 -4.4591627 -0.25292429 655.75 0 0 0 83.876961
-9.0592976 -3.756465 -0.25088459 409 0 0 0 93.263351
-8.2035408 -3.80145 -0.26474693 297.33334 0 0 0 92.602257
-7.8424697 -3.95257 -0.21947888 575 0 0 0 92.084877
-16.100124 -2.7936435 -0.24232915 275 0 0 0 96.764191
-14.21883 -2.8291721 -0.21082023 194 0 0 0 96.377586
-18.257051 -2.2503154 -0.2777524 141 0 0 0 97.552116
-16.324537 -2.4209754 -0.24530369 145 0 0 0 97.15551
-23.084936 -1.6991841 -0.35940096 51 0 0 0 98.327713
-20.23967 -1.9909749 -0.3111335 92 0 0 0 97.938805
30.07238 -3.1787902e-05 -0.46695971 15 0 0 0 49.521591
28.8916 1.421313 -0.44619271 16 0 0 0 48.737919
-4.0829577 2.9598212 -0.41060424 267 0 0 0 9.7251596
-3.6624887 2.7608795 -0.25811306 41.5 0 0 0 10.055576
-3.2363465 2.7285702 -0.22792715 39.266666 0 0 0 10.954001
7.2876859 2.8282766 -0.28397626 1238.3334 0 0 0 43.6772
7.672596 2.5498834 -0.19505453 585 0 0 0 44.450329
8.2101784 2.5042148 -0.21004431 143 0 0 0 44.842926
27.983978 2.7602537 -0.43123776 16 0 0 0 47.967159
-2.3394513 3.3709331 -0.22749329 47 0 0 0 15.18734
7.1695457 3.3066711 -0.28653845 396.83334 0 0 0 42.700726
19.981863 3.4747598 -0.29938012 89 0 0 0 46.787941
21.449247 3.1880717 -0.32314244 7 0 0 0 47.176559
-2.3183732 3.7297781 -0.24656954 102.26667 0 0 0 15.970797
7.1749306 3.7495117 -0.19493257 956.25 0 0 0 41.913521
18.921158 3.7724671 -0.28255507 251 0 0 0 46.404041
-2.3054347 4.2841415 -0.21791181 341.375 0 0 0 16.936771
0.32516336 4.0339413 -0.22481106 16 0 0 0 26.108351
7.203999 4.2294188 -0.20202288 1387.25 0 0 0 41.13517
17.434799 4.3785968 -0.25992912 67 0 0 0 45.616447
17.962852 4.0437884 -0.26754895 22 0 0 0 46.00312
-9.3598471 4.8579049 -0.22452348 689.33331 0 0 0 7.2636132
-2.2900298 4.7997975 -0.21374986 460.71429 0 0 0 17.693718
7.2182789 4.7310896 -0.20972024 1331.25 0 0 0 40.35173
17.096079 4.7438788 -0.25566438 211 0 0 0 45.235912
-9.3477039 5.2443385 -0.27139166 534.5 0 0 0 7.78613
-2.2931526 5.2676959 -0.30564818 524.59998 0 0 0 18.228693
7.2458057 5.277051 -0.2188223 1151.75 0 0 0 39.573559
-27.747 5.5111742 -0.4471277 25 0 0 0 2.71856
-9.3563976 5.7109861 -0.2783252 967.5 0 0 0 8.3650398
-2.2730944 5.6818185 -0.20999239 624 0 0 0 18.69269
7.2367063 5.7879014 -0.18863146 752.33331 0 0 0 38.861359
-27.734636 6.2172771 -0.44868344 26 0 0 0 3.11133
-9.311348 6.1617994 -0.28370103 720 0 0 0 8.9585199
-2.2558279 6.0791011 -0.22457701 471.66666 0 0 0 19.08539
0.39415711 6.324192 -0.2188101 42.5 0 0 0 25.711531
7.2692933 6.2149415 -0.27346224 202 0 0 0 38.335907
-9.3254595 6.6774182 -0.29210496 200 0 0 0 9.5324144
-2.2722826 6.6363163 -0.24435987 167.66667 0 0 0 19.47883
0.42356664 6.7131853 -0.23381133 67 0 0 0 25.711531
7.3211746 6.6868067 -0.12303004 723 0 0 0 37.820099
7.079432 7.4967151 -0.12871146 578 0 0 0 36.643646
8.193243 7.4745178 -0.41381904 333 0 0 0 37.820099
5.2658062 7.9700732 -0.3493726 703 0 0 0 33.904099
5.6477504 7.8938894 -0.35589063 702.5 0 0 0 34.486534
6.2038612 7.8215113 -0.36748797 636 0 0 0 35.270924
6.8552232 7.7545896 -0.29865918 513.33331 0 0 0 36.115738
7.09372 7.5091362 -0.38226578 424 0 0 0 36.643646
7.6988807 7.5644984 -0.40142414 206 0 0 0 37.231121
-1.6894752 8.1104355 -0.49891615 697 0 0 0 21.42131
-1.2774276 8.100626 -0.49363923 571.66669 0 0 0 22.202089
-0.77300632 8.1155615 -0.49051887 498.5 0 0 0 23.178501
-0.27138105 8.0568171 -0.4848001 593 0 0 0 24.153505
0.2242313 8.0330353 -0.48322934 733 0 0 0 25.132595
5.0258675 8.0317459 -0.3460499 783 0 0 0 33.516911
6.8770289 8.0407934 -0.1325867 479 0 0 0 35.854591
8.2243519 8.078166 -0.14858876 330.5 0 0 0 37.231121
-0.75602329 8.6551228 -0.18496752 898 0 0 0 23.295904
-0.28430283 8.5924826 -0.25608146 681.75 0 0 0 24.153782
5.4147639 8.6488609 -0.12546931 545 0 0 0 33.516911
6.9347148 8.7430439 -0.14152217 239.5 0 0 0 35.270924
-2.917798 9.3629713 -0.35848004 669 0 0 0 19.86298
-2.1693845 9.3209705 -0.34867877 495 0 0 0 21.0422
-1.7643073 9.0716705 -0.33536333 566.5 0 0 0 21.618385
-1.4749502 9.4385319 -0.3478635 477 0 0 0 22.20031
0.26987261 9.2219257 -0.33457628 691 0 0 0 25.132595
6.9699607 9.4792509 -0.15085687 212 0 0 0 34.679001
-2.7300415 9.5867081 -0.36487785 637 0 0 0 20.2547
-2.480634 9.5974455 -0.36259139 544 0 0 0 20.647539
-1.2692084 9.688138 -0.35662916 338 0 0 0 22.5905
-0.073820174 9.5298357 -0.11412894 59 0 0 0 24.54039
0.41820869 9.9926491 -0.12150784 597 0 0 0 25.32386
5.8451114 9.8560362 -0.14521889 360 0 0 0 33.119091
6.4992814 9.8186302 -0.15059924 385 0 0 0 33.904099
6.8464394 9.8075132 -0.15375504 319 0 0 0 34.294071
-3.148149 10.116182 -0.13221897 512 0 0 0 19.86298
-2.7420883 10.102818 -0.12997609 557.5 0 0 0 20.451118
-2.2130897 10.084803 -0.12745538 566 0 0 0 21.231754
-1.6981213 10.073151 -0.12550792 564 0 0 0 22.007885
-1.3174055 10.063723 -0.12431474 733 0 0 0 22.5905
0.17251012 10.008722 -0.1216998 849 0 0 0 24.94133
29.181568 -13.810271 0.26699886 67 0 0 0 56.527969
11.57675 -12.794262 0.15108 405 0 0 0 62.779991
12.087421 -12.7164 0.15345246 500 0 0 0 62.396568
12.664059 -12.683944 0.15645525 387 0 0 0 61.995781
13.243355 -12.627898 0.15946865 410 0 0 0 61.605679
13.856294 -12.577061 0.16278286 374 0 0 0 61.22456
14.501792 -12.527057 0.16638482 315 0 0 0 60.830887
29.135361 -12.922754 0.26512903 115 0 0 0 56.144913
15.004551 -12.330977 0.16872501 255 0 0 0 60.437759
15.848516 -12.384497 0.17409085 267 0 0 0 60.052288
16.588116 -12.31811 0.1785188 254 0 0 0 59.662621
17.33621 -12.224389 0.183007 199 0 0 0 59.2742
21.30439 -12.080672 0.20891783 10 0 0 0 57.700111
29.030144 -12.032127 0.26297411 130 0 0 0 55.756592
22.180399 -11.866836 0.21443538 88 0 0 0 57.314049
23.297815 -11.737509 0.2219006 112 0 0 0 56.92968
28.819723 -11.123949 0.2601738 101 0 0 0 55.366039
7.2753592 -10.628772 0.12046982 83.5 0 0 0 64.933098
7.8408098 -10.597331 0.12282591 68 0 0 0 64.35289
8.2192183 -10.556438 0.12439587 59 0 0 0 63.96468
8.6167707 -10.523333 0.12616049 79 0 0 0 63.56749
9.0228062 -10.482997 0.12800281 57 0 0 0 63.173038
28.896091 -10.345552 0.25975189 163 0 0 0 54.982674
28.825441 -9.528429 0.25834689 156 0 0 0 54.59
5.6093307 -8.8884239 0.23604041 868.5 0 0 0 65.526123
28.728476 -8.7198782 0.25688684 195 0 0 0 54.196327
3.7013609 -8.1193495 0.31628811 461.5 0 0 0 67.672646
2.9458933 -7.676847 0.19108818 195.5 0 0 0 68.649933
3.2710552 -7.7565589 0.16139598 463.66666 0 0 0 68.125275
3.6002874 -7.6460733 0.090698473 153 0 0 0 67.480164
4.3803482 -7.7648993 0.20551315 211 0 0 0 66.304192
28.672062 -7.9391789 0.2558735 186 0 0 0 53.812801
1.6874163 -7.1530533 0.083385654 540.5 0 0 0 70.802155
2.0643444 -7.1670504 0.083945796 630.5 0 0 0 70.01767
3.6595345 -7.1543107 0.28375039 138.33333 0 0 0 66.954445
28.614197 -7.1713762 0.25499138 177 0 0 0 53.415154
0.89149266 -6.6409559 0.079593226 339 0 0 0 72.358795
1.2421727 -6.7250152 0.080288067 476.5 0 0 0 71.582077
2.2605715 -6.8845673 0.082616515 274 0 0 0 69.426086
30.663166 -6.8884487 0.27027625 60 0 0 0 53.033379
-1.6047376 -6.0821457 0.078979 264.5 0 0 0 78.612122
-1.2318755 -6.1776252 0.078681432 590.33331 0 0 0 77.634415
-0.79033995 -6.3756537 0.0790978 353 0 0 0 76.468849
-0.23794492 -6.2481899 0.077498868 327.5 0 0 0 75.101379
0.29549697 -6.1729465 0.076591998 229.66667 0 0 0 73.725159
0.60593396 -6.2477136 0.07700213 216 0 0 0 72.951195
9.2278242 -6.1841841 0.2530897 155 0 0 0 58.88308
36.617569 -6.3540392 0.31530091 11 0 0 0 52.24276
-4.5855012 -5.5936766 0.3568728 299.5 0 0 0 85.443916
-4.2400055 -5.5780897 0.34639436 443.5 0 0 0 84.861588
-3.8585756 -5.6285048 0.33889586 574.75 0 0 0 84.071396
-3.2056923 -5.5052271 0.081158772 428.5 0 0 0 82.906982
-2.7608876 -5.6623044 0.080238283 607.75 0 0 0 81.738831
-2.2622344 -5.8643861 0.07961949 427.33334 0 0 0 80.37146
-1.8836536 -5.9427185 0.078887686 273 0 0 0 79.390625
1.2745982 -5.5477128 0.37448397 1037.8572 0 0 0 70.885506
1.6976503 -5.6402259 0.29275832 981 0 0 0 69.820473
2.0064714 -5.6506982 0.22325744 533 0 0 0 69.046013
2.9086094 -5.6417961 0.155946 463.5 0 0 0 66.888397
9.3192396 -5.7585173 0.24998325 465.75 0 0 0 58.293728
29.409081 -5.8521495 0.26053691 43 0 0 0 52.637482
38.879734 -5.7664094 0.33258405 99 0 0 0 51.853394
-5.6987967 -5.1294713 0.3138161 524.66669 0 0 0 87.858788
-5.2160931 -5.2545567 0.27260748 569.875 0 0 0 86.970581
-4.7090697 -5.3319716 0.26618105 344.16666 0 0 0 86.03878
-4.2753787 -5.3496389 0.085413709 736 0 0 0 85.252182
-3.890471 -5.3889637 0.083687417 337.5 0 0 0 84.464279
-0.69285321 -5.0649681 0.3232666 664.58331 0 0 0 76.664429
-0.19812511 -5.2021542 0.32807913 678.41669 0 0 0 75.101387
0.25241017 -5.3144612 0.33416218 645.44446 0 0 0 73.725159
0.7277512 -5.4284363 0.34275806 778.25 0 0 0 72.361832
1.0800714 -5.493329 0.28014502 1034.5 0 0 0 71.385597
-7.2202387 -4.70362 0.3149167 605 0 0 0 90.341782
-6.6359053 -4.5600061 0.095583469 345 0 0 0 89.946457
-6.1627555 -4.696516 0.28455815 570.83331 0 0 0 89.163002
-5.8932629 -4.9047422 0.23566157 716.75 0 0 0 88.471062
-2.7546811 -4.5747633 0.31165856 1089.2 0 0 0 83.142113
-2.2894821 -4.6908097 0.3309446 1141.1666 0 0 0 81.738831
-1.7841202 -4.7959747 0.32464609 1006.6667 0 0 0 80.175514
-1.2986666 -4.9163508 0.32231629 589 0 0 0 78.609261
-0.99658471 -4.9893622 0.32207656 560 0 0 0 77.632843
39.220367 -4.8356886 0.33541602 50 0 0 0 51.46925
-9.6530142 -4.2835312 0.37833577 310 0 0 0 92.866653
-9.1870661 -4.2143435 0.23785552 326.5 0 0 0 92.66835
-8.674921 -4.2415466 0.22964136 189 0 0 0 92.277466
-8.0265131 -4.0475912 0.10287704 479 0 0 0 92.084877
-7.8468437 -4.3245282 0.21421999 301 0 0 0 91.508591
-7.3604846 -4.4188228 0.20832434 344 0 0 0 90.930725
-6.984756 -4.4312773 0.097327866 280 0 0 0 90.537651
-6.2600088 -4.4155416 0.37715954 667 0 0 0 89.747009
-2.9789357 -4.4651933 0.074330479 466 0 0 0 83.876961
39.19331 -3.857729 0.3356196 37 0 0 0 51.076881
-18.17086 -2.6972852 0.17197379 59 0 0 0 97.15551
-16.821804 -2.9213631 0.16255538 232 0 0 0 96.764191
38.61142 -2.844943 0.33174881 92 0 0 0 50.68243
-21.546412 -2.1226678 0.1957248 109 0 0 0 97.938805
-18.160601 -2.2412252 0.17119974 125 0 0 0 97.552116
41.886105 -2.0531371 0.35753959 10 0 0 0 50.298111
46.655857 -1.1391484 0.39510047 25 0 0 0 49.909489
39.76041 0.0060470263 0.34319261 14 0 0 0 49.521591
-3.1366227 2.9689705 0.070522428 72 0 0 0 11.874385
-2.9373193 2.9877734 0.069690511 101 0 0 0 12.45312
7.3644538 2.8611009 0.10076107 97 0 0 0 43.676041
7.8093004 2.7024403 0.10342846 232 0 0 0 44.258034
-3.6569915 3.0726736 0.073777057 33 0 0 0 10.90301
-3.2442791 3.3155038 0.15008731 38.333332 0 0 0 12.459073
-2.7508662 3.1770136 0.092644647 107.4 0 0 0 13.467191
-2.446373 3.3483057 0.070084535 166.66667 0 0 0 14.799764
7.2340584 3.2856176 0.1523287 760.5 0 0 0 42.798748
21.377846 3.1808636 0.20691144 34 0 0 0 47.176559
-3.7926044 3.8872921 0.21322881 63 0 0 0 12.45312
-2.695456 3.6057658 0.1836807 70.25 0 0 0 14.60235
-2.39785 3.8148007 0.11830747 237.8 0 0 0 15.89328
1.5726299 3.6993027 0.3714495 15 0 0 0 31.172131
7.2411032 3.7848437 0.20647781 1082.5 0 0 0 41.913521
7.9236736 3.5342953 0.32479152 22 0 0 0 42.89772
8.7491102 3.6442275 0.3511197 879 0 0 0 43.289822
19.516884 3.8941185 0.19445525 65 0 0 0 46.404041
20.603144 3.5858517 0.20193756 81 0 0 0 46.787941
-3.3864789 4.3322954 0.3493697 6.5 0 0 0 14.212215
-2.7539654 4.285871 0.32713896 8.666667 0 0 0 15.70832
-2.3678563 4.3446612 0.19978471 291.57144 0 0 0 16.854143
0.35839596 4.390769 0.40168032 3 0 0 0 26.108351
1.9838526 4.3354545 0.43359715 19 0 0 0 31.56473
7.2043939 4.2313867 0.21011847 800.75 0 0 0 41.135166
17.196348 4.3217444 0.17813921 2634 0 0 0 45.616447
18.678272 4.2074981 0.18895002 53 0 0 0 46.00312
-9.3540335 4.7557693 0.20156567 962 0 0 0 7.1351867
-3.810533 4.5333138 0.37330428 35 0 0 0 13.62076
-3.1111293 4.6451755 0.49311039 21.5 0 0 0 15.383289
-2.5312581 4.7134819 0.47444224 13.5 0 0 0 16.936769
-2.320673 4.8313031 0.12533076 464.66666 0 0 0 17.656754
7.2478247 4.7518692 0.21745929 990.25 0 0 0 40.35173
17.084576 4.7435966 0.17854913 201 0 0 0 45.235912
-9.3476133 5.2410393 0.25044301 563 0 0 0 7.78613
-2.3530576 5.2952094 0.22793464 376.75 0 0 0 18.111244
7.2562804 5.2862916 0.22409523 1181.5 0 0 0 39.573559
17.070599 5.195406 0.17985627 254 0 0 0 44.842926
-9.3699532 5.7158089 0.256475 504.25 0 0 0 8.3650398
-2.3099918 5.7726774 0.16664129 565.5 0 0 0 18.69269
7.2589345 5.8072095 0.19183415 1169.3334 0 0 0 38.861359
-9.3697271 6.3080602 0.21706204 764.66669 0 0 0 9.0855703
-2.343435 6.16078 0.25424111 261 0 0 0 18.954491
0.38947222 6.2867603 0.090903386 36 0 0 0 25.711531
7.2946858 6.2385793 0.27710944 761 0 0 0 38.335907
-9.5120087 6.985775 0.42026773 589 0 0 0 9.7251596
-9.3689308 6.7037134 0.26819149 867 0 0 0 9.5324154
-2.2631748 6.6008725 0.095141076 275 0 0 0 19.47883
7.3399963 6.7061496 0.12016228 403 0 0 0 37.820099
-9.397234 7.259593 0.12880625 483 0 0 0 10.12166
7.077426 7.4971876 0.12387351 511 0 0 0 36.643646
4.7905412 7.8748026 0.34660482 763.5 0 0 0 33.318001
6.9362831 7.7188911 0.25558117 387 0 0 0 36.246311
-8.1473169 8.057085 0.41139328 619 0 0 0 12.06887
0.26838088 8.3890114 0.1789508 845 0 0 0 25.19635
0.53952354 8.3027372 0.31578022 449 0 0 0 25.711531
6.8990545 8.2744503 0.26315632 469.5 0 0 0 35.661617
9.1229496 8.3194056 0.44925466 215 0 0 0 37.820099
-2.2222385 8.5541258 0.33110479 414 0 0 0 20.647539
-0.71891445 8.7030373 0.22000001 1098.1666 0 0 0 23.374174
-0.28896847 8.6923265 0.21949229 1149 0 0 0 24.15461
0.1386662 8.6585417 0.32691544 631 0 0 0 24.94133
5.3944526 8.6201963 0.12403866 539 0 0 0 33.516911
6.9202852 8.9459028 0.27471629 328 0 0 0 35.073208
8.7299652 8.5744867 0.13973477 149.5 0 0 0 37.231121
9.1247015 8.7413149 0.4591569 241 0 0 0 37.42234
-11.587124 9.4321833 0.15318182 273 0 0 0 10.51129
6.9497452 9.4537659 0.28369665 283 0 0 0 34.679001
9.1196527 9.1767101 0.46945584 229 0 0 0 37.039902
-39.205753 9.8037624 0.33140093 24 0 0 0 3.50442
-0.074164726 9.9964247 0.37162143 963 0 0 0 24.54039
0.89977217 9.8676062 0.36920455 22 0 0 0 26.108351
5.8536372 9.8742695 0.13539986 285 0 0 0 33.119091
6.4947023 9.8119135 0.43186572 537 0 0 0 33.904099
6.7297025 9.8127031 0.23814376 337.66666 0 0 0 34.164078
9.1317024 9.6517563 0.48136929 156 0 0 0 36.643646
-3.2394702 10.11283 0.30188766 489.33334 0 0 0 19.73493
-2.7916059 10.116661 0.21204269 474 0 0 0 20.385645
-2.212935 10.077945 0.25228322 555.5 0 0 0 21.231754
-1.6990999 10.071742 0.25033966 611 0 0 0 22.007885
-1.3177381 10.055896 0.24902768 578 0 0 0 22.5905
-0.075675614 10.017668 0.12255608 1084 0 0 0 24.54039
10.599575 -14.321202 0.59799689 194 0 0 0 64.35289
11.253539 -14.448602 0.61406678 283 0 0 0 63.96468
8.7517443 -13.128994 0.53308851 48 0 0 0 65.128433
9.1945038 -13.085426 0.5401507 58 0 0 0 64.737762
10.858539 -13.259291 0.78700018 123 0 0 0 63.56749
10.94324 -12.713654 0.77160019 373.5 0 0 0 63.173038
11.576074 -12.798601 0.58199328 453 0 0 0 62.779991
12.097036 -12.731551 0.59210134 456 0 0 0 62.396568
12.654056 -12.678991 0.60370046 417 0 0 0 61.995781
13.264886 -12.653445 0.61748934 403 0 0 0 61.605679
13.864893 -12.589917 0.63058919 368 0 0 0 61.22456
14.505168 -12.535056 0.64522308 321 0 0 0 60.830887
9.5691376 -12.290895 0.90903509 46 0 0 0 63.96468
15.023427 -12.351534 0.6546613 293 0 0 0 60.437759
15.875404 -12.410631 0.67763811 289 0 0 0 60.052288
16.599289 -12.331594 0.69512981 260 0 0 0 59.662621
17.389088 -12.266876 0.71501702 125 0 0 0 59.2742
21.236774 -12.048069 0.81832099 11 0 0 0 57.700111
22.165407 -11.864598 0.84238273 105 0 0 0 57.314049
23.297438 -11.743235 0.87367314 106 0 0 0 56.92968
4.1653156 -9.6453466 0.79761744 390.66666 0 0 0 67.995201
4.634038 -9.8336859 0.77785051 292 0 0 0 67.480164
5.7440939 -9.6152353 0.80182004 47 0 0 0 65.9142
3.6073527 -9.38943 0.84785527 192 0 0 0 68.649933
5.6155958 -8.8990345 0.75606477 717 0 0 0 65.526123
3.2079091 -8.0609589 0.52049643 312 0 0 0 68.452637
4.426209 -7.8460612 0.76306462 162.66667 0 0 0 66.304192
28.670702 -7.9450245 0.99922228 160 0 0 0 53.812801
-0.52236563 -7.0192862 0.94834524 373 0 0 0 75.688713
-0.18071049 -7.247273 0.9756484 418.33334 0 0 0 74.905609
0.17597523 -7.4346333 0.99951786 387 0 0 0 74.120567
0.53782469 -7.3938971 0.99628097 353 0 0 0 73.333549
3.7964282 -7.3013291 0.7385385 189.8 0 0 0 66.84877
28.601458 -7.1743069 0.99168891 175 0 0 0 53.415154
-3.479738 -6.5181332 0.99696892 792 0 0 0 82.3255
-2.7310412 -6.5976639 0.96400279 782 0 0 0 80.758827
-2.1816809 -6.6043906 0.9393242 581.33331 0 0 0 79.588806
-1.6924473 -6.7521701 0.93952012 395.66666 0 0 0 78.414482
-1.1845018 -6.8150291 0.93332547 297.33334 0 0 0 77.247787
-0.77251279 -6.9324207 0.94039178 344 0 0 0 76.273605
-4.1393108 -6.0400105 0.80948806 637.5 0 0 0 84.071396
-3.637666 -6.4298191 0.99700403 858 0 0 0 82.710922
-3.1530793 -6.4671621 0.97146124 968.5 0 0 0 81.741287
9.3317947 -6.2533798 0.95040298 476 0 0 0 58.88308
-6.8083277 -5.7356176 0.97900575 758.5 0 0 0 88.374527
-6.3870473 -5.7975044 0.94935822 726 0 0 0 87.794174
-5.8450222 -5.7105885 0.90100086 810.5 0 0 0 87.215157
-5.3382039 -5.6700826 0.74644601 401.79999 0 0 0 86.548668
-4.7393885 -5.7236705 0.7504195 622 0 0 0 85.527412
-4.3092155 -5.7207799 0.67802364 796 0 0 0 84.795296
-3.8844035 -5.6686726 0.59516573 452 0 0 0 84.071396
1.2364088 -5.5549812 0.6329996 1139.6666 0 0 0 70.996635
1.7014489 -5.6497722 0.58348989 1058.8334 0 0 0 69.820473
2.0120821 -5.6648178 0.59392321 731 0 0 0 69.046013
9.3069601 -5.752039 0.79080331 444 0 0 0 58.293728
-10.200887 -5.1415944 0.97030044 379 0 0 0 92.084877
-8.9260921 -5.0640426 0.87512159 484 0 0 0 91.318016
-8.2652073 -5.0981846 0.82989377 524 0 0 0 90.734192
-7.6366253 -5.1107368 0.78693801 406 0 0 0 90.145905
-6.6866932 -5.2268486 0.72912419 668 0 0 0 88.970657
-6.3296375 -5.2031684 0.70498246 473 0 0 0 88.567604
-5.6798239 -5.0286703 0.6551404 588 0 0 0 87.987808
-5.381855 -5.1325979 0.64268172 640 0 0 0 87.40728
-0.75424254 -5.0579052 0.57358646 802.59998 0 0 0 76.858109
-0.19761609 -5.2033157 0.58284187 805.75 0 0 0 75.101379
0.25287029 -5.3123822 0.59418046 773.66669 0 0 0 73.725159
0.72890311 -5.4320407 0.61114472 865.5 0 0 0 72.361832
-10.335366 -4.5856643 0.67936754 227 0 0 0 92.866653
-9.3381462 -4.9985514 0.90216285 592 0 0 0 91.699165
-8.6056471 -4.6052527 0.59113586 199 0 0 0 91.699165
-8.2933006 -4.7038035 0.57819241 198 0 0 0 91.318016
-7.8324194 -4.7005558 0.55535376 449 0 0 0 90.930725
-7.3569336 -4.791163 0.53502917 427 0 0 0 90.341782
-6.7131944 -4.9872332 0.71911305 261 0 0 0 89.355347
-2.7767472 -4.5749826 0.63359529 1156.25 0 0 0 83.20089
-2.2926288 -4.6988506 0.58718288 1252.5 0 0 0 81.738831
-1.7886164 -4.8100252 0.57641637 1121 0 0 0 80.175522
-1.3004667 -4.9255266 0.57193047 726 0 0 0 78.609261
-9.2462873 -4.3780055 0.61802208 113 0 0 0 92.470047
-8.8199282 -4.4447556 0.59782118 143 0 0 0 92.084877
-6.2496195 -4.4097404 0.66084301 342 0 0 0 89.747009
-17.803743 -3.088084 0.62127227 186 0 0 0 96.764191
-20.775845 -2.5594432 0.71356058 64 0 0 0 97.552116
-18.026913 -2.6722972 0.62606925 97 0 0 0 97.15551
-25.082212 -2.4656434 0.85147518 49 0 0 0 97.938805
65.785995 1.6259812 0.54570055 14 0 0 0 49.125938
7.3563919 3.9594338 0.5199185 295 0 0 0 41.713913
7.8050256 3.954143 0.54254311 16 0 0 0 42.113129
78.082367 3.8498051 0.64350647 28 0 0 0 48.737919
1.3063186 4.3447332 0.52433038 5.5 0 0 0 29.418091
1.7422296 4.3649316 0.54240662 30.333334 0 0 0 30.784883
7.3242149 4.1784401 0.52454591 20 0 0 0 41.326927
8.6565571 4.1177726 0.59055829 181 0 0 0 42.503727
-9.7815514 4.8753943 0.6541391 5 0 0 0 7.0067601
-3.6932569 4.7338195 0.52626735 22 0 0 0 14.212215
-3.3445659 4.621109 0.50199264 15 0 0 0 14.79763
0.37368894 4.5470033 0.52538794 87 0 0 0 26.108351
0.77281231 4.8787837 0.81045759 17.5 0 0 0 27.280907
1.1335963 4.8128095 0.8119669 15 0 0 0 28.44677
1.6934206 4.74512 0.76585132 22.25 0 0 0 30.196951
7.3803802 4.9670286 0.55166388 21 0 0 0 40.160168
7.5627499 4.82341 0.66806209 78 0 0 0 40.543289
-2.5321431 5.344368 0.52163243 13 0 0 0 17.721439
1.8817692 5.4533863 0.72793365 69.5 0 0 0 29.99654
7.341424 5.208323 0.55792832 7 0 0 0 39.770119
7.5174742 5.0604329 0.78769159 113 0 0 0 40.160168
-3.5167584 5.7200055 0.58632284 26 0 0 0 15.97477
-3.3610489 5.7781692 0.58417475 15 0 0 0 16.358379
-2.5344303 5.913631 0.56504524 408 0 0 0 18.30699
0.89331704 5.5666928 0.64141375 5 0 0 0 27.283489
7.4285183 5.840064 0.5841828 124 0 0 0 38.992992
75.047867 5.5502634 0.62284863 15 0 0 0 48.354801
-9.564271 6.3275857 0.68699729 622 0 0 0 8.9585199
0.88020819 6.4357476 0.89295638 43 0 0 0 26.891621
1.2153143 6.4764557 0.90601087 91.333336 0 0 0 27.671213
1.6185045 6.4152784 0.91002548 45 0 0 0 28.640175
7.4560585 6.1644468 0.5973798 455 0 0 0 38.598087
-9.6227388 6.7109017 0.70252925 635 0 0 0 9.3396702
17.076054 6.6049647 0.64270973 10 0 0 0 43.676041
1.0918913 7.8547788 0.88713878 13 0 0 0 26.891621
6.1252651 7.9286938 0.86891413 228 0 0 0 35.073208
-9.4377823 8.4708672 0.75927418 284 0 0 0 11.2929
-8.715414 8.2108374 0.71913832 368 0 0 0 11.6799
-8.1984444 8.3080797 0.70252383 358 0 0 0 12.260995
-3.2717991 8.2644987 0.8208853 589.75 0 0 0 18.694439
-2.2713718 8.3043919 0.85148191 501.25 0 0 0 20.451118
0.52524912 8.1346607 0.8114177 854.5 0 0 0 25.711531
1.5624962 8.2182541 0.93426496 7 0 0 0 27.670191
3.7193518 8.005496 0.98533386 189 0 0 0 31.56473
4.3949828 8.3456717 0.82065946 700 0 0 0 32.347771
4.6092262 8.093915 0.65636277 638.33331 0 0 0 32.86079
5.587296 8.4575634 0.87890404 734 0 0 0 33.904099
6.907413 8.4891338 0.67226332 435 0 0 0 35.468639
7.0424299 8.2324476 0.6657033 161 0 0 0 35.854591
9.1260986 8.3221836 0.7525022 193 0 0 0 37.820099
-7.8367157 8.7648563 0.70828652 553.5 0 0 0 13.04216
-3.1272862 8.5058126 0.78315538 718 0 0 0 19.08539
-2.9155269 8.579258 0.55873317 668 0 0 0 19.47883
-2.0974433 8.6528826 0.69705635 428 0 0 0 20.910646
-0.71871209 8.6918726 0.75628048 733.33331 0 0 0 23.374172
-0.29017165 8.7103348 0.75586754 611.33331 0 0 0 24.15461
0.34725267 8.602253 0.85499454 825 0 0 0 25.32386
5.3718081 8.5829735 0.75168967 637.5 0 0 0 33.516911
6.9188223 8.9424391 0.69340384 419 0 0 0 35.073208
7.1694398 8.81147 0.97985899 117 0 0 0 35.468639
9.1203089 8.7370653 0.76888114 241 0 0 0 37.42234
9.8444433 8.5396509 0.79164267 364 0 0 0 38.204819
-12.129154 9.394516 0.53668362 328 0 0 0 10.12166
5.4328651 9.1725092 0.92250365 283 0 0 0 33.119091
6.9382195 9.4365511 0.71709412 299 0 0 0 34.679001
9.1327677 9.1897631 0.78797102 281 0 0 0 37.039902
73.734245 9.1105766 0.61932588 19 0 0 0 47.570801
-11.692895 9.5206442 0.89562845 331 0 0 0 10.51129
6.9081144 9.8952074 0.73783118 277 0 0 0 34.294071
9.1352644 9.6554499 0.80765229 229 0 0 0 36.643646
-1.7551448 10.423115 0.64789802 83.5 0 0 0 22.007885
-1.3505756 10.32648 0.63920319 88 0 0 0 22.5905
-0.074365869 10.142003 0.62448704 99 0 0 0 24.54039
0.29920471 10.121357 0.62385547 87.5 0 0 0 25.132595
0.66931695 10.060676 0.62159568 74 0 0 0 25.711531
6.7902422 10.254169 0.75133431 74 0 0 0 33.904099
9.1679087 10.179187 0.83144343 194 0 0 0 36.246311
-12.182004 10.959942 0.57254106 31 0 0 0 11.2929
-11.275608 10.650143 0.5442462 49 0 0 0 11.6799
-3.1850603 10.703201 0.68112469 58 0 0 0 20.05884
-2.1719925 10.525106 0.65773338 69 0 0 0 21.42131
-13.158384 11.273135 0.60288084 37 0 0 0 10.90301
-2.5727794 11.09561 0.97759509 343 0 0 0 21.0422
-2.1449232 11.08632 0.97002256 521.5 0 0 0 21.618385
-1.741766 11.205501 0.97440487 410 0 0 0 22.20031
-1.4639066 11.228095 0.97329783 74 0 0 0 22.5905
-0.076395668 11.195656 0.9641096 94 0 0 0 24.54039
0.19924377 11.206249 0.96535593 135 0 0 0 24.94133
-14.290628 11.654385 0.63883114 86 0 0 0 10.51129
11.603883 -17.397982 1.2066288 73 0 0 0 65.128433
11.439802 -16.273994 1.1499422 60 0 0 0 64.737762
9.7695599 -14.647851 1.4599408 35 0 0 0 65.128433
11.040565 -14.916408 1.0756258 29 0 0 0 64.35289
29.132862 -13.794463 1.0718231 64 0 0 0 56.527969
9.6801491 -13.077926 1.352631 34 0 0 0 64.35289
10.95867 -12.727927 1.3963926 532 0 0 0 63.173038
11.5823 -12.804117 1.2200656 442.5 0 0 0 62.779991
12.117079 -12.751284 1.242909 455 0 0 0 62.396568
12.688557 -12.712202 1.2687132 387.5 0 0 0 61.995781
13.272021 -12.660866 1.066962 379 0 0 0 61.605679
13.891105 -12.614316 1.0912119 338 0 0 0 61.22456
14.524024 -12.551979 1.1161236 342 0 0 0 60.830887
29.084644 -12.907331 1.0596318 104 0 0 0 56.144913
15.029318 -12.357034 1.1314183 304 0 0 0 60.437759
15.861916 -12.400789 1.1702069 257 0 0 0 60.052288
16.623575 -12.3503 1.2033103 242 0 0 0 59.662621
17.392862 -12.270239 1.2365113 122 0 0 0 59.2742
29.026373 -12.037448 1.0479612 134 0 0 0 55.756592
9.5190916 -11.623872 1.2525494 83 0 0 0 63.56749
22.202734 -11.88533 1.4606416 139 0 0 0 57.314049
28.82287 -11.131859 1.0321115 126 0 0 0 55.366039
3.4209092 -10.390238 1.452974 371 0 0 0 69.426086
4.3365383 -10.150297 1.1951797 393 0 0 0 68.060242
4.8600426 -10.309661 1.2331793 327 0 0 0 67.480164
28.88728 -10.348988 1.0263054 152 0 0 0 54.982674
2.872077 -9.5054493 1.3220539 568 0 0 0 69.825233
3.7040703 -9.6403761 1.1202312 226 0 0 0 68.649933
5.7348628 -9.5985088 1.2113155 456 0 0 0 65.9142
28.791248 -9.5235891 1.0157452 141 0 0 0 54.59
2.0645373 -9.2384119 1.4960011 690 0 0 0 70.999451
1.7191309 -8.6914873 1.4024229 747 0 0 0 71.385597
2.3999274 -8.7123928 1.2062472 579 0 0 0 70.210098
5.6204567 -8.9039955 1.2724116 625 0 0 0 65.526123
28.737371 -8.7289066 1.0073528 157 0 0 0 54.196327
-0.60089219 -8.0881786 1.4882908 665 0 0 0 75.688713
-0.30368468 -8.1133547 1.4897122 685 0 0 0 75.103058
1.8276098 -8.1846571 1.1219922 376 0 0 0 70.999451
2.0874701 -8.376545 1.1538988 645 0 0 0 70.604866
-0.55904144 -7.5185122 1.1995672 642 0 0 0 75.688713
-0.1911134 -7.5647283 1.2038367 810.66669 0 0 0 74.905602
0.2749069 -7.629375 1.2137697 748 0 0 0 73.920967
0.76040888 -7.7994666 1.2449052 588 0 0 0 72.945107
1.2286007 -7.6878667 1.1418089 371.5 0 0 0 71.972778
1.550741 -7.8461018 1.0716941 300 0 0 0 71.385597
-3.2368352 -7.0725403 1.2393898 888.5 0 0 0 81.346924
-2.7333813 -7.0871902 1.210786 791.66669 0 0 0 80.37146
-2.2451005 -7.0891881 1.18536 700 0 0 0 79.390625
-1.8036214 -7.1946454 1.1820923 728.33331 0 0 0 78.414482
-1.2773175 -7.3493876 1.1881028 810.33331 0 0 0 77.247787
-0.82917273 -7.4448624 1.1923985 823.5 0 0 0 76.273605
0.36088371 -7.4892859 1.0073534 328 0 0 0 73.721367
0.81749725 -7.4430494 1.0058683 420.5 0 0 0 72.750885
3.7680392 -7.2871971 1.0994897 108 0 0 0 66.888397
-8.7636604 -6.5101366 1.4614732 411 0 0 0 89.355347
-6.2320328 -6.8868651 1.4766016 633 0 0 0 86.23317
-5.759263 -6.854207 1.4242568 710.5 0 0 0 85.64415
-5.2135344 -6.8616505 1.3717575 830.5 0 0 0 84.861588
-4.7131786 -6.8791366 1.3280036 827 0 0 0 84.071396
-4.2292709 -6.8717184 1.285647 795 0 0 0 83.29892
-3.6803386 -6.893425 1.2457378 768.33331 0 0 0 82.324127
30.637758 -6.8892193 1.0547181 47 0 0 0 53.033379
33.474106 -6.6669769 1.1442548 56 0 0 0 52.637482
-9.1513166 -6.4555006 1.4985195 435 0 0 0 89.747009
-8.2898703 -6.4801459 1.4096581 558 0 0 0 88.970657
-7.7878017 -6.4019971 1.3518751 702 0 0 0 88.567604
-7.4516554 -6.4386358 1.3211741 701 0 0 0 88.181442
-6.7668357 -6.2945085 1.2417736 670.5 0 0 0 87.600723
-6.1944275 -6.2051792 1.1794767 504 0 0 0 87.023033
-5.7590218 -6.2088633 1.1401589 869 0 0 0 86.430084
-5.2842989 -6.2895174 1.1065927 619 0 0 0 85.64415
-4.7423396 -6.400599 1.073722 822.66669 0 0 0 84.663002
-4.3058157 -6.4537091 1.0459751 885 0 0 0 83.876961
-3.8341155 -6.4057069 1.0073802 940 0 0 0 83.10305
36.809757 -6.3949547 1.2502111 20 0 0 0 52.24276
-12.338186 -5.8418207 1.4843665 364 0 0 0 92.470047
-11.538701 -5.8147497 1.4067599 397 0 0 0 92.084877
-10.659808 -5.7047796 1.3184861 409 0 0 0 91.699165
-10.073189 -5.7136793 1.2642936 383 0 0 0 91.318016
-9.6088457 -5.7668686 1.2244418 400 0 0 0 90.930725
-9.0339136 -5.7284446 1.1702321 485 0 0 0 90.537651
-8.5967398 -5.7521424 1.1325836 503 0 0 0 90.145905
-8.0055027 -5.6462688 1.0743591 486 0 0 0 89.747009
-7.6964812 -5.716403 1.0520006 728 0 0 0 89.355347
-7.4171643 -5.7968416 1.0334375 688 0 0 0 88.970657
9.2956028 -5.7968431 1.2847706 398 0 0 0 58.358902
9.5173025 -5.7197275 1.4842103 272 0 0 0 58.09819
38.892769 -5.7762966 1.3150451 96 0 0 0 51.853394
-10.778513 -5.1044335 1.0115181 419 0 0 0 92.470047
-10.98204 -4.874259 1.0188829 430 0 0 0 92.866653
39.210693 -4.8424501 1.3224448 55 0 0 0 51.46925
39.169918 -3.8633168 1.3188491 52 0 0 0 51.076881
-19.25666 -2.8539493 1.1431165 131 0 0 0 97.15551
38.576523 -2.850095 1.2979686 100 0 0 0 50.68243
42.34581 -2.0840781 1.4203318 17 0 0 0 50.298111
39.904285 -0.0018249078 1.3413554 102 0 0 0 49.521591
4.8941917 7.4230409 1.2115245 758 0 0 0 33.904099
5.2137494 7.3646636 1.1546892 647.66669 0 0 0 34.422379
-4.3458972 7.7288971 1.413754 759 0 0 0 16.550144
-3.7467086 7.7327514 1.3723664 751 0 0 0 17.524837
-3.3700416 7.9246674 1.3760824 717 0 0 0 18.30699
2.9317482 7.782505 1.3413745 687 0 0 0 30.400141
3.2815957 7.8158102 1.3668249 697 0 0 0 30.977255
4.7980704 7.7866073 1.2450694 411 0 0 0 33.417458
5.0545993 7.6602859 1.0229456 357 0 0 0 33.904099
5.6935034 7.563509 1.0539052 567 0 0 0 34.876106
6.2875996 7.7382107 1.2330093 541.5 0 0 0 35.468639
-37.501369 8.4118004 1.2726268 29 0 0 0 3.11133
-8.8510065 8.1327133 1.3090155 389 0 0 0 11.486401
-5.0287342 8.2397547 1.1799612 760 0 0 0 15.97477
-4.8201809 8.1170139 1.2704775 722 0 0 0 16.166574
-3.2553799 8.2181091 1.3040117 488.5 0 0 0 18.694439
-2.2862847 8.3520994 1.280167 554 0 0 0 20.451118
-1.7784907 8.3123703 1.2792823 588 0 0 0 21.348495
-1.3413113 8.4912891 1.3784555 709 0 0 0 22.20031
0.63132894 8.2353764 1.1249791 884 0 0 0 25.909941
3.7982025 8.1762037 1.3398068 652.5 0 0 0 31.56473
4.3479433 8.2613907 1.2700465 595 0 0 0 32.347771
4.5105963 8.0812397 1.3744853 606 0 0 0 32.73164
6.2687597 8.1155252 1.3911152 259 0 0 0 35.073208
10.297891 8.4990482 1.4683381 321 0 0 0 38.598087
10.814713 8.485116 1.1754289 254 0 0 0 38.992992
11.314764 8.4343081 1.2054194 246 0 0 0 39.376999
11.927879 8.4408722 1.246415 136 0 0 0 39.770119
-12.314763 8.6036081 1.262539 269 0 0 0 9.3396702
-11.548477 8.9362574 1.2292118 242 0 0 0 10.12166
-8.8358383 8.7406244 1.3532965 245 0 0 0 12.06887
-7.955174 8.6736021 1.2840779 299 0 0 0 12.84531
-4.896965 8.7361565 1.2235618 184 0 0 0 16.550144
-3.1537216 8.5732203 1.233821 469 0 0 0 19.08539
-2.9544809 8.6833229 1.4653232 668 0 0 0 19.47883
-1.63845 8.9689322 1.2344724 333 0 0 0 21.81546
-0.6791653 8.7075672 1.2726202 856 0 0 0 23.451939
-0.29409012 8.7659512 1.3004402 739.5 0 0 0 24.15461
3.7032802 8.511035 1.2627456 497 0 0 0 31.172131
4.3188634 8.7161417 1.321663 527 0 0 0 31.96212
4.6931152 8.9036493 1.1181409 171 0 0 0 32.347771
9.765708 8.6884594 1.2795608 338.25 0 0 0 38.012459
10.316097 8.5140924 1.1450927 313 0 0 0 38.598087
-12.562963 9.2444973 1.3103824 172 0 0 0 9.7251596
-11.633375 9.467536 1.2624208 169 0 0 0 10.51129
6.9409952 9.4437609 1.0099919 126 0 0 0 34.679001
-38.577377 9.651391 1.3167328 19 0 0 0 3.50442
-4.3354006 9.5811357 1.4141943 498 0 0 0 17.915501
6.5217342 10.989515 1.4092047 24 0 0 0 33.119091
7.5231061 10.772245 1.1277319 200 0 0 0 34.294071
9.3842449 10.950485 1.2333037 272 0 0 0 35.854591
9.8460875 10.931069 1.2571256 202 0 0 0 36.246311
10.329735 10.913527 1.2829858 238 0 0 0 36.643646
10.85852 10.918891 1.3135266 202 0 0 0 37.039902
11.359006 10.871755 1.3400949 234 0 0 0 37.42234
-14.82661 11.49954 1.1060288 331 0 0 0 10.12166
-13.42558 11.497601 1.4831082 165 0 0 0 10.90301
-12.051628 11.383348 1.3940785 182 0 0 0 11.6799
-11.462227 11.367554 1.3589393 225 0 0 0 12.06887
-9.7457714 11.469823 1.2711458 180 0 0 0 13.429885
-5.8000135 11.349215 1.3940892 419 0 0 0 17.13163
-5.2851515 11.347594 1.3706274 407 0 0 0 17.721439
-4.1287127 11.303293 1.3204079 340 0 0 0 19.08539
-3.7139139 11.297927 1.1142228 249.66667 0 0 0 19.60688
-3.4999473 11.263618 1.2957613 76 0 0 0 19.86298
-2.1428382 11.073675 1.2423886 658 0 0 0 21.618385
-1.7438166 11.217251 1.2506454 511 0 0 0 22.20031
-1.4637153 11.224134 1.2474737 47 0 0 0 22.5905
-0.076646179 11.181021 1.2342832 70 0 0 0 24.54039
0.19842185 11.182645 1.2349055 53 0 0 0 24.94133
2.3991072 11.00366 1.2452755 9 0 0 0 28.059959
5.4816294 11.022429 1.2092304 339 0 0 0 31.96212
6.176496 11.018901 1.393477 26 0 0 0 32.73164
-15.832072 11.674249 1.1572844 46 0 0 0 9.7251596
-13.424938 11.502144 1.0451719 205 0 0 0 10.90301
-11.056243 11.513953 1.3446956 185 0 0 0 12.45312
-10.526163 11.510767 1.315246 149 0 0 0 12.84531
-7.4011459 11.545959 1.4955344 31 0 0 0 15.57924
6.466929 -13.700076 1.9998379 54 0 0 0 67.480164
5.3706398 -12.994989 1.85823 75 0 0 0 68.255348
10.958498 -12.728298 1.8044591 590 0 0 0 63.173038
11.592264 -12.813752 1.8558577 445 0 0 0 62.779991
12.144066 -12.7783 1.893158 370 0 0 0 62.396568
12.68759 -12.709942 1.9285054 426 0 0 0 61.995781
13.295419 -12.679668 1.7494544 324.5 0 0 0 61.605679
13.892238 -12.611574 1.5584791 325 0 0 0 61.22456
14.544934 -12.566256 1.5963049 278 0 0 0 60.830887
29.115732 -12.92206 1.841019 46 0 0 0 56.144913
9.5979586 -12.324467 1.6799116 44 0 0 0 63.96468
15.043302 -12.364789 1.6173501 258 0 0 0 60.437759
15.889365 -12.418444 1.6743842 236 0 0 0 60.052288
16.648296 -12.364834 1.7215121 210 0 0 0 59.662621
17.393528 -12.266878 1.766656 78 0 0 0 59.2742
29.014839 -12.033592 1.8170248 145 0 0 0 55.756592
3.8608127 -11.720775 1.9397923 246 0 0 0 69.426086
23.338772 -11.764841 1.5154053 127 0 0 0 56.92968
24.303049 -11.510946 1.5590537 11 0 0 0 56.527969
3.3546119 -11.09462 1.8239321 411 0 0 0 69.825233
28.810827 -11.128109 1.7883028 116 0 0 0 55.366039
2.3727736 -10.609313 1.9817781 370 0 0 0 70.999451
3.8074048 -10.674364 1.5042094 453 0 0 0 69.046013
4.1973081 -10.913149 1.5509603 250 0 0 0 68.649933
2.0287385 -10.245682 1.9053793 484 0 0 0 71.385597
2.828851 -10.260643 1.6776346 381 0 0 0 70.210098
28.859367 -10.339874 1.7763587 156 0 0 0 54.982674
-0.0053861625 -9.6116705 1.9932063 479 0 0 0 74.510704
1.4235762 -9.6538591 1.7825643 446 0 0 0 72.167007
1.7202303 -9.964879 1.8459144 472 0 0 0 71.778549
2.4254756 -9.7243481 1.5817854 483 0 0 0 70.604866
28.862062 -9.5478392 1.7629274 5 0 0 0 54.59
-2.2607718 -9.0244637 1.9323313 361 0 0 0 78.420319
-1.5735829 -9.0581169 1.909281 529 0 0 0 77.251183
-1.2315261 -9.049921 1.8967686 567 0 0 0 76.663315
-0.79484993 -9.1885719 1.9146554 496.5 0 0 0 75.884323
-0.3494277 -9.3739204 1.9464388 559.5 0 0 0 75.103058
0.88484365 -9.0611916 1.66556 470 0 0 0 72.951195
1.146033 -9.3569345 1.7232656 525 0 0 0 72.550575
-2.0121355 -8.9567423 1.906902 636 0 0 0 78.019211
-1.7836424 -8.9601383 1.897689 685 0 0 0 77.632843
0.41947952 -8.6753464 1.5907052 487 0 0 0 73.721367
0.64344293 -8.8202772 1.6189563 528 0 0 0 73.333549
5.6221147 -8.9056187 1.7931447 475 0 0 0 65.526123
28.887381 -8.7752523 1.7520833 6 0 0 0 54.196327
-3.5699189 -8.0607672 1.6179446 739 0 0 0 81.14724
-2.2509596 -8.1340208 1.5492185 716 0 0 0 78.805939
-1.7223266 -8.1288166 1.5250705 584.5 0 0 0 77.826027
-1.2079958 -8.1243238 1.5076109 625.66669 0 0 0 76.859268
-0.81070745 -8.1935759 1.5105414 629 0 0 0 76.079926
-0.0057883672 -8.286253 1.5193806 610 0 0 0 74.510704
0.19694607 -8.279789 1.5185127 516 0 0 0 74.120567
-7.1432791 -7.8926454 1.950702 451 0 0 0 86.23317
-6.6323628 -7.6998587 1.8635089 479 0 0 0 85.844391
-6.2477818 -7.6239057 1.8082117 552 0 0 0 85.443916
-5.8017635 -7.6343241 1.7596524 592 0 0 0 84.861588
-5.2508674 -7.6618552 1.7050599 510.5 0 0 0 84.071396
-4.7288208 -7.6835046 1.6565931 677 0 0 0 83.29892
-4.3017716 -7.8259258 1.6395493 526.5 0 0 0 82.518211
-3.880651 -7.9584618 1.6253376 716 0 0 0 81.741287
-3.2840309 -7.9346123 1.6824691 483 0 0 0 80.757286
-2.7738566 -7.7572641 1.6571058 621.28571 0 0 0 79.982101
-2.2623949 -7.802371 1.7917552 433.25 0 0 0 78.998749
-1.9849441 -7.9277134 1.9011072 426 0 0 0 78.420319
28.654657 -7.9413967 1.7272036 187 0 0 0 53.812801
-9.4015141 -7.3478761 1.8891388 395 0 0 0 88.970657
-8.9484892 -7.354795 1.8346217 385 0 0 0 88.567604
-8.363287 -7.2252188 1.7518632 459 0 0 0 88.181442
-7.9716372 -7.2361321 1.7071834 516 0 0 0 87.794174
-7.2591362 -7.0907125 1.6108479 481.5 0 0 0 87.215157
-3.5083215 -7.4251394 1.7114329 411 0 0 0 81.546608
-3.2443185 -7.3237729 1.8167236 316.75 0 0 0 81.149597
-2.8684425 -7.2698536 1.9470037 434.33334 0 0 0 80.500397
-2.3251076 -7.3462119 1.8896291 334 0 0 0 79.390625
28.607861 -7.1767063 1.7145555 156 0 0 0 53.415154
-12.397266 -6.6359668 1.8735384 176 0 0 0 91.699165
-11.639333 -6.6033263 1.7845519 320 0 0 0 91.318016
-10.828769 -6.5004287 1.6860948 365 0 0 0 90.930725
-6.554667 -6.8955216 1.5119107 670 0 0 0 86.626991
31.092192 -6.9921217 1.8506163 16 0 0 0 53.033379
33.537266 -6.6804366 1.9841579 35 0 0 0 52.637482
-10.231716 -6.4892683 1.6187358 351 0 0 0 90.537651
-9.7038364 -6.4941769 1.5610931 560 0 0 0 90.145905
-13.031911 -5.7825627 1.5487759 313 0 0 0 92.866653
9.2978058 -5.9040446 1.7449038 461 0 0 0 58.489262
9.5910273 -5.7642508 1.7726921 165 0 0 0 58.09819
-31.819777 -3.9179502 1.8589925 33 0 0 0 97.552116
-19.272457 -2.8592715 1.629411 127 0 0 0 97.15551
46.668121 -1.148703 1.5614783 19 0 0 0 49.909489
45.926678 6.816793 1.5621599 14 0 0 0 47.176559
5.2746754 7.387537 1.6868908 800 0 0 0 34.486534
5.7658405 7.4708114 1.9849625 528 0 0 0 35.073208
-4.5500026 7.8705873 1.7834516 778.5 0 0 0 16.358379
-4.1952615 7.8323779 1.7811599 728.33331 0 0 0 16.871817
-3.7971706 7.8385782 1.6590739 880.5 0 0 0 17.525473
3.2248914 7.9544382 1.5962591 825 0 0 0 30.782379
5.409512 7.7738113 1.5229547 281 0 0 0 34.294071
5.5839009 7.6165576 1.5187813 255 0 0 0 34.679001
6.1456451 7.8255591 1.6813272 393.66666 0 0 0 35.205017
-8.6609249 8.1511278 1.5862888 515 0 0 0 11.6799
-8.2760801 8.1774044 1.5529239 613 0 0 0 12.06887
-7.995759 8.2953701 1.5386696 606 0 0 0 12.45312
-3.6542983 8.0434351 1.8444265 669 0 0 0 17.915501
-3.2820809 8.2872849 1.7539281 658.25 0 0 0 18.694439
-2.2079692 8.4780388 1.618605 722 0 0 0 20.647539
-1.7969267 8.3995838 1.6736904 735.59998 0 0 0 21.348495
2.435159 8.2652521 1.6012732 845 0 0 0 29.22744
2.7448528 8.185401 1.6048827 860 0 0 0 29.802639
3.0840359 8.1778889 1.6245253 575 0 0 0 30.400141
4.4573917 8.4665546 1.7754986 610 0 0 0 32.347771
4.7061038 8.11201 1.7414927 485.33334 0 0 0 32.989941
5.1553602 8.2463331 1.9207821 314 0 0 0 33.516911
9.7906837 8.4990053 1.746874 272 0 0 0 38.204819
10.294928 8.4995375 1.797333 317 0 0 0 38.598087
10.77354 8.4528685 1.5046165 262 0 0 0 38.992992
11.316076 8.4351578 1.5492803 276 0 0 0 39.376999
11.894965 8.4175501 1.5979538 241 0 0 0 39.770119
12.554014 8.4262037 1.6561685 166 0 0 0 40.160168
13.14401 8.3590851 1.7047948 239 0 0 0 40.543289
-16.308367 8.6633797 1.5418696 228 0 0 0 7.3920398
-15.840631 8.916934 1.5188701 259 0 0 0 7.78613
-12.287585 8.5796413 1.9878954 348 0 0 0 9.3396702
-11.876098 8.7302914 1.9562554 403 0 0 0 9.7251596
-8.196806 8.7168646 1.8917254 145 0 0 0 12.649216
-7.9124341 8.6227083 1.5630543 465 0 0 0 12.84531
-3.0287437 8.9059744 1.9647067 176 0 0 0 19.47883
-1.5687151 8.563365 1.8238003 739 0 0 0 21.81546
-1.3649704 8.6480465 1.7274768 672 0 0 0 22.20031
4.5857291 8.7066565 1.5807077 349 0 0 0 32.347771
9.7144661 8.8613052 1.7712992 305 0 0 0 37.820099
-15.820878 9.4228964 1.5389355 188 0 0 0 8.1733799
-11.610294 9.2106085 1.9679675 264 0 0 0 10.316475
-3.4284878 9.3385735 1.8315369 144 0 0 0 19.08539
5.4130888 9.1435394 1.9674834 340 0 0 0 33.119091
-19.215763 9.6218815 1.7888846 170 0 0 0 7.0067601
19.731417 9.9602222 1.8629868 12 0 0 0 42.113129
20.163252 9.5629196 1.8801866 8 0 0 0 42.503727
9.9126902 10.478989 1.9399072 75 0 0 0 36.643646
10.376987 10.440803 1.9786457 62 0 0 0 37.039902
19.368826 10.383054 1.852921 25 0 0 0 41.713913
5.4653864 10.995466 1.9626095 345 0 0 0 31.96212
9.3760004 10.942823 1.7607659 305.5 0 0 0 35.854591
9.7225609 10.7966 1.7752033 284 0 0 0 36.246311
10.326627 10.910207 1.6483361 311 0 0 0 36.643646
10.79639 10.856685 1.6790082 197 0 0 0 37.039902
11.294125 10.80989 1.7132883 49 0 0 0 37.42234
17.697998 10.641969 1.744189 69 0 0 0 40.943409
43.398376 10.879907 1.5111419 135 0 0 0 45.616447
-13.416928 11.489123 1.9092736 167 0 0 0 10.90301
-8.5735855 11.434048 1.7303493 152 0 0 0 14.41432
-5.4414396 11.315532 1.6820123 345 0 0 0 17.52738
-3.653306 11.422028 1.7095577 61.666668 0 0 0 19.73493
-1.7430084 11.196264 1.5265805 484 0 0 0 22.20031
-1.3810067 11.29568 1.721465 59.666668 0 0 0 22.722116
-0.079005748 11.290006 1.6632609 121.5 0 0 0 24.54039
0.33606347 11.261367 1.6604707 140 0 0 0 25.132595
0.73936242 11.073034 1.7736228 741 0 0 0 25.711531
1.1624472 11.161268 1.7936958 371.5 0 0 0 26.30307
-17.598446 11.692674 1.7630603 16 0 0 0 8.9585199
-11.155256 11.616969 1.7459497 20 0 0 0 12.45312
-10.069928 11.565331 1.6650138 20 0 0 0 13.23901
-9.6336355 11.625346 1.6403756 19 0 0 0 13.62076
-9.1565266 11.612157 1.7888622 17.5 0 0 0 14.01011
-8.2363796 11.56292 1.7195985 32 0 0 0 14.79763
-7.822938 11.569929 1.6928236 33 0 0 0 15.18734
-7.4116969 11.557186 1.8334471 32 0 0 0 15.57924
-6.2654095 11.551418 1.7578663 42 0 0 0 16.741909
-5.8969655 11.53576 1.7340343 38 0 0 0 17.13163
49.923241 13.825692 1.7448647 36 0 0 0 45.235912
49.157066 14.923079 1.7318555 17 0 0 0 44.842926
14.477509 -20.580385 2.0714748 41 0 0 0 64.737762
11.530776 -17.283468 2.2209606 65 0 0 0 65.128433
11.506967 -16.364668 2.140275 159 0 0 0 64.737762
6.5813742 -14.873991 2.1442103 80 0 0 0 67.865128
4.9608359 -13.895124 2.3126266 286 0 0 0 69.046013
11.217954 -13.689611 2.334326 60 0 0 0 63.56749
10.971298 -12.739218 2.2197297 458 0 0 0 63.173038
11.607772 -12.826958 2.2835064 363 0 0 0 62.779991
12.145547 -12.776 2.3267117 347 0 0 0 62.396568
12.717824 -12.736345 2.3754942 328 0 0 0 61.995781
13.290311 -12.671325 2.4234118 332 0 0 0 61.605679
13.913237 -12.629351 2.2484872 281.5 0 0 0 61.22456
14.528508 -12.552744 2.0611832 296 0 0 0 60.830887
3.3772254 -12.240104 2.3087759 207 0 0 0 70.210098
15.044541 -12.366469 2.090812 233 0 0 0 60.437759
15.916832 -12.440554 2.1682324 235 0 0 0 60.052288
16.653669 -12.369512 2.2262931 234 0 0 0 59.662621
17.393108 -12.267284 2.2839727 51 0 0 0 59.2742
22.19993 -11.879641 2.0876777 115 0 0 0 57.314049
23.395853 -11.789268 2.1716549 93 0 0 0 56.92968
1.9596967 -11.342742 2.3794348 435 0 0 0 71.778549
2.8409488 -11.381093 2.1355844 324 0 0 0 70.604866
1.2993606 -10.597228 2.2096252 441 0 0 0 72.550575
1.6191707 -10.96995 2.2935352 476 0 0 0 72.167007
-1.3657823 -10.049671 2.350544 487 0 0 0 76.663315
-0.7503686 -10.163375 2.3614914 449.66666 0 0 0 75.689636
-0.12992892 -10.37677 2.4033384 441 0 0 0 74.708267
0.73644263 -10.076062 2.0929356 408 0 0 0 73.333549
1.0023451 -10.250742 2.1329103 474 0 0 0 72.951195
-2.212316 -9.8575106 2.3422217 416 0 0 0 78.019211
-1.8527079 -9.9525194 2.3467746 408 0 0 0 77.442017
0.31656167 -9.8263731 2.1188734 483 0 0 0 73.987495
-7.8094063 -9.0649214 2.4822519 359 0 0 0 85.844391
-4.9880381 -9.3456869 2.4577913 358 0 0 0 82.3255
-10.520497 -8.6452427 2.4876897 263 0 0 0 88.567604
-10.067199 -8.695447 2.4307716 266 0 0 0 88.181442
-7.3620238 -8.9821844 2.4100451 413 0 0 0 85.443916
-6.6804056 -8.7900581 2.2924404 381.5 0 0 0 84.861588
-6.0015273 -8.5323954 2.1672344 495 0 0 0 84.265831
-5.6950545 -8.5339108 2.1317441 507 0 0 0 83.876961
-4.6960087 -8.5410995 2.0259857 626 0 0 0 82.518211
-4.3374877 -8.6259632 2.0066237 568 0 0 0 81.935959
5.6200161 -8.9013119 2.3102016 430.5 0 0 0 65.526123
28.763763 -8.7331114 2.4937561 13 0 0 0 54.196327
-9.3262892 -8.464282 2.3029401 263 0 0 0 87.794174
-8.6608458 -8.2572184 2.1894791 342 0 0 0 87.40728
-8.1993256 -8.2107496 2.1238861 403 0 0 0 87.023033
-7.6647453 -8.0618916 2.0371997 433 0 0 0 86.626991
-5.2184019 -8.4768934 2.0690012 467 0 0 0 83.29892
-13.074441 -7.8466549 2.4057336 177 0 0 0 90.930725
-12.077038 -7.6580052 2.2581449 277 0 0 0 90.537651
-10.889563 -7.6799798 2.1061211 320 0 0 0 89.747009
-10.396718 -7.7215834 2.0476151 251 0 0 0 89.355347
-4.0169597 -7.5269804 2.1950221 314 0 0 0 82.3255
-3.8134871 -7.7443137 2.219774 303.66666 0 0 0 81.806175
-2.5155749 -7.624114 2.2643456 309.5 0 0 0 79.587677
-2.1829987 -7.6477408 2.2438927 380.33334 0 0 0 78.933807
-1.9471151 -7.7763743 2.0619204 523 0 0 0 78.420319
28.654675 -7.936841 2.4681053 175 0 0 0 53.812801
-15.296449 -7.243784 2.2481339 186 0 0 0 92.470047
-10.617497 -7.1047225 2.0208566 262 0 0 0 90.145905
-3.7688291 -7.4987063 2.159446 359 0 0 0 81.935959
-3.2457812 -7.2511573 2.3083475 345.33334 0 0 0 81.21537
-2.7470548 -7.3087392 2.2363775 360.33334 0 0 0 80.242775
-2.3369975 -7.3862562 2.186559 341.5 0 0 0 79.390625
28.595566 -7.169126 2.4484639 159 0 0 0 53.415154
