# .PCD v0.7 - Point Cloud Data file format
VERSION 0.7
FIELDS x y z intensity normal_x normal_y normal_z curvature
SIZE 4 4 4 4 4 4 4 4
TYPE F F F F F F F F
COUNT 1 1 1 1 1 1 1 1
WIDTH 911
HEIGHT 1
VIEWPOINT 0 0 0 1 0 0 0
POINTS 911
DATA ascii
-4.4052029 3.4477243 -0.75479805 519 0 0 0 10.53604
-3.6333663 3.1281376 -0.75461149 119.66666 0 0 0 11.322806
-3.2353864 3.380703 -0.73761404 164.2 0 0 0 12.883028
-2.6696832 3.0608609 -0.73502952 58.666668 0 0 0 13.664677
-2.4445946 3.1711421 -0.72512174 46 0 0 0 14.640539
2.4299903 3.0997555 -0.62446433 91 0 0 0 35.539959
2.7412634 3.2337446 -0.61929893 107.25 0 0 0 36.133896
3.1993027 3.1636224 -0.60774565 127.4 0 0 0 37.50518
3.9098947 3.489711 -0.58061469 245 0 0 0 38.28529
4.1881819 3.2091622 -0.58433282 220.60001 0 0 0 39.464012
5.4623971 3.3702571 -0.55588543 331 0 0 0 41.026119
5.5960045 3.1707644 -0.55675793 334 0 0 0 41.613308
7.4748354 3.4071074 -0.51366085 363 0 0 0 42.98613
7.6706514 3.1565351 -0.51849556 318.5 0 0 0 43.57272
-16.017273 3.786514 -0.67671049 46 0 0 0 3.5160301
-6.1806283 3.5465164 -0.62292582 114 0 0 0 8.1985798
-5.6818933 3.7288544 -0.75900143 290.75 0 0 0 9.1762905
-4.582736 3.8155994 -0.57581586 142.60001 0 0 0 11.008816
-4.1875391 3.6170959 -0.74717975 265.33334 0 0 0 11.322807
-3.8678093 3.8664496 -0.73933703 258.66666 0 0 0 12.493596
-2.7247171 3.6435361 -0.71821654 139 0 0 0 14.839704
-2.2563074 3.8254361 -0.70186043 115.75 0 0 0 16.597431
-1.7714895 3.9323909 -0.68235022 60.799999 0 0 0 18.354483
-1.4579316 3.9949749 -0.67296022 57 0 0 0 19.5231
0.57050514 3.9821601 -0.6385141 40 0 0 0 27.338579
2.7748294 3.5295553 -0.60683227 19 0 0 0 35.539959
3.3691163 3.9587188 -0.57706082 222 0 0 0 36.133896
3.6732287 3.7142177 -0.57950443 249 0 0 0 37.310158
4.8992348 3.9391787 -0.54546684 351 0 0 0 39.070927
5.2226744 3.6882048 -0.55462265 318.5 0 0 0 40.050102
7.2000718 3.7230463 -0.50722086 471.33334 0 0 0 42.200047
-7.8219309 4.1311984 -0.78272957 186.5 0 0 0 7.6159101
-5.3906469 4.0270386 -0.75211239 104 0 0 0 10.14872
-4.8891244 4.4533772 -0.74032724 322 0 0 0 11.7144
-3.5753279 4.0368509 -0.72940302 222 0 0 0 13.467175
-3.2182786 4.2150726 -0.71810484 248 0 0 0 14.6446
-2.7403829 4.4230452 -0.70535797 244.75 0 0 0 16.206219
-1.2004257 4.0386729 -0.66747379 55.25 0 0 0 20.50329
-0.73983061 4.1035194 -0.6614747 29 0 0 0 22.258636
-0.25204471 4.104259 -0.65279794 16 0 0 0 24.114346
0.27598777 4.0532007 -0.64525992 36.200001 0 0 0 26.164795
4.3883324 4.4207306 -0.54176021 362.5 0 0 0 37.30899
4.668633 4.1522956 -0.54274315 596 0 0 0 38.291546
6.8752689 4.1150532 -0.50182986 324 0 0 0 41.219421
-4.6732969 4.5788341 -0.73266709 347.5 0 0 0 12.298759
-4.2334504 4.7991385 -0.71719432 525.75 0 0 0 13.469325
-3.8743467 4.9727759 -0.70657164 311 0 0 0 14.44595
-2.2434852 4.5585914 -0.68925405 239.25 0 0 0 17.768055
-1.7245059 4.5821877 -0.6640386 100.25 0 0 0 19.331497
-1.2399716 4.6228776 -0.649378 96.5 0 0 0 20.893875
-0.76502448 4.6265512 -0.63615018 29.25 0 0 0 22.453278
-0.24750409 4.6509018 -0.63227242 18.799999 0 0 0 24.212313
0.26394904 4.5718575 -0.62127471 53 0 0 0 25.968761
0.60573792 4.5572996 -0.62373775 46 0 0 0 27.143749
3.9646111 4.7580791 -0.53956771 323 0 0 0 35.93618
4.1470146 4.6154718 -0.54019409 373 0 0 0 36.525009
-3.6478477 5.0515528 -0.69853872 214 0 0 0 15.036385
-3.2898991 5.1942315 -0.68972874 199.66667 0 0 0 16.009401
-2.7757654 5.341363 -0.67569184 267.25 0 0 0 17.377361
-2.251457 5.4166398 -0.65833706 363.66666 0 0 0 18.748201
-1.7980744 5.4142194 -0.63998359 184 0 0 0 19.918066
-1.2943043 5.4044724 -0.62312412 176 0 0 0 21.283792
-0.74696219 5.4193311 -0.61313212 114.75 0 0 0 22.842131
-0.20706344 5.376905 -0.60261106 76.25 0 0 0 24.408278
0.25458738 5.3265448 -0.59673661 172 0 0 0 25.774858
0.57541424 5.2348204 -0.5887056 109.5 0 0 0 26.749695
-6.0356169 5.524682 -0.72646505 291 0 0 0 11.7144
-5.7617483 5.67313 -0.71813232 308.5 0 0 0 12.298759
-5.2762184 5.8671451 -0.70091778 391.33334 0 0 0 13.27254
0.64760232 5.7918501 -0.51124406 30.5 0 0 0 26.749695
-4.6684685 6.1829934 -0.64032197 316.5 0 0 0 14.6446
-4.2365336 6.2146654 -0.66811121 575 0 0 0 15.428881
-3.7933033 6.365499 -0.65850431 362.66666 0 0 0 16.401587
-3.3379841 6.4698086 -0.64689422 305 0 0 0 17.376764
-1.1945755 6.4537888 -0.58117735 232.5 0 0 0 22.063599
-0.78501636 6.4217396 -0.57235342 212.33333 0 0 0 23.038122
-0.30663991 6.4088473 -0.56714249 250.66667 0 0 0 24.212906
0.24250549 6.3244562 -0.55870759 423 0 0 0 25.579742
-3.0665023 6.519834 -0.64014918 224 0 0 0 17.95924
-2.7097933 6.5775533 -0.63216442 289.33334 0 0 0 18.748201
-2.2709951 6.6389508 -0.62343222 396.5 0 0 0 19.720415
-1.8122181 6.5826392 -0.60605317 409.66666 0 0 0 20.698477
-1.4556781 6.5218239 -0.59231943 212 0 0 0 21.48007
-3.5124755 7.4988861 -0.53768516 557 0 0 0 17.95924
-3.0757244 7.4992013 -0.52587497 432 0 0 0 18.748369
-2.7555432 7.4876661 -0.51734066 496.5 0 0 0 19.329945
-2.243504 7.4758496 -0.50565863 560.66669 0 0 0 20.308964
-6.2986488 7.573853 -0.64362204 299.5 0 0 0 13.861855
-5.8257775 7.5505114 -0.62237507 480 0 0 0 14.44595
-4.8561487 7.5410395 -0.58419234 469 0 0 0 15.814405
-4.346581 7.5316052 -0.56575429 492 0 0 0 16.598034
-3.8670211 7.5252914 -0.54990685 501.5 0 0 0 17.376764
-3.2941029 7.5044289 -0.53196043 435 0 0 0 18.359449
3.737479 -12.818727 -0.18969101 105.5 0 0 0 70.162834
4.2339482 -12.75236 -0.19069211 108 0 0 0 69.573906
4.7730598 -12.774546 -0.1936609 761 0 0 0 68.982765
5.3171134 -12.776163 -0.19661149 650 0 0 0 68.402336
6.7908773 -12.645932 -0.20411208 679 0 0 0 66.834503
7.177299 -12.610602 -0.20643677 735 0 0 0 66.445557
7.7708015 -12.549387 -0.21020135 680 0 0 0 65.851715
11.974236 -12.503042 -0.2500788 69 0 0 0 62.521339
8.3582315 -12.448538 -0.21366078 550 0 0 0 65.27124
8.7112284 -12.308464 -0.21480884 567 0 0 0 64.882393
9.231267 -12.384266 -0.22060819 649 0 0 0 64.484123
9.6872253 -12.349016 -0.22445886 633 0 0 0 64.089279
10.151423 -12.304084 -0.22842951 556 0 0 0 63.699631
10.792532 -12.13769 -0.23287293 252.5 0 0 0 63.112526
12.693157 -12.308895 -0.25582314 107.5 0 0 0 61.940956
4.2395906 -11.802997 -0.48195207 151 0 0 0 69.178802
13.064377 -11.765018 -0.25383946 63 0 0 0 61.350166
13.350093 -11.439783 -0.25365376 82 0 0 0 60.963127
13.605268 -11.089183 -0.25298652 40 0 0 0 60.570961
22.21122 -11.05472 -0.37233853 133 0 0 0 57.043961
-0.25817284 -10.813582 -0.14866611 170 0 0 0 75.058495
0.13986774 -10.787773 -0.14800182 166.5 0 0 0 74.464615
0.66741747 -10.733473 -0.14715698 191 0 0 0 73.684593
1.1931753 -10.682187 -0.14681235 184 0 0 0 72.902962
1.7194757 -10.628235 -0.14687511 166 0 0 0 72.122482
2.2460115 -10.560946 -0.14716661 171 0 0 0 71.337173
2.6489942 -10.53138 -0.1480436 197 0 0 0 70.754814
5.8944497 -10.988253 -0.47767183 116 0 0 0 66.834503
6.2969127 -10.76524 -0.47749081 116.5 0 0 0 66.246231
6.6887231 -10.523999 -0.47707123 49 0 0 0 65.656509
13.804617 -10.696956 -0.25152409 26 0 0 0 60.182739
-0.24647087 -10.209489 -0.38775241 176 0 0 0 75.058495
0.12906304 -10.175741 -0.38612407 171.5 0 0 0 74.464615
0.74979728 -10.101462 -0.3839483 173.33333 0 0 0 73.489098
1.3698099 -10.045495 -0.38402575 276.5 0 0 0 72.511574
1.7462494 -10.029392 -0.38558444 277 0 0 0 71.929634
6.9300075 -10.33313 -0.47573873 147 0 0 0 65.27124
7.1659775 -10.136743 -0.47441041 484 0 0 0 64.882393
14.299598 -10.256685 -0.2537334 50 0 0 0 59.593132
22.330963 -10.436188 -0.36993942 191 0 0 0 56.6521
-1.1938641 -9.708663 -0.25145292 464 0 0 0 76.628143
-0.70859838 -9.6552067 -0.24764986 203 0 0 0 75.845551
-0.47863305 -9.825552 -0.25237614 66 0 0 0 75.450951
1.989849 -9.9720592 -0.38501319 207 0 0 0 71.533791
2.1700778 -9.6379499 -0.37296671 88 0 0 0 71.140556
7.435998 -9.9877901 -0.47578412 152 0 0 0 64.484123
7.8172388 -9.7283602 -0.47671586 137.5 0 0 0 63.894455
14.982982 -9.9302425 -0.259927 51 0 0 0 59.005871
15.35273 -9.6393061 -0.26248533 51 0 0 0 58.606602
22.256996 -9.7412176 -0.36440971 270 0 0 0 56.259998
-2.154139 -9.0859537 -0.12446965 495.5 0 0 0 78.380554
-1.7223297 -9.2706356 -0.23946775 396.5 0 0 0 77.600601
-1.3876016 -9.3741083 -0.24251233 496.5 0 0 0 77.018944
2.3527966 -9.3708878 -0.36390555 163 0 0 0 70.754814
2.5793943 -9.2999525 -0.36327773 197 0 0 0 70.353569
8.3592863 -9.4129581 -0.48085862 144.5 0 0 0 63.112526
8.7679501 -9.1680641 -0.48456091 140 0 0 0 62.521339
15.72922 -9.3432722 -0.26530337 51 0 0 0 58.217381
16.177155 -9.0774584 -0.26958865 51 0 0 0 57.83276
22.206085 -9.0740347 -0.35968199 274 0 0 0 55.874401
-2.3131299 -8.7833347 -0.23094709 331 0 0 0 78.766418
-1.9893252 -8.8644762 -0.34180033 257 0 0 0 78.18927
-0.87900949 -8.9463005 -0.22754174 946 0 0 0 76.238564
9.1712828 -8.9057827 -0.4884122 270 0 0 0 61.940956
9.5641956 -8.6247721 -0.49206853 78 0 0 0 61.350166
16.629379 -8.7993135 -0.27403778 67 0 0 0 57.431938
-2.238337 -8.088933 -0.31319132 234 0 0 0 78.960991
9.8929443 -8.4885445 -0.49837103 41 0 0 0 60.963127
22.133211 -8.4142094 -0.3549259 259 0 0 0 55.481361
-4.0474424 -7.5757761 -0.11260433 366 0 0 0 82.498253
-3.7151229 -7.6926036 -0.1795187 309.66666 0 0 0 81.838127
-3.1755259 -7.6683679 -0.20905912 354 0 0 0 80.931366
-2.7889378 -7.7986045 -0.20816571 489 0 0 0 80.139076
-2.4158964 -7.9668455 -0.20879447 379 0 0 0 79.363007
22.062271 -7.7708077 -0.35055843 323 0 0 0 55.091259
-5.1408348 -7.1153374 -0.116312 473.5 0 0 0 84.636963
-4.7918329 -7.1727371 -0.21638322 486.5 0 0 0 84.051369
-4.0118413 -7.0829773 -0.20396054 448.5 0 0 0 82.887001
-3.8543978 -7.2136502 -0.37102917 414.33334 0 0 0 82.494957
-3.1138809 -7.0234938 -0.47191852 5239 0 0 0 81.319923
22.002748 -7.1456032 -0.34672931 321 0 0 0 54.707561
-5.6842456 -6.7549882 -0.11737581 733.5 0 0 0 85.821487
-5.1666932 -6.966042 -0.32617399 633 0 0 0 84.830162
-4.8504682 -6.8867087 -0.31566247 766 0 0 0 84.443771
-4.1847992 -6.8277636 -0.33735985 403 0 0 0 83.428413
22.93619 -6.8281717 -0.36025187 140 0 0 0 54.307518
-8.1930904 -6.2300415 -0.14329052 343.5 0 0 0 89.339928
-7.7212853 -6.3352976 -0.13791251 508 0 0 0 88.753235
-7.2480412 -6.4058962 -0.13238505 698.5 0 0 0 88.166344
-6.7441964 -6.4209948 -0.12601396 467 0 0 0 87.584831
-6.229167 -6.3831539 -0.11910585 286 0 0 0 87.000092
-5.8589711 -6.4653168 -0.11564527 366 0 0 0 86.406639
2.5384498 -6.1355505 -0.31965557 210.5 0 0 0 68.402336
-10.057534 -5.691247 -0.16538779 127 0 0 0 91.498123
-9.5966501 -5.7466645 -0.15892066 179 0 0 0 91.112579
-9.2720013 -5.8668609 -0.15519165 329 0 0 0 90.714554
-8.708684 -5.8152809 -0.14643976 196 0 0 0 90.324944
-8.3851871 -5.9024935 -0.14263019 304 0 0 0 89.940117
-5.6914959 -5.5506663 -0.39341447 1468.5 0 0 0 87.389191
-5.2680225 -5.6686354 -0.38184342 1425.75 0 0 0 86.606636
-4.7184033 -5.7862668 -0.32881019 1242 0 0 0 85.565254
-3.6886318 -5.82548 -0.083445832 782 0 0 0 83.658897
2.7436752 -5.8064218 -0.22957966 486.33334 0 0 0 67.615791
21.754162 -5.8974276 -0.33780175 93 0 0 0 53.927567
-7.7741537 -5.0508008 -0.35189447 1014 0 0 0 90.519745
-7.1720762 -5.1784344 -0.33405355 1166 0 0 0 89.73703
-6.6359577 -5.3067522 -0.31935889 1279.5 0 0 0 88.949577
-6.1569686 -5.440856 -0.30753988 1408.5 0 0 0 88.166344
21.889214 -5.3584957 -0.3382054 770 0 0 0 53.531166
23.478161 -5.1368885 -0.36343467 1530 0 0 0 53.134529
-14.045819 -4.6236286 -0.22148736 300 0 0 0 94.624001
-8.637023 -4.8858414 -0.37923867 972 0 0 0 91.498123
-8.2686081 -4.9498277 -0.36723265 984 0 0 0 91.112579
25.685167 -4.9589725 -0.39914542 29 0 0 0 52.742912
-16.367107 -4.0769539 -0.25748098 105 0 0 0 95.784531
-15.425567 -4.2484851 -0.24246295 122 0 0 0 95.405594
-14.558764 -4.3982539 -0.22875239 138 0 0 0 95.01297
25.601625 -4.2913184 -0.39647675 18 0 0 0 52.35854
-18.772621 -3.7050607 -0.29674143 176 0 0 0 96.56398
-16.566387 -3.6959267 -0.25919858 83 0 0 0 96.169434
24.885201 -3.5432138 -0.38351887 22 0 0 0 51.965321
-20.965099 -3.0742171 -0.33216736 61 0 0 0 97.35379
-18.416121 -3.1657588 -0.28873992 137 0 0 0 96.964249
-23.03289 -2.7998221 -0.36700344 46 0 0 0 97.738235
-24.943415 -2.4103227 -0.39906964 86 0 0 0 98.127289
23.502932 -2.1715622 -0.35944602 18 0 0 0 51.185249
23.21151 -1.568617 -0.35452637 26 0 0 0 50.794968
22.298571 -0.95544755 -0.33935288 23 0 0 0 50.407249
21.895899 -0.39768654 -0.33291644 31 0 0 0 50.00985
21.638548 0.14070636 -0.32914412 31 0 0 0 49.61916
12.848132 0.71697217 -0.4987081 119 0 0 0 48.849121
21.156294 0.65962303 -0.32182783 28 0 0 0 49.235619
12.606748 1.1726689 -0.49080485 144.5 0 0 0 48.255074
20.854593 1.165674 -0.31774294 21 0 0 0 48.849121
12.287821 1.7595577 -0.48137707 147 0 0 0 47.476448
20.373549 1.6438842 -0.31082827 40 0 0 0 48.452351
11.956176 2.4745047 -0.47396624 181 0 0 0 46.493607
12.102439 2.1941824 -0.4772726 168 0 0 0 46.88311
20.04598 2.1164384 -0.30668724 71 0 0 0 48.0578
-16.100479 2.9827623 -0.27352655 596 0 0 0 2.7413599
-5.7323279 2.9236519 -0.24608476 185.66667 0 0 0 7.4176102
-5.2498665 2.9171803 -0.22725601 164 0 0 0 8.0063953
11.893093 2.7697277 -0.47447777 184 0 0 0 46.110992
19.757278 2.5803514 -0.30339423 38 0 0 0 47.668751
-16.089294 3.3890321 -0.27589402 13 0 0 0 3.1301501
-5.656239 3.0602734 -0.24611928 124 0 0 0 7.8142099
-5.3485112 3.0611157 -0.23468119 175 0 0 0 8.1985798
-4.728231 3.2612896 -0.16564088 1074 0 0 0 9.5668621
11.719485 3.1913161 -0.47248089 288.5 0 0 0 45.52179
13.265368 3.4383175 -0.20071867 299 0 0 0 45.718048
15.100811 3.1253545 -0.2288951 20 0 0 0 46.493607
19.727795 3.0732553 -0.30472273 42 0 0 0 47.284142
-16.078459 3.799114 -0.27846837 170 0 0 0 3.5160301
-4.612041 3.8031807 -0.25319603 142.83333 0 0 0 10.93002
10.807022 3.8241038 -0.44545305 464 0 0 0 44.35421
11.404743 3.5657439 -0.46493521 279 0 0 0 44.939232
12.446275 3.5574775 -0.18825698 33 0 0 0 45.325527
12.565448 3.9296846 -0.19252233 86 0 0 0 44.939232
15.047073 3.5038431 -0.22992437 48 0 0 0 46.110992
19.37015 3.5093074 -0.30062369 110 0 0 0 46.88311
-4.64118 4.2266674 -0.22455308 115.75 0 0 0 11.714167
6.5872736 4.4010105 -0.49653959 342 0 0 0 40.440495
10.312867 4.2862048 -0.34375539 542.33331 0 0 0 43.507313
11.187674 4.4352951 -0.17457917 208 0 0 0 43.76894
11.670417 4.2950296 -0.18099141 123 0 0 0 44.16066
12.171774 4.140059 -0.18772484 173 0 0 0 44.54776
-4.5902019 4.7279358 -0.25807276 138.66667 0 0 0 12.68771
6.2550635 4.7652469 -0.4938283 323.66666 0 0 0 39.463451
9.7745552 4.8915257 -0.42546982 498.5 0 0 0 42.393127
10.323051 4.6961432 -0.30143589 314.5 0 0 0 42.98613
-4.6398973 5.2508316 -0.24537769 325.60001 0 0 0 13.427803
0.53855669 5.4806957 -0.14310311 76 0 0 0 26.55047
5.771452 5.2467632 -0.49125871 340.75 0 0 0 38.095562
9.4025116 5.3039951 -0.42075384 379 0 0 0 41.613308
10.377821 5.196105 -0.16888955 384 0 0 0 42.393127
-4.5644665 5.7401233 -0.20335716 136.75 0 0 0 14.252814
0.55480105 5.6166635 -0.35445911 67 0 0 0 26.55047
4.9480863 5.7728882 -0.48011547 259 0 0 0 36.133896
5.3007956 5.5948062 -0.48622388 516 0 0 0 36.914391
6.7971563 5.7260017 -0.34437504 90 0 0 0 38.685112
7.5014982 5.7056608 -0.36598516 54 0 0 0 39.461899
8.7700233 5.6904373 -0.40757543 42 0 0 0 40.636391
9.2166386 5.6597161 -0.42227688 277 0 0 0 41.026119
10.405657 5.7003469 -0.17413083 425 0 0 0 41.813889
-4.5380297 6.2937326 -0.27272338 104.2 0 0 0 14.996134
8.7547684 6.1518402 -0.41887569 177 0 0 0 40.05106
10.399616 6.2102265 -0.17926955 289 0 0 0 41.219421
-4.5332251 6.840085 -0.13269219 67 0 0 0 15.62012
8.2844744 6.6244345 -0.41651997 48 0 0 0 39.070927
10.428493 6.7616496 -0.1856226 405 0 0 0 40.636391
-1.7497888 7.4655228 -0.49602616 426 0 0 0 21.283169
-1.2712471 7.4524636 -0.48839471 488.66666 0 0 0 22.259171
-0.7101329 7.4387913 -0.48194042 499 0 0 0 23.429474
-0.24974629 7.425828 -0.47850353 460.5 0 0 0 24.407175
0.26003578 7.4237852 -0.32212994 809.14288 0 0 0 25.496754
0.75848329 7.4037361 -0.38697165 293 0 0 0 26.556271
6.2812939 7.3034139 -0.3797293 421 0 0 0 36.133896
6.7663703 7.2999034 -0.39249417 427 0 0 0 36.718407
7.2770567 7.2838244 -0.40619254 438 0 0 0 37.30899
7.8534222 7.2971797 -0.42322993 341 0 0 0 37.90424
8.0452633 7.1126738 -0.42335838 203 0 0 0 38.28529
10.283262 7.2211742 -0.18916555 282.5 0 0 0 40.05106
-1.751461 7.9273071 -0.32910025 666 0 0 0 21.479792
-1.2391438 7.8799429 -0.32229269 669.5 0 0 0 22.452236
-0.74396807 7.8502688 -0.31773612 658.33331 0 0 0 23.429474
-0.3579208 7.9088535 -0.31859025 640 0 0 0 24.210171
0.61041397 7.8243475 -0.21623893 522 0 0 0 26.16362
8.4929476 7.889677 -0.17587784 572 0 0 0 37.90424
8.7923813 7.7710056 -0.1777108 422 0 0 0 38.28529
9.2170506 7.747365 -0.18245308 400 0 0 0 38.685112
9.7397394 7.5854826 -0.18677272 349.5 0 0 0 39.266411
-5.3376036 8.3066978 -0.40652418 481 0 0 0 15.814405
-4.1882501 8.4258909 -0.38655117 695 0 0 0 17.568569
-3.7279735 8.2361622 -0.37025011 662.5 0 0 0 18.159344
-3.2275932 8.1718264 -0.35905999 847 0 0 0 18.942579
-2.7781229 8.1860027 -0.35286912 771.5 0 0 0 19.720415
-2.3181019 8.1099014 -0.34352052 728 0 0 0 20.50458
-0.16413987 8.0429811 -0.32400107 725 0 0 0 24.604179
0.035025276 8.1033831 -0.32632735 684 0 0 0 24.99439
6.9289045 8.2566032 -0.16462374 695 0 0 0 35.93618
7.2042046 8.1647921 -0.16595244 642 0 0 0 36.331608
7.754559 8.1537275 -0.17154166 530.5 0 0 0 36.914391
8.2103052 8.01511 -0.17446883 488 0 0 0 37.507599
-5.035677 8.5084925 -0.40741682 664 0 0 0 16.399389
-4.7221289 8.6894903 -0.28625956 461 0 0 0 16.99082
-4.3488774 8.7529554 -0.16526155 297 0 0 0 17.568569
-3.7815633 8.6441736 -0.15851969 398 0 0 0 18.359449
-6.1410699 9.8431654 -0.20190544 490 0 0 0 16.00869
-5.804935 9.830471 -0.19831558 510 0 0 0 16.399389
-4.5590053 9.7918787 -0.18628861 547 0 0 0 17.95924
-3.8470733 9.7828007 -0.1805599 594.5 0 0 0 18.942579
-3.3010149 9.7734861 -0.17659733 604 0 0 0 19.720415
-2.7715569 9.758894 -0.17303258 567 0 0 0 20.50458
-2.2587442 9.7490549 -0.16981049 558 0 0 0 21.283169
-1.7588563 9.7442703 -0.16712084 558 0 0 0 22.063599
-1.2678552 9.7390499 -0.16487171 471 0 0 0 22.842957
-0.78277159 9.7293491 -0.16295964 516 0 0 0 23.62641
-0.30161178 9.7067413 -0.16120812 593 0 0 0 24.407175
0.05717143 9.7012739 -0.1603809 664 0 0 0 24.99439
1.2482227 9.6114473 -0.15789433 11 0 0 0 26.948919
22.684389 -14.224813 0.25089616 145 0 0 0 58.606602
2.3112345 -13.221388 0.4708564 77 0 0 0 71.929634
2.8022647 -13.150099 0.47192827 147 0 0 0 71.337173
22.635508 -13.429495 0.24712229 156 0 0 0 58.217381
3.2206204 -12.774864 0.13462652 147 0 0 0 70.754814
3.7320333 -12.791673 0.1361981 116 0 0 0 70.162834
4.2566376 -12.816562 0.30779642 79.5 0 0 0 69.573906
4.7766261 -12.780499 0.30983794 834 0 0 0 68.982765
5.3281069 -12.799234 0.31473145 779.5 0 0 0 68.402336
6.8024001 -12.661928 0.14675499 591 0 0 0 66.834503
7.1847787 -12.618488 0.14819638 832 0 0 0 66.445557
7.7817888 -12.562069 0.15066095 696 0 0 0 65.851715
22.562353 -12.645818 0.24332064 187 0 0 0 57.83276
0.16096456 -12.093727 0.12499464 135 0 0 0 74.464615
0.75341493 -12.04627 0.12513261 154 0 0 0 73.684593
8.3490496 -12.430111 0.15262771 514 0 0 0 65.27124
8.7195702 -12.315527 0.15382554 631 0 0 0 64.882393
9.242856 -12.395104 0.15705757 641 0 0 0 64.484123
9.6929445 -12.351691 0.15923613 586 0 0 0 64.089279
10.165554 -12.31661 0.16164848 590 0 0 0 63.699631
10.809448 -12.152319 0.16440463 263 0 0 0 63.112526
11.970831 -12.494914 0.17311117 21 0 0 0 62.521339
12.496415 -12.416042 0.17586058 14 0 0 0 62.139088
13.087093 -12.377006 0.17930402 15 0 0 0 61.742821
13.66317 -12.298197 0.18252261 13 0 0 0 61.350166
14.352629 -12.291901 0.18689115 8 0 0 0 60.963127
-0.27843589 -11.767715 0.26773554 63 0 0 0 75.058495
1.3423009 -11.975723 0.12530622 189 0 0 0 72.902962
1.7836819 -11.924577 0.12557997 235 0 0 0 72.315323
2.2289448 -11.886197 0.12608252 148 0 0 0 71.731712
2.6782496 -11.852472 0.12673305 137 0 0 0 71.140556
14.952307 -11.579399 0.1872973 7 0 0 0 60.182739
15.986704 -11.76083 0.19489215 251 0 0 0 59.790619
16.716211 -11.673343 0.19928914 274 0 0 0 59.395649
22.467268 -11.875318 0.2395277 189 0 0 0 57.431938
17.349062 -11.489619 0.20267007 256 0 0 0 59.005871
22.216534 -11.051927 0.23450792 185 0 0 0 57.043961
22.352507 -10.440872 0.23314254 255 0 0 0 56.6521
-1.1763811 -9.5781231 0.22580875 511 0 0 0 76.628143
-0.70891869 -9.6824436 0.2279536 206.5 0 0 0 75.845551
-0.47401726 -9.7624607 0.22879262 69.5 0 0 0 75.450951
22.241947 -9.7293949 0.22972463 271 0 0 0 56.259998
-1.6291068 -9.415287 0.22507468 284.5 0 0 0 77.404129
-1.37658 -9.3097372 0.22144513 596.5 0 0 0 77.018944
22.201824 -9.0671387 0.22707219 246 0 0 0 55.874401
-0.87943274 -8.9663954 0.21391706 1066.5 0 0 0 76.238564
-2.0159426 -8.0568485 0.19932398 1117 0 0 0 78.571846
-1.7500484 -8.2810841 0.20251667 1045 0 0 0 77.993179
22.125008 -8.4060287 0.22424608 231 0 0 0 55.481361
-5.0428095 -7.5515485 0.21282262 342 0 0 0 84.051369
-4.849576 -7.6616383 0.3259092 307 0 0 0 83.658897
-4.0417857 -7.5650563 0.31040785 306 0 0 0 82.498253
-3.7815909 -7.7541041 0.20516758 411.75 0 0 0 81.903503
-2.5876586 -7.5873184 0.3313776 1151.8 0 0 0 79.903587
-2.2886882 -7.8281646 0.25614339 1022.2 0 0 0 79.202202
22.078365 -7.7714734 0.22180946 303 0 0 0 55.091259
-5.329217 -7.3772221 0.21373403 356.25 0 0 0 84.636971
-4.2445412 -7.287118 0.2008356 532.5 0 0 0 83.080872
-3.9963138 -7.4829907 0.096059553 368 0 0 0 82.498253
-3.0017893 -7.2491341 0.4788827 1026 0 0 0 80.931366
-2.8638289 -7.3414116 0.22246604 893.5 0 0 0 80.599419
22.032145 -7.150208 0.21949518 299 0 0 0 54.707561
23.154676 -6.8879724 0.22704282 100 0 0 0 54.307518
26.769255 -6.5449533 0.25313437 46 0 0 0 53.531166
28.875626 -6.3094106 0.26839888 32 0 0 0 53.134529
31.325211 -6.0393238 0.28626704 58 0 0 0 52.742912
-6.0879507 -5.5184512 0.19607845 1374.5 0 0 0 87.974205
-5.7513919 -5.6115909 0.29186964 1480.5 0 0 0 87.389191
-5.2678943 -5.7302332 0.31052306 1455 0 0 0 86.522995
-4.7454615 -5.8171058 0.25115618 1306.25 0 0 0 85.572334
-3.6138351 -5.709343 0.083604604 187 0 0 0 83.658897
2.7384243 -5.7930655 0.24341546 503.55554 0 0 0 67.615791
21.773073 -5.8977704 0.21384461 160 0 0 0 53.927567
-8.1481018 -5.0618877 0.26352856 1028.3334 0 0 0 90.847229
-7.7093992 -5.149291 0.21678039 1063 0 0 0 90.324944
-7.2656298 -5.2489166 0.21076208 1094.25 0 0 0 89.73703
-6.7083554 -5.3673687 0.20341071 1262.25 0 0 0 88.949585
-6.3205695 -5.4524946 0.19865835 1391.5 0 0 0 88.358482
32.282413 -5.402369 0.29202986 159 0 0 0 52.35854
-16.453522 -4.5345907 0.15580827 110 0 0 0 95.405594
-15.362975 -4.6440516 0.14858685 94 0 0 0 95.01297
-14.185467 -4.6723957 0.14071177 133 0 0 0 94.624001
-8.3348331 -4.9934535 0.10390824 936 0 0 0 91.112579
32.626804 -4.6366582 0.2929517 76 0 0 0 51.965321
-18.958981 -4.232904 0.17258514 86 0 0 0 96.169434
-17.774464 -4.430675 0.16468526 39 0 0 0 95.784531
-19.635696 -3.8789861 0.17689215 121 0 0 0 96.56398
32.558651 -3.8111198 0.29070786 66 0 0 0 51.570461
-24.704952 -3.0075078 0.21174245 27 0 0 0 97.738235
-23.601934 -3.4649818 0.20423093 73 0 0 0 97.35379
-18.406065 -3.1674821 0.16772288 139 0 0 0 96.964249
-27.240362 -2.6371527 0.22947086 38 0 0 0 98.127289
32.418987 -2.9871061 0.28802291 123 0 0 0 51.185249
32.359421 -2.1790106 0.28609332 26 0 0 0 50.794968
37.913593 -1.6156634 0.32797718 35 0 0 0 50.407249
45.97879 -0.82547277 0.38910204 12 0 0 0 50.00985
32.996326 0.22084901 0.28794733 153 0 0 0 49.61916
-16.370108 3.4466383 0.12432196 60 0 0 0 3.1301501
-5.6402097 3.0503941 0.14208141 21.5 0 0 0 7.8142099
-5.2042093 3.1104908 0.12031667 58.200001 0 0 0 8.5120831
-4.8206682 3.3256702 0.1310786 255.5 0 0 0 9.5658131
14.846438 3.4607596 0.14706451 60 0 0 0 46.110992
-16.192434 3.8242543 0.12275261 315 0 0 0 3.5160301
-5.1721592 3.7641597 0.37219465 93 0 0 0 9.9574347
-4.6640301 3.7515771 0.18801102 125.5 0 0 0 10.73456
2.0271547 3.7958443 0.48377672 8 0 0 0 32.81361
12.582315 3.9371126 0.2952733 89 0 0 0 44.939232
13.229221 3.7823756 0.30722475 211.5 0 0 0 45.325527
13.879235 3.5989881 0.31897986 158 0 0 0 45.718048
-6.2031527 4.1925507 0.43138668 606 0 0 0 9.3663797
-4.6258349 4.2396798 0.23218757 143.25 0 0 0 11.762716
0.46915165 4.0026107 0.35106558 12 0 0 0 26.948919
0.55541086 4.2498045 0.26495817 10 0 0 0 27.143749
10.644809 4.2240596 0.1162954 360 0 0 0 43.76894
11.201694 4.4420781 0.42251232 341 0 0 0 43.76894
11.637762 4.2851815 0.27900395 291 0 0 0 44.16066
12.131236 4.12849 0.28712618 288.5 0 0 0 44.54776
-9.0327396 4.6376328 0.081274182 901 0 0 0 7.4176102
-4.5985589 4.735878 0.22288017 175.16667 0 0 0 12.68771
10.396651 4.73283 0.25817508 513.5 0 0 0 42.98613
10.764542 4.5815964 0.26412129 437.5 0 0 0 43.376499
-4.5775962 5.2051797 0.23191953 239.16667 0 0 0 13.467175
10.355545 5.1867213 0.26088268 472.75 0 0 0 42.393127
-4.5730443 5.7503343 0.24386048 151.5 0 0 0 14.252814
0.56891942 5.7578034 0.34562898 97 0 0 0 26.55047
10.296822 5.6432786 0.26428598 315.5 0 0 0 41.813889
-4.5510402 6.1777921 0.25343704 176.66667 0 0 0 14.83513
10.386496 6.2046523 0.26925102 432 0 0 0 41.219421
39.980434 6.2269788 0.3383618 6 0 0 0 47.284142
-4.5693784 6.6261163 0.21296892 77.75 0 0 0 15.333261
10.419078 6.7580175 0.27444258 471 0 0 0 40.636391
-44.194359 7.1033716 0.28554788 22 0 0 0 2.35286
0.29453826 7.3732519 0.15798065 780.25 0 0 0 25.580479
0.69062543 7.3671947 0.19033496 160.66667 0 0 0 26.421518
10.426554 7.1343904 0.27780035 434 0 0 0 40.244598
39.340298 7.1243496 0.33346656 10 0 0 0 46.88311
-2.1384926 7.8299174 0.36633736 686.5 0 0 0 20.695789
-1.8231783 7.7896767 0.36238214 624.5 0 0 0 21.283169
0.31111133 7.689734 0.44779259 287.5 0 0 0 25.580479
8.5747204 7.9686279 0.10895844 29 0 0 0 37.90424
10.448004 7.7335324 0.28367579 372.25 0 0 0 39.65971
-43.83984 8.1535616 0.28163716 11 0 0 0 2.7413599
-1.433139 8.4661818 0.49169567 673 0 0 0 22.25416
0.6474039 8.2687693 0.071258612 573 0 0 0 26.16362
6.6844516 8.3799915 0.36679152 341 0 0 0 35.539959
10.452026 8.3499584 0.28969553 320 0 0 0 39.070927
-5.7765455 8.7587309 0.33567309 449 0 0 0 15.62012
-1.4493961 8.5695305 0.28534338 330 0 0 0 22.25416
8.3335667 8.9798393 0.2636871 650.5 0 0 0 36.718407
10.456018 8.7838917 0.29433227 320.5 0 0 0 38.685112
7.787641 9.0423222 0.25657713 385.75 0 0 0 36.133892
8.8418531 9.0648327 0.27218637 617.5 0 0 0 37.110378
9.2662239 9.040041 0.27849907 465.5 0 0 0 37.507599
10.467417 9.2427931 0.29907009 302 0 0 0 38.28529
-6.1450748 9.8482208 0.22368911 488 0 0 0 16.00869
-5.7059646 9.8414669 0.17313516 523 0 0 0 16.53182
-5.271976 9.8169756 0.26244864 484.66666 0 0 0 17.055532
-4.7106857 9.798974 0.21142922 530.5 0 0 0 17.763905
-4.1848311 9.8082266 0.16406576 499.33334 0 0 0 18.48909
-3.8005326 9.7803307 0.24860573 534.33331 0 0 0 19.007317
-3.306128 9.7862072 0.20242056 500.75 0 0 0 19.720415
-2.8260601 9.794857 0.1586477 497 0 0 0 20.440844
-2.2668738 9.776413 0.073962778 406 0 0 0 21.283169
-1.8038908 9.7572641 0.15669398 533 0 0 0 22.000078
-1.269155 9.7432804 0.19680868 548 0 0 0 22.842955
-0.78516614 9.7483034 0.19683619 526 0 0 0 23.62641
-0.30350989 9.7377529 0.19689372 544.75 0 0 0 24.407175
0.056257151 9.7230654 0.19736092 696.5 0 0 0 24.99439
1.2618276 9.7244167 0.079349153 42 0 0 0 26.948919
7.6393304 9.5664101 0.10768592 246 0 0 0 35.539959
10.247467 9.5080919 0.47352064 119 0 0 0 37.90424
1.4249547 10.891336 0.35903659 16 0 0 0 26.948919
4.5123258 -16.194429 0.58208036 192 0 0 0 70.353569
0.13703769 -14.664985 0.62926418 77.666664 0 0 0 74.529243
0.73836541 -14.671533 0.51103193 156 0 0 0 73.885513
1.2764649 -14.610044 0.51059985 122 0 0 0 73.290886
1.8137585 -14.548834 0.51074034 116 0 0 0 72.707825
2.1734416 -14.517043 0.51151294 110 0 0 0 72.315323
4.4694514 -14.645806 0.9083361 28 0 0 0 69.972099
3.2756658 -14.485797 0.8811155 86 0 0 0 71.140556
4.377615 -14.346527 0.52340996 423 0 0 0 69.972099
22.687447 -14.231683 0.92016131 137 0 0 0 58.606602
22.629524 -13.430719 0.90467083 158 0 0 0 58.217381
4.3022947 -12.956915 0.81392533 76 0 0 0 69.573906
4.7579889 -12.731883 0.81102151 622.5 0 0 0 68.982765
5.3377228 -12.825278 0.82858855 773 0 0 0 68.402336
6.8153296 -12.691058 0.68300676 720 0 0 0 66.834503
7.1926231 -12.637179 0.68946141 750.5 0 0 0 66.445557
7.7916837 -12.582792 0.70169139 727.5 0 0 0 65.851715
12.013865 -12.543854 0.60755605 17 0 0 0 62.521339
22.54183 -12.63892 0.88897943 161 0 0 0 57.83276
8.3372726 -12.417124 0.70904917 535.5 0 0 0 65.27124
8.7287912 -12.332851 0.71646881 643.5 0 0 0 64.882393
9.2573032 -12.418702 0.7338891 640.5 0 0 0 64.484123
9.7105618 -12.378263 0.74529266 609.5 0 0 0 64.089279
10.18552 -12.344842 0.75775135 515 0 0 0 63.699631
10.771777 -12.214597 0.70431995 339.33334 0 0 0 63.180038
11.004179 -12.072925 0.97337025 8 0 0 0 62.909992
12.50926 -12.432862 0.61666548 16 0 0 0 62.139088
13.101612 -12.394769 0.63010633 16 0 0 0 61.742821
13.69356 -12.329525 0.64327586 13 0 0 0 61.350166
14.30147 -12.252225 0.65692908 8 0 0 0 60.963127
14.739234 -12.010335 0.6631645 9 0 0 0 60.570961
-0.27516907 -11.617195 0.8400507 39.5 0 0 0 75.058495
2.9910195 -11.879314 0.73295736 29 0 0 0 70.754814
14.984675 -11.608256 0.66132671 10 0 0 0 60.182739
16.003195 -11.776873 0.69161648 272 0 0 0 59.790619
16.720524 -11.680299 0.70906711 236 0 0 0 59.395649
22.468933 -11.880615 0.8747589 204 0 0 0 57.431938
17.353338 -11.496385 0.72295314 221 0 0 0 59.005871
22.235662 -11.065663 0.85544515 180 0 0 0 57.043961
-1.651238 -10.301197 0.88612139 492.5 0 0 0 77.211533
-1.2711152 -10.366341 0.88722253 566 0 0 0 76.628143
22.328583 -10.433845 0.84895182 172 0 0 0 56.6521
-1.6789069 -9.7002764 0.59322321 349 0 0 0 77.404129
-0.71052158 -9.7040129 0.70834261 215.5 0 0 0 75.845551
-0.47342712 -9.7485352 0.71045995 92.5 0 0 0 75.450951
22.245556 -9.7349653 0.83671814 262 0 0 0 56.259998
-1.2706065 -9.3908548 0.57257509 549.5 0 0 0 76.823547
-0.88353449 -9.0162868 0.88418806 655.5 0 0 0 76.238564
22.185383 -9.0643139 0.82600385 294 0 0 0 55.874401
-0.88183528 -8.9826832 0.54714435 709 0 0 0 76.238564
-4.714797 -8.0945835 0.6821211 452.75 0 0 0 83.080872
-4.2583122 -8.2138243 0.6745317 347.25 0 0 0 82.298935
-3.916853 -8.2886829 0.66818619 273.5 0 0 0 81.70739
-2.025156 -8.0945959 0.71370697 906.33331 0 0 0 78.571846
-1.7572536 -8.3166103 0.72660083 856.5 0 0 0 77.993179
22.127373 -8.4106903 0.81602764 243 0 0 0 55.481361
-6.6713696 -7.5478611 0.85442042 444 0 0 0 86.213882
-6.2777257 -7.6542535 0.84023774 313 0 0 0 85.621849
-5.6368771 -7.604466 0.68792683 458 0 0 0 84.830162
-5.2017941 -7.7911434 0.68182683 505.16666 0 0 0 84.051338
-2.6128986 -7.6039591 0.78747994 1223.75 0 0 0 79.942627
-2.2633698 -7.8872728 0.74236912 1064 0 0 0 79.121803
22.069681 -7.7720861 0.80668288 277 0 0 0 55.091259
-9.2206059 -7.1959887 0.98625654 416 0 0 0 89.14592
-8.6976023 -7.1387734 0.95013112 421 0 0 0 88.753235
-8.2050257 -7.2555809 0.92586035 525 0 0 0 88.166344
-7.7367125 -7.3685126 0.90394831 535 0 0 0 87.584831
-7.274394 -7.4567609 0.88232934 542.5 0 0 0 87.000092
-3.065134 -7.2379565 0.80191779 633.66669 0 0 0 81.060883
-2.850029 -7.3946414 0.77644122 940.5 0 0 0 80.531982
22.026478 -7.1519423 0.79842919 330 0 0 0 54.707561
-10.294032 -6.5133452 0.72280574 166 0 0 0 90.714554
-9.2958202 -6.5433221 0.67685097 145 0 0 0 89.940117
23.155249 -6.8918109 0.83103538 125 0 0 0 54.307518
26.73135 -6.5397673 0.94076556 88 0 0 0 53.531166
-10.835338 -6.4881473 0.74810022 393 0 0 0 91.112579
-9.728385 -6.4959769 0.69548947 128 0 0 0 90.324944
-6.2557158 -5.5298591 0.50654888 1359.5 0 0 0 88.166344
-4.5408254 -5.8214107 0.63545811 953 0 0 0 85.22361
2.7371669 -5.7880683 0.71610355 466.66666 0 0 0 67.615791
21.774603 -5.9015636 0.77793819 69 0 0 0 53.927567
-16.748503 -5.0595083 0.59535491 168 0 0 0 95.01297
-7.1520166 -5.302444 0.53779972 220 0 0 0 89.533936
-6.7606015 -5.408185 0.52395451 1281.5 0 0 0 88.949577
-24.298372 -4.7952271 0.82842249 52 0 0 0 96.56398
-21.657606 -4.8312001 0.74583071 117 0 0 0 96.169434
-19.278639 -4.8019333 0.6714344 181 0 0 0 95.784531
-17.354063 -4.779469 0.61160845 239 0 0 0 95.405594
-25.938631 -3.1532192 0.8728258 44 0 0 0 97.738235
-18.439016 -3.1699829 0.63501489 135 0 0 0 96.964249
14.919322 3.4756467 0.53112948 71 0 0 0 46.110992
0.66697639 3.9802182 0.54942036 27 0 0 0 27.731211
2.0106685 3.9978342 0.61172843 138 0 0 0 32.415691
-5.9321871 4.4425893 0.60876483 23 0 0 0 10.14872
-5.2429643 4.2243328 0.55515611 11.5 0 0 0 10.734425
-4.6509085 4.3396211 0.52574027 186 0 0 0 11.909885
0.84122109 4.3195052 0.70567781 39.333332 0 0 0 28.121664
1.5640372 4.2295423 0.72588539 76.5 0 0 0 30.651995
-5.4477963 4.620306 0.7585426 30.5 0 0 0 11.12701
-4.7749467 4.7229795 0.66071254 59.333332 0 0 0 12.363223
-9.5064402 5.184628 0.61380494 51 0 0 0 7.8142099
-6.0868287 5.3021488 0.66046751 25 0 0 0 11.32121
-5.9347482 5.4297624 0.85120928 130 0 0 0 11.7144
-4.7920923 5.2755556 0.75847322 79.333336 0 0 0 13.206921
10.362967 5.1904736 0.69079888 35.5 0 0 0 42.393127
-4.8041229 5.7942796 0.79970247 59.333332 0 0 0 13.927796
1.3227925 5.5526171 0.76515549 5.5 0 0 0 28.7048
10.371344 5.6837068 0.70332068 53 0 0 0 41.813889
-5.4197745 6.3381782 0.88164514 38 0 0 0 13.66403
-4.7408028 6.2245979 0.70354086 92.666664 0 0 0 14.575676
10.377308 6.1990051 0.71728325 81.5 0 0 0 41.219421
10.38143 6.7336044 0.73248178 77 0 0 0 40.636391
-0.80689907 7.4338245 0.98289406 591 0 0 0 23.232025
10.437607 7.1417532 0.74707198 85 0 0 0 40.244598
-5.2097301 7.882688 0.65194517 755.25 0 0 0 15.621643
-0.53889889 7.5765309 0.99879992 535 0 0 0 23.824369
10.42228 7.5153823 0.75763971 101 0 0 0 39.857521
-5.0879645 8.1254358 0.77919751 575 0 0 0 16.00869
-4.9020195 8.2742052 0.66394758 627.5 0 0 0 16.399389
-3.708092 8.2772388 0.88478094 472 0 0 0 18.226046
-2.1253877 8.1854563 0.79425734 465.75 0 0 0 20.891029
-1.2151299 8.4156923 0.9043507 431 0 0 0 22.650311
0.33028132 8.0908175 0.67075187 274 0 0 0 25.580479
5.2818975 8.4002504 0.83020788 330 0 0 0 33.780239
5.7788177 8.4685326 0.60180843 192 0 0 0 34.374031
6.1677518 8.3538151 0.73979223 602.25 0 0 0 34.956947
6.7625136 8.3377914 0.8099525 295.66666 0 0 0 35.672031
-15.265233 8.8548498 0.98293489 173 0 0 0 8.1985798
-1.2537582 8.7393913 0.82904863 419 0 0 0 22.64488
0.35201666 8.5151711 0.91095793 253.5 0 0 0 25.580479
5.8067684 8.5130653 0.86191565 377 0 0 0 34.374031
10.427795 8.7601833 0.79827267 125 0 0 0 38.685112
11.342569 8.6074123 0.83482856 225 0 0 0 39.461899
-1.297614 9.0338831 0.74757993 448 0 0 0 22.650311
7.6476321 9.1069555 0.6958639 210 0 0 0 35.93618
8.216445 9.0745144 0.71660984 387.5 0 0 0 36.525009
8.8748388 9.098217 0.74392831 489 0 0 0 37.110378
10.228643 9.4917355 0.81520516 131 0 0 0 37.90424
10.590007 9.350152 0.82580227 139 0 0 0 38.28529
11.313886 9.0337734 0.84733361 252 0 0 0 39.070927
-5.5027237 9.8620758 0.6336534 82 0 0 0 16.79668
-5.1519194 9.7860889 0.62116665 176 0 0 0 17.184959
-4.680419 9.7374611 0.607638 353 0 0 0 17.763905
-4.2555871 9.7561588 0.59917408 598 0 0 0 18.359449
-3.8336043 9.7480927 0.5903579 705 0 0 0 18.942579
-3.2922006 9.7463703 0.58064163 649 0 0 0 19.720415
-2.8946548 9.73664 0.57394707 747 0 0 0 20.31337
-1.8794631 9.7260418 0.5620237 793 0 0 0 21.873039
-1.2635033 9.699728 0.55657893 589.5 0 0 0 22.842957
-0.78064686 9.6918564 0.55446231 779 0 0 0 23.62641
-0.30162856 9.6786652 0.55340058 942.5 0 0 0 24.407175
0.056922462 9.7370787 0.55711907 2744 0 0 0 24.99439
9.7505903 9.508811 0.79558706 213 0 0 0 37.507599
-0.32141316 10.465008 0.85594749 117 0 0 0 24.407175
0.06383758 10.345127 0.84705031 79 0 0 0 24.99439
-5.7484803 10.936631 0.99654043 385 0 0 0 17.184959
-5.2689099 10.983001 0.98314989 47 0 0 0 17.763905
-4.2907686 10.935024 0.94956124 302.5 0 0 0 18.942579
-3.6921868 10.958809 0.93567622 55.5 0 0 0 19.720415
-3.2459962 10.950365 0.92479539 70 0 0 0 20.31337
-2.2420201 10.926075 0.90552545 441.5 0 0 0 21.676556
-1.82021 10.893905 0.89774221 243 0 0 0 22.25416
-0.84359968 10.542876 0.86307585 165.5 0 0 0 23.62641
0.86323929 10.702278 0.74632138 526.5 0 0 0 26.16362
1.1261023 10.682376 0.88113713 554 0 0 0 26.55047
7.0519137 11.480092 0.77817547 12 0 0 0 33.585312
6.695179 11.529665 0.76950622 12 0 0 0 33.199558
4.9487324 -17.752419 1.0857872 374 0 0 0 70.353569
0.44847155 -17.316509 1.0199009 93 0 0 0 74.270714
0.87260038 -17.272825 1.0186043 102 0 0 0 73.885513
1.2963362 -17.23765 1.0183926 113 0 0 0 73.483673
1.7196579 -17.200012 1.0186238 85 0 0 0 73.098099
2.1405592 -17.141058 1.0182283 66 0 0 0 72.707825
2.7783012 -17.09256 1.0211248 82 0 0 0 72.122482
3.4172714 -17.031691 1.0245272 56 0 0 0 71.533791
5.1171827 -16.746401 1.4696875 74 0 0 0 69.972099
0.018518005 -14.489438 1.2189462 24 0 0 0 74.658508
3.197891 -14.132854 1.2211187 34 0 0 0 71.140556
4.287179 -12.904118 1.3143548 129.5 0 0 0 69.573906
4.7274346 -12.805903 1.2640847 711 0 0 0 69.048111
5.3457417 -12.83811 1.1756585 718 0 0 0 68.402336
6.818604 -12.691702 1.2182305 712 0 0 0 66.834503
7.2088909 -12.660377 1.2318658 655 0 0 0 66.445557
7.6043186 -12.621668 1.2459213 687 0 0 0 66.046913
8.0010958 -12.569383 1.2598072 651 0 0 0 65.656509
11.990442 -12.514653 1.4628035 9 0 0 0 62.521339
12.001372 -12.530625 1.0320184 14 0 0 0 62.521339
8.3458271 -12.424953 1.2657382 537 0 0 0 65.27124
8.7506409 -12.358842 1.2805232 555 0 0 0 64.882393
9.282011 -12.446983 1.3124559 509 0 0 0 64.484123
9.7353468 -12.405056 1.332744 467 0 0 0 64.089279
10.199157 -12.356667 1.3539298 534 0 0 0 63.699631
10.836727 -12.182651 1.3778282 264 0 0 0 63.112526
12.535421 -12.45626 1.2709825 13 0 0 0 62.139088
13.077794 -12.37204 1.0700941 24 0 0 0 61.742821
13.695615 -12.331098 1.0948986 15 0 0 0 61.350166
14.352564 -12.295593 1.1222194 12 0 0 0 60.963127
14.757142 -12.024582 1.1303705 10 0 0 0 60.570961
-0.27286085 -11.556248 1.2596108 51 0 0 0 75.058495
2.9964941 -11.892187 1.0389298 45 0 0 0 70.754814
14.980869 -11.604989 1.125533 12 0 0 0 60.182739
15.996899 -11.771894 1.1780665 249 0 0 0 59.790619
16.784903 -11.724781 1.2134031 239 0 0 0 59.395649
22.435465 -11.862365 1.4954467 187 0 0 0 57.431938
17.355955 -11.497705 1.2332566 261 0 0 0 59.005871
22.238998 -11.066726 1.464355 169 0 0 0 57.043961
-3.5157802 -10.67214 1.4991449 459 0 0 0 79.747429
-1.555496 -10.538286 1.1624987 278 0 0 0 77.018944
-1.3429525 -10.958984 1.2038567 353 0 0 0 76.628143
-3.7921937 -10.228065 1.4562498 567 0 0 0 80.334908
-1.7982416 -10.406053 1.1525594 425 0 0 0 77.404129
22.30229 -10.42097 1.4513289 201 0 0 0 56.6521
-4.5423079 -9.6213331 1.4206353 571 0 0 0 81.70739
-4.2248421 -9.877883 1.4344579 558 0 0 0 81.125641
-0.71118146 -9.7244892 1.0673862 984 0 0 0 75.845551
-0.47150552 -9.7247095 1.0660366 87 0 0 0 75.450951
22.298012 -9.7572556 1.4351727 201 0 0 0 56.259998
-5.6215725 -9.1369228 1.4317822 503.5 0 0 0 83.466827
-5.1405988 -9.3534098 1.424814 516 0 0 0 82.692627
-4.7683139 -9.4891319 1.4179343 570 0 0 0 82.099609
-0.88337368 -9.0304956 1.3302748 403.5 0 0 0 76.238564
22.256273 -9.0925865 1.4178351 93 0 0 0 55.874401
-6.6611748 -8.7634487 1.467985 540.5 0 0 0 85.026886
-6.2533555 -8.8899393 1.4498954 476 0 0 0 84.443771
-5.9798346 -8.9609823 1.4374524 459 0 0 0 84.051369
-5.1065392 -8.527936 1.0849746 533 0 0 0 83.27475
-4.7515459 -8.6421776 1.0769656 655 0 0 0 82.692627
-4.3057637 -8.8324699 1.073328 696 0 0 0 81.903503
-10.991779 -8.1511631 1.4800812 346 0 0 0 89.533936
-10.452014 -8.156806 1.4350492 291 0 0 0 89.14592
-9.2159576 -8.1497746 1.3342001 485 0 0 0 88.166344
-8.6432514 -8.2319126 1.2954019 297 0 0 0 87.584831
-8.0765085 -8.0798788 1.2413498 394 0 0 0 87.193558
-5.3095708 -8.3922882 1.0839391 587 0 0 0 83.658897
22.213253 -8.4426231 1.401567 162 0 0 0 55.481361
-9.6105623 -7.8879843 1.3479018 415 0 0 0 88.753235
-7.5926256 -7.9786091 1.1980131 452 0 0 0 86.806625
-7.2069058 -7.9558859 1.1685479 453 0 0 0 86.406639
-6.8328609 -7.9258714 1.1400275 575 0 0 0 86.021118
-6.317893 -7.8981466 1.1031365 761 0 0 0 85.422729
-5.7347813 -7.9381428 1.0692776 535.5 0 0 0 84.636963
-5.3202953 -7.9688458 1.0469484 346 0 0 0 84.051369
22.060551 -7.7682176 1.3797048 242 0 0 0 55.091259
-11.793159 -7.0642614 1.1531733 374 0 0 0 91.112579
-11.202698 -7.0908122 1.113376 329 0 0 0 90.714554
-10.573565 -7.0628071 1.0692086 407 0 0 0 90.324944
-10.12892 -7.1322012 1.0425515 413 0 0 0 89.940117
-9.7739019 -7.2482228 1.0246549 453 0 0 0 89.533936
22.006121 -7.1446753 1.3649291 286 0 0 0 54.707561
23.197803 -6.9037328 1.4258357 109 0 0 0 54.307518
-24.219265 -6.0319381 1.4450475 37 0 0 0 95.784531
-22.190754 -6.1108036 1.3352293 144 0 0 0 95.405594
29.053341 -6.3525229 1.0132353 32 0 0 0 53.134529
31.495853 -6.0767994 1.0894084 51 0 0 0 52.742912
-19.695316 -5.9492536 1.1972268 116 0 0 0 95.01297
2.7402775 -5.7924404 1.1918552 578.22223 0 0 0 67.615791
32.297768 -5.4095998 1.1106904 143 0 0 0 52.35854
32.599686 -4.6374488 1.1157905 70 0 0 0 51.965321
-30.205963 -4.4287429 1.0132166 52 0 0 0 97.35379
32.541599 -3.8136959 1.1095585 77 0 0 0 51.570461
-22.814762 -3.345799 1.3388033 130 0 0 0 97.35379
-18.439754 -3.170254 1.0930394 146 0 0 0 96.964249
32.384239 -2.9884002 1.1006953 118 0 0 0 51.185249
32.328789 -2.181386 1.0958287 27 0 0 0 50.794968
38.093933 -1.628525 1.2823499 37 0 0 0 50.407249
33.265568 0.21816541 1.1216031 31 0 0 0 49.61916
-44.761826 7.2056088 1.4174868 15 0 0 0 2.35286
-10.949646 7.4556394 1.388991 492 0 0 0 9.3663797
-1.7023399 7.3162522 1.2056258 735.20001 0 0 0 21.32255
-1.2863753 7.2907257 1.2274681 673.20001 0 0 0 22.180943
-0.71955228 7.4913392 1.1748195 793 0 0 0 23.42845
39.379616 7.1261702 1.334024 4 0 0 0 46.88311
-33.117889 7.8582292 1.0646263 43 0 0 0 3.5160301
-15.232814 7.8628836 1.3811539 228 0 0 0 7.4176102
-10.330532 7.5990143 1.3448393 419 0 0 0 9.9574347
-9.9863644 7.9265914 1.3364655 443 0 0 0 10.53604
-5.7383375 7.8248415 1.0220224 949 0 0 0 14.83513
-5.4697247 7.8526402 1.0083694 914 0 0 0 15.23764
-4.0234766 7.5954151 1.2244856 806.5 0 0 0 17.184959
-3.7418594 7.6558704 1.2488185 746 0 0 0 17.698793
-3.3052583 7.7863164 1.3102601 554.5 0 0 0 18.553909
-2.8759165 7.9177146 1.1679688 854.33331 0 0 0 19.394331
-2.1246872 7.7648373 1.3515458 551 0 0 0 20.695789
-1.9031963 7.6872034 1.0360138 223 0 0 0 21.086269
-1.4998707 7.6448827 1.0207193 415 0 0 0 21.873039
-0.54322469 7.6450443 1.2925997 597.5 0 0 0 23.824369
-0.35878006 7.7718673 1.2168673 533.66669 0 0 0 24.210169
37.339848 7.7123332 1.2713797 14 0 0 0 46.493607
-43.665901 8.131711 1.3863398 18 0 0 0 2.7413599
-14.679028 8.2715321 1.3568391 158.5 0 0 0 8.0063953
-5.6755657 8.1509066 1.2879548 812 0 0 0 15.23764
-5.2967229 8.1604471 1.1055177 773.33331 0 0 0 15.749644
-3.5765893 8.1560211 1.159005 288 0 0 0 18.359449
-2.6739326 8.1929665 1.3357314 744 0 0 0 19.91773
-2.4560251 8.2006741 1.3273733 215 0 0 0 20.31337
-1.3911688 8.1807089 1.0859478 336 0 0 0 22.25416
-0.17092013 8.1167517 1.4675697 701 0 0 0 24.604179
3.6681008 8.3924999 1.4402711 332.5 0 0 0 31.440464
4.1736846 8.3884029 1.4741845 312 0 0 0 32.219269
4.6954241 8.3659601 1.2717597 595.25 0 0 0 33.006584
5.2543793 8.3590517 1.188311 418 0 0 0 33.780239
5.9922104 8.3376427 1.2362412 561 0 0 0 34.762039
6.3084946 8.3329468 1.2585187 464.5 0 0 0 35.151859
6.808527 8.3279057 1.2955136 185.75 0 0 0 35.738071
-7.0444622 8.6980124 1.4482371 822 0 0 0 14.05968
-5.1978703 8.5353661 1.175117 582 0 0 0 16.204041
5.8021069 8.5092659 1.2391629 369.5 0 0 0 34.374031
11.273526 8.5593719 1.1834977 1102 0 0 0 39.461899
14.578545 8.940608 1.4264466 13 0 0 0 41.026119
15.155352 8.7858839 1.4610887 7 0 0 0 41.412727
15.762986 8.6242657 1.4985074 7 0 0 0 41.813889
-6.9367085 9.0090294 1.4708805 449 0 0 0 14.44595
8.2278728 9.0907059 1.0238044 353.5 0 0 0 36.525009
11.283177 9.0136042 1.2057917 1469 0 0 0 39.070927
13.839945 9.2108154 1.3864419 63 0 0 0 40.440495
13.344368 9.6133137 1.3703066 32 0 0 0 39.857521
-6.0832405 10.917204 1.158682 406.5 0 0 0 16.79668
-5.7415743 10.923493 1.2935528 591 0 0 0 17.184959
-5.4244571 10.963149 1.2825464 24 0 0 0 17.568569
-4.2863622 10.923815 1.2323588 385.5 0 0 0 18.942579
-3.6382425 10.943599 1.3059105 180.66667 0 0 0 19.786186
-3.2425385 10.934434 1.3389714 203.5 0 0 0 20.31337
-2.9333253 10.855349 1.4587889 703 0 0 0 20.695789
-2.2410111 10.92184 1.1751105 66.5 0 0 0 21.676556
-1.5506792 10.91004 1.4334118 55 0 0 0 22.650311
-1.2718123 10.871525 1.1562756 344 0 0 0 23.035601
-0.86652446 10.867144 1.1528468 325 0 0 0 23.62641
-0.28649119 10.875358 1.2409352 141.33333 0 0 0 24.472845
0.15648395 10.802708 1.3218197 280 0 0 0 25.122831
0.7701602 10.67934 1.3125092 600.33331 0 0 0 26.036163
1.2715583 10.777877 1.2870871 631.75 0 0 0 26.749695
1.6670129 10.71999 1.2883564 15 0 0 0 27.338579
10.394147 10.648103 1.2363127 181 0 0 0 37.110378
10.896742 10.623255 1.2646219 175 0 0 0 37.507599
11.432877 10.60636 1.29611 59 0 0 0 37.90424
12.016556 10.60623 1.332147 29 0 0 0 38.28529
12.508337 10.501218 1.3578341 80 0 0 0 38.685112
-21.584667 11.168839 1.3461405 126 0 0 0 7.4176102
-18.155283 11.147345 1.180115 146 0 0 0 8.5906296
-17.407043 11.282044 1.1487706 22 0 0 0 8.9820004
0.53907192 -20.545631 1.71518 9 0 0 0 74.270714
1.0426487 -20.498772 1.7132657 43 0 0 0 73.885513
1.545514 -20.455456 1.7126626 40 0 0 0 73.483673
2.0457497 -20.388887 1.7111477 60 0 0 0 73.098099
2.5497878 -20.358522 1.7136288 66 0 0 0 72.707825
3.0479195 -20.27821 1.713006 63 0 0 0 72.315323
3.5422559 -20.177843 1.7117203 37 0 0 0 71.929634
3.6330976 -18.084242 1.5448769 42 0 0 0 71.533791
4.9539137 -17.758945 1.7691689 438.5 0 0 0 70.353569
4.8545632 -15.890993 1.7999004 125 0 0 0 69.972099
-0.71092272 -14.90004 1.9820609 267 0 0 0 75.450951
0.022253415 -14.968604 1.9893479 85 0 0 0 74.658508
-1.0143092 -14.000197 1.8668202 189 0 0 0 75.845551
0.018437872 -14.472642 1.5688679 20 0 0 0 74.658508
3.2087245 -14.180408 1.5781536 55 0 0 0 71.140556
22.713335 -14.247343 1.5781395 107 0 0 0 58.606602
-1.5964351 -13.069905 1.7527226 331 0 0 0 76.628143
22.643362 -13.438354 1.5504128 111 0 0 0 58.217381
-1.8682504 -12.692488 1.7083855 338 0 0 0 77.018944
4.2913756 -12.90914 1.8146417 167 0 0 0 69.573906
4.8642735 -12.84621 1.7195128 700.66669 0 0 0 68.917419
5.3509779 -12.847396 1.6857392 744.5 0 0 0 68.402336
6.8330708 -12.715733 1.7489898 680.5 0 0 0 66.834503
7.2118349 -12.662821 1.7655829 687 0 0 0 66.445557
7.6126747 -12.632839 1.7869035 562 0 0 0 66.046913
8.0179558 -12.593174 1.8088379 567 0 0 0 65.656509
12.010771 -12.535588 1.8873223 16 0 0 0 62.521339
22.628624 -12.686922 1.5279924 140 0 0 0 57.83276
-3.047267 -12.21701 1.9877524 352 0 0 0 78.571846
-2.1368644 -12.393841 1.6751961 278 0 0 0 77.404129
8.3524523 -12.434655 1.6307719 538 0 0 0 65.27124
8.7797356 -12.399654 1.653934 540 0 0 0 64.882393
9.296092 -12.465654 1.6923676 638 0 0 0 64.484123
9.7415485 -12.412772 1.7171289 600 0 0 0 64.089279
10.217233 -12.378323 1.7464435 568 0 0 0 63.699631
10.683325 -12.312084 1.7735261 519 0 0 0 63.31506
11.022084 -12.087876 1.7800511 13 0 0 0 62.909992
12.564376 -12.482418 1.9250095 12 0 0 0 62.139088
13.116415 -12.40376 1.7423999 8.5 0 0 0 61.742821
13.726788 -12.354477 1.5573854 11 0 0 0 61.350166
14.765487 -12.026759 1.6054739 11 0 0 0 60.570961
-3.5131536 -11.619624 1.9171565 422 0 0 0 79.363007
-3.273742 -11.873768 1.9449338 396 0 0 0 78.960991
-2.3140328 -11.693795 1.5893233 446 0 0 0 77.797081
15.024873 -11.634466 1.6022323 18 0 0 0 60.182739
16.029203 -11.790934 1.6762117 252 0 0 0 59.790619
16.800514 -11.730905 1.7251092 200 0 0 0 59.395649
17.393711 -11.517875 1.7557352 213 0 0 0 59.005871
-3.8669071 -11.273287 1.8827218 383.5 0 0 0 79.942627
-3.0530827 -11.070654 1.5317833 447 0 0 0 78.960991
-2.6858134 -11.358418 1.5566635 428.5 0 0 0 78.380554
-4.8289604 -10.563533 1.8350751 387 0 0 0 81.513657
-4.3055906 -10.793222 1.8361897 464.5 0 0 0 80.731674
-3.3086638 -10.941216 1.5246459 400 0 0 0 79.363007
-6.1737728 -10.032211 1.8600614 470.5 0 0 0 83.466827
-5.7203159 -10.114054 1.8352491 417 0 0 0 82.887001
-5.3203983 -10.270761 1.8273826 438.5 0 0 0 82.298935
-7.7445278 -9.9351301 1.9863163 399 0 0 0 85.22361
-7.3606005 -9.9367619 1.9505621 438 0 0 0 84.830162
-6.8060107 -9.9320526 1.9003023 425.5 0 0 0 84.247574
-9.1286325 -9.1356983 1.7161032 343 0 0 0 87.193558
-8.6657791 -9.1096582 1.6716111 370 0 0 0 86.806625
-0.88587111 -9.0558634 1.7830677 244 0 0 0 76.238564
-8.1260195 -8.9738865 1.6108466 345 0 0 0 86.406639
-7.7336545 -8.974247 1.5770772 433 0 0 0 86.021118
-7.266468 -8.8634348 1.526904 417 0 0 0 85.621849
