# .PCD v0.7 - Point Cloud Data file format
VERSION 0.7
FIELDS x y z intensity normal_x normal_y normal_z curvature
SIZE 4 4 4 4 4 4 4 4
TYPE F F F F F F F F
COUNT 1 1 1 1 1 1 1 1
WIDTH 961
HEIGHT 1
VIEWPOINT 0 0 0 1 0 0 0
POINTS 961
DATA ascii
-5.1086936 12.190659 2.7375288 21 0 0 0 18.336121
-17.25551 12.744221 2.8925462 47 0 0 0 9.75103
-5.0027475 12.813262 2.5086744 9 0 0 0 18.72604
-4.9823813 12.764491 2.8354867 8 0 0 0 18.72604
12.905468 12.958745 2.8103361 66 0 0 0 37.084999
-26.778646 13.441631 2.5885987 9 0 0 0 7.0200601
-19.110735 13.410979 2.5754888 58 0 0 0 9.3688602
-4.779479 13.193146 2.7275801 86 0 0 0 19.11055
14.756386 13.424031 2.5684958 71 0 0 0 37.8643
-4.6055641 13.76464 2.8204579 13.5 0 0 0 19.50518
-21.46253 14.295045 2.8446929 35 0 0 0 8.9700403
-4.4682117 14.536683 2.7656686 8 0 0 0 19.898979
-4.2136889 15.016378 2.8338509 8 0 0 0 20.284889
-3.9826343 15.669735 2.9348626 78 0 0 0 20.67314
13.741373 15.993138 2.7127955 26 0 0 0 35.909241
-27.441292 16.4041 2.7517605 20 0 0 0 8.1949997
-3.8061411 16.687759 2.6803985 16 0 0 0 21.068239
12.206023 17.40827 2.7360699 65 0 0 0 34.34251
12.747324 17.261 2.7607098 44 0 0 0 34.731647
13.27405 17.0788 2.7823753 61 0 0 0 35.117474
-3.6085324 17.848885 2.8477366 5 0 0 0 21.461941
11.702302 18.565598 2.8246353 13 0 0 0 33.55658
14.001043 21.02997 2.6240876 37 0 0 0 33.95343
41.704926 21.013651 2.5274904 12 0 0 0 42.157318
13.815804 21.897726 2.6895134 54 0 0 0 33.55658
13.201893 22.110907 2.6764061 51 0 0 0 33.165718
13.192519 23.377865 2.7896764 35 0 0 0 32.783241
42.889866 25.732344 2.7005243 15 0 0 0 40.985073
43.696373 27.696941 2.7909515 17 0 0 0 40.599621
15.032084 28.221479 2.541465 15 0 0 0 32.395721
14.416737 28.745905 2.5576866 12 0 0 0 31.999531
17.081572 30.24576 2.7560549 18 0 0 0 32.783241
-2.3358476 30.885363 2.5259998 28 0 0 0 23.411039
14.003264 31.710199 2.7586842 22 0 0 0 31.21616
14.930083 31.678558 2.7844257 29 0 0 0 31.605169
-1.6527556 32.479324 2.6468074 23 0 0 0 23.79707
-0.91803938 35.095772 2.8507838 33 0 0 0 24.190689
17.947231 46.647778 2.7253499 16 0 0 0 30.431509
5.0707054 51.98328 2.8973989 19 0 0 0 26.137739
18.398739 51.550247 2.985476 18 0 0 0 30.04044
22.29867 80.753212 2.5214381 15 0 0 0 28.87237
20.334856 81.377136 2.531817 8 0 0 0 28.489611
31.91468 -26.201412 3.3660352 25 0 0 0 60.512688
32.440758 -24.068512 3.2897615 31 0 0 0 59.734341
32.810326 -23.115948 3.2669365 37 0 0 0 59.341122
33.590481 -22.452137 3.2864366 4 0 0 0 58.948078
34.625572 -20.760363 3.2797105 33 0 0 0 58.157951
34.88501 -19.768206 3.2554073 37 0 0 0 57.770481
35.094791 -18.764147 3.2291038 33 0 0 0 57.38763
35.225712 -17.736233 3.1982028 57 0 0 0 56.985458
35.720459 -15.837822 3.164495 35 0 0 0 56.210598
36.021721 -14.924153 3.1555507 32 0 0 0 55.817448
36.23555 -13.980504 3.1411123 36 0 0 0 55.434582
36.090706 -12.915874 3.0982919 37 0 0 0 55.041031
36.957912 -12.210954 3.1431358 43 0 0 0 54.651539
8.453949 -11.409371 3.2800148 120 0 0 0 64.429634
36.665283 -11.123507 3.0923111 75 0 0 0 54.263561
-0.17455423 -10.520162 3.3909197 604 0 0 0 74.849457
9.2943926 -10.78385 3.2872324 80 0 0 0 63.247158
10.44758 -10.980556 3.4965026 6 0 0 0 62.458649
13.592603 -10.615412 3.1230671 87 0 0 0 60.121792
-2.5061436 -10.003828 3.4093816 798 0 0 0 78.489891
-2.1347682 -10.084362 3.2805345 772.25 0 0 0 77.911209
-1.6409501 -10.195242 3.2863343 817.25 0 0 0 77.131622
-1.1433365 -10.300106 3.2978561 827.5 0 0 0 76.353584
-0.64147371 -10.415028 3.3202944 786 0 0 0 75.572281
8.2468567 -10.400939 3.1762197 174 0 0 0 63.900219
10.073495 -10.081053 3.2893043 60 0 0 0 62.070419
-4.5165315 -9.5572433 3.3635004 734.5 0 0 0 81.62114
-4.1740441 -9.6342154 3.3843632 742.33331 0 0 0 81.100693
-3.8328025 -9.7059393 3.2779171 820.33331 0 0 0 80.585289
-3.3716741 -9.8056173 3.3000429 814.25 0 0 0 79.861961
-2.8008876 -9.9346542 3.2599316 817.40002 0 0 0 78.964622
8.8823528 -9.8094749 3.2196026 151.5 0 0 0 62.860039
9.3520346 -9.8308764 3.4670637 156 0 0 0 62.458649
-6.712501 -9.0608406 3.3082094 645.5 0 0 0 84.740738
-6.2777967 -9.1589813 3.258255 681.5 0 0 0 84.157196
-5.7148438 -9.2828436 3.1992624 699.5 0 0 0 83.377884
-5.171154 -9.4031105 3.1499903 774.25 0 0 0 82.603172
-4.7749233 -9.4963989 3.2506373 848 0 0 0 82.019829
9.1779451 -9.1861858 3.3191547 32 0 0 0 62.070419
-8.627326 -8.6368694 3.2771235 458.5 0 0 0 87.102921
-8.2905445 -8.7172337 3.2298918 488 0 0 0 86.709923
-7.849638 -8.8123589 3.2178478 573.66669 0 0 0 86.188141
-7.1163731 -8.9750071 3.3126481 592.66669 0 0 0 85.270981
13.955929 -8.3696537 3.3456161 31 0 0 0 58.157951
37.248398 -8.363493 3.0743897 28 0 0 0 53.090168
37.396282 -7.4369125 3.0684137 9 0 0 0 52.694031
37.830574 -6.5617361 3.0874233 44 0 0 0 52.303978
38.042145 -5.6397367 3.0902011 39 0 0 0 51.920311
38.275753 -4.7167659 3.096523 10 0 0 0 51.52639
14.772314 -4.4806476 3.1672649 19 0 0 0 54.263561
14.966346 -3.7471099 3.1637685 237 0 0 0 53.486221
15.073677 -3.3824637 3.1670132 197 0 0 0 53.090168
15.25004 -2.6423061 3.1711304 14 0 0 0 52.303978
15.321019 -1.8844476 3.1611912 144 0 0 0 51.52639
38.837864 -0.94596034 3.1104233 45 0 0 0 49.970181
16.008204 -0.38447633 3.2743442 128 0 0 0 49.970181
8.9260235 0.45209303 3.1653731 53 0 0 0 48.800591
9.2733831 0.24082652 3.2843261 81 0 0 0 49.183712
15.813636 0.0091924053 3.2332504 132 0 0 0 49.572449
9.8868103 0.98644257 3.2695115 128 0 0 0 48.015961
10.377661 0.52118975 3.4183245 60 0 0 0 48.800591
10.585907 0.53316367 3.2236366 72 0 0 0 48.800591
10.333089 1.0323179 3.1581054 80 0 0 0 48.015961
11.221387 1.1183786 3.1484215 191 0 0 0 48.015961
8.9930162 1.5786071 3.2306514 230 0 0 0 46.849979
9.0420828 1.8143508 3.0359001 141 0 0 0 46.448181
10.244211 1.5351288 3.2780535 228.5 0 0 0 47.232639
32.480179 1.6054568 3.394614 21 0 0 0 48.800591
8.4807701 2.3688691 3.3314526 85 0 0 0 45.286259
10.95564 2.1959634 3.117764 140 0 0 0 46.448181
9.0360584 2.5230212 3.3166168 57 0 0 0 45.286259
11.128448 2.7102175 3.2881272 166.33333 0 0 0 45.805981
11.198246 3.2682328 3.2516301 79.5 0 0 0 45.089836
11.955741 3.9723403 3.1941774 39 0 0 0 44.507168
11.716452 4.3785362 3.1709652 116.5 0 0 0 43.923779
11.394846 4.7458348 3.128835 128 0 0 0 43.339661
13.029554 4.6865206 3.165978 73 0 0 0 44.117279
11.238411 5.00878 3.1184323 145 0 0 0 42.946178
10.416514 6.9971333 3.4885342 200 0 0 0 40.212929
10.977795 6.9874496 3.2931557 126 0 0 0 40.599621
11.857349 6.7503119 3.2838674 117 0 0 0 41.385754
13.273491 6.7095294 3.0305622 136 0 0 0 42.157318
13.82021 6.566503 3.4919071 39 0 0 0 42.555912
38.904449 6.7656026 3.1448421 18 0 0 0 46.849979
10.25254 7.259335 3.4920125 38 0 0 0 39.818687
10.943973 7.3500309 3.3353417 166 0 0 0 40.212929
11.094687 7.0616822 3.0047114 226 0 0 0 40.599621
11.842258 7.1327457 3.3263621 135.5 0 0 0 40.985073
13.226439 7.1022139 3.425822 163 0 0 0 41.769112
10.657806 7.7453046 3.3330574 71 0 0 0 39.62619
11.051781 7.8230877 3.0917509 160 0 0 0 39.818687
14.043458 7.9868956 3.2876315 53 0 0 0 41.385754
-10.647551 8.2566948 3.3114464 117.5 0 0 0 10.13688
-10.050104 8.1926594 3.1858273 6.5 0 0 0 10.53491
-9.6432495 8.2612782 3.2748883 7 0 0 0 10.92323
-9.1388073 8.2239437 3.3227906 7.5 0 0 0 11.31488
-8.5807152 8.1076584 3.189852 145 0 0 0 11.70629
-8.2451191 8.3829031 3.1759188 15.5 0 0 0 12.287315
9.5702038 8.301753 3.2054629 201 0 0 0 38.261047
-7.7983165 8.5343552 3.2642365 17 0 0 0 12.86779
-7.1975183 8.7799664 3.3157532 20.200001 0 0 0 13.72967
9.7179852 8.8570318 3.0021894 123 0 0 0 37.8643
11.833111 8.8178701 3.3658302 56 0 0 0 39.433689
-6.7240119 9.1388693 3.2923968 31.666666 0 0 0 14.563779
-6.3445621 9.6599503 3.2568374 37.5 0 0 0 15.40831
-6.0704765 10.026377 3.1557703 24 0 0 0 15.99386
-5.908699 10.323678 3.2010603 22 0 0 0 16.3873
-5.7309175 10.60965 3.2434065 17 0 0 0 16.774
-5.471838 10.752298 3.2438912 210 0 0 0 17.158739
-5.4533668 11.404124 3.2399807 16 0 0 0 17.547489
9.7304831 11.342731 3.4066339 29 0 0 0 35.909241
10.000537 11.090348 3.0385947 27 0 0 0 36.295261
-5.3016605 11.825365 3.1607957 17 0 0 0 17.94529
12.155696 11.622445 3.4176075 54 0 0 0 37.482159
-5.1424546 12.269927 3.0800676 9 0 0 0 18.336121
40.165329 12.204975 3.331681 15 0 0 0 44.89341
-17.219046 12.719408 3.4152138 58 0 0 0 9.75103
-5.0157971 12.848662 3.1909163 15 0 0 0 18.72604
14.276207 12.98734 3.4416974 51 0 0 0 37.8643
-19.124819 13.418258 3.150476 44 0 0 0 9.3688602
-4.8194366 13.304433 3.2714424 10 0 0 0 19.11055
14.041465 13.418941 3.4632099 113 0 0 0 37.482159
40.181953 13.296527 3.3571808 27 0 0 0 44.507168
-4.6118679 13.783129 3.3579047 12 0 0 0 19.50518
-21.388502 14.242653 3.4654961 34 0 0 0 8.9700403
10.043315 14.334027 3.1249793 15 0 0 0 34.34251
13.729896 14.47711 3.0626297 31 0 0 0 36.688259
40.704964 14.588055 3.4273574 31 0 0 0 44.117279
-23.976261 15.139513 3.1283703 66 0 0 0 8.5826397
-4.2391157 15.114721 3.2376931 5 0 0 0 20.284889
12.574403 15.386689 3.0505588 40 0 0 0 35.513821
-3.820533 16.760366 3.1167436 19 0 0 0 21.068239
12.981677 16.702629 3.2454038 28 0 0 0 35.117474
10.96337 18.379457 3.2858708 29 0 0 0 33.165718
-3.3906739 19.209393 3.046164 25 0 0 0 21.840759
14.124135 21.219934 3.2741563 24 0 0 0 33.95343
-2.8873982 22.936485 3.027765 19 0 0 0 22.622681
13.590226 22.764917 3.4064062 55 0 0 0 33.165718
13.339199 23.643234 3.4883296 29 0 0 0 32.783241
14.734488 27.660866 3.2529604 18 0 0 0 32.395721
-2.9482918 29.375685 3.1294065 67 0 0 0 23.014481
15.106719 30.111998 3.4960723 12 0 0 0 31.999531
-2.3328292 30.887184 3.2780957 27 0 0 0 23.411039
-1.6481889 32.452896 3.4335682 25 0 0 0 23.79707
45.635838 32.169731 3.0072954 6 0 0 0 39.818687
-0.055885561 37.931511 3.0733211 35 0 0 0 24.58041
0.93989414 40.541142 3.2790167 30 0 0 0 24.966801
47.062679 44.846741 3.4924543 9 0 0 0 37.482159
7.0410933 57.475739 3.20279 23 0 0 0 26.535839
37.001469 -23.437338 3.5574608 19 0 0 0 58.557552
27.637821 -20.506216 3.6441774 15 0 0 0 59.734341
28.517202 -20.092005 3.6917412 11 0 0 0 59.341122
7.0542059 -13.208651 3.8260818 158 0 0 0 66.768326
14.764774 -12.123273 3.9266098 39 0 0 0 60.512688
7.835412 -11.736956 3.7815094 66 0 0 0 65.202789
8.2079821 -11.66462 3.644901 96 0 0 0 64.817566
12.848426 -11.648667 3.99387 27 0 0 0 61.292912
8.2323036 -11.109941 3.7064471 19 0 0 0 64.429634
9.203043 -11.222514 3.7073245 39 0 0 0 63.637688
-0.25707188 -10.501638 3.9862306 542 0 0 0 74.979965
0.00035189424 -10.53572 3.7399199 320 0 0 0 74.58844
9.4057493 -10.912079 3.6798086 23 0 0 0 63.247158
13.688223 -10.689178 3.5721385 23 0 0 0 60.121792
-2.5034633 -10.008342 3.7896149 626 0 0 0 78.489891
-2.131861 -10.084005 3.7862396 638 0 0 0 77.911209
-1.6368327 -10.18757 3.7901781 630.75 0 0 0 77.131622
-1.1402857 -10.298934 3.8059983 633.25 0 0 0 76.353584
-0.63828832 -10.411702 3.8312776 610 0 0 0 75.572281
-0.25679675 -10.485636 3.723448 649 0 0 0 74.979965
7.3652625 -10.199553 3.8412373 34.5 0 0 0 64.623596
8.1560364 -10.201721 3.6648078 20.5 0 0 0 63.834583
9.4961023 -10.484654 3.9649878 102 0 0 0 62.860039
-4.6905956 -9.5223503 3.6819561 633 0 0 0 81.886932
-4.2603135 -9.6255226 3.8662667 578 0 0 0 81.228867
-3.8710341 -9.6933079 3.8341134 611.75 0 0 0 80.650055
-3.3697848 -9.8087864 3.8098989 618.5 0 0 0 79.861961
-2.8733802 -9.9221821 3.7947106 647.25 0 0 0 79.083313
8.6482296 -9.54667 3.9305863 57 0 0 0 62.860039
10.645839 -9.6546164 3.6687279 40 0 0 0 61.292912
13.18077 -9.7781096 3.7786767 64 0 0 0 59.734341
-6.7206655 -9.0702276 3.7295103 552 0 0 0 84.740738
-6.2828631 -9.1679964 3.8086975 516.5 0 0 0 84.157196
-5.7186985 -9.2909164 3.7391729 564.75 0 0 0 83.377884
-5.1727881 -9.4080715 3.6801932 613.75 0 0 0 82.603172
9.0802393 -9.0880241 3.6033707 227 0 0 0 62.070419
-8.1559076 -8.5786676 3.6164341 201 0 0 0 86.709923
-7.7010036 -8.7905169 3.6662228 399.66666 0 0 0 86.054443
-7.1667309 -8.8539963 3.7596552 416.75 0 0 0 85.436623
-6.9105749 -8.8700104 3.9903822 188 0 0 0 85.138466
8.6453381 -8.6514235 3.8822269 52 0 0 0 62.070419
9.2905455 -8.8526211 3.5990717 18 0 0 0 61.686127
9.7684212 -8.8599758 3.6972117 59 0 0 0 61.292912
10.131648 -8.745307 3.7511683 22 0 0 0 60.899559
-8.2466621 -8.2587242 3.5661924 182 0 0 0 87.102921
-7.7516022 -8.3525209 3.7646632 125.5 0 0 0 86.515877
-7.2463899 -8.415144 3.9414115 141 0 0 0 85.920753
9.3611155 -8.4878521 3.8549123 42 0 0 0 61.292912
9.8094273 -8.4642315 3.9512331 27 0 0 0 60.899559
13.962742 -8.3697176 3.7454336 18 0 0 0 58.157951
14.893934 -3.7256784 3.5244992 87 0 0 0 53.486221
-45.946667 -1.1288869 3.7515063 18 0 0 0 99.19487
-48.639473 -0.00055712427 3.9673076 18 0 0 0 99.584007
14.955719 -0.35568476 3.7955587 110 0 0 0 49.970181
15.320725 -0.36482218 3.5107198 127 0 0 0 49.970181
9.9143648 0.25757799 3.7517092 64 0 0 0 49.183712
10.517044 0.013863694 3.7185202 41 0 0 0 49.572449
15.870067 0.012433626 3.633343 105 0 0 0 49.572449
16.389357 0.41591793 3.751292 132 0 0 0 49.183712
10.031449 1.2547166 3.5735674 115 0 0 0 47.62294
10.25026 1.5392137 3.7894998 75.5 0 0 0 47.232639
12.241457 2.2970514 3.7778516 96 0 0 0 46.649078
10.735071 2.8470807 3.646594 149.5 0 0 0 45.482635
11.24259 2.5439038 3.6396828 134.5 0 0 0 46.059914
10.325882 3.1531906 3.5450919 153 0 0 0 44.89341
11.412497 3.3329349 3.6058731 139.5 0 0 0 45.089836
9.8885927 3.5651519 3.9673331 172 0 0 0 44.117279
10.851673 3.760505 3.9067402 83 0 0 0 44.312225
11.551917 3.8411756 3.6901331 122 0 0 0 44.507168
12.02197 3.9943988 3.5265913 39 0 0 0 44.507168
10.595158 4.2617788 3.7459729 133 0 0 0 43.534969
11.370149 4.0942969 3.662956 88 0 0 0 44.117279
11.554679 4.4844189 3.7551799 104 0 0 0 43.730278
12.218751 4.3961329 3.6133792 88 0 0 0 44.117279
10.408698 4.7961302 3.7580938 180.5 0 0 0 42.751045
11.909034 4.9617157 3.9065471 45 0 0 0 43.339661
12.225742 4.7412972 3.6478615 85 0 0 0 43.730278
10.264397 5.1959109 3.7714016 104 0 0 0 42.157318
12.24341 5.277781 3.7077203 89.5 0 0 0 43.142921
11.814563 5.6192546 3.9598756 143 0 0 0 42.555912
12.359273 6.2516613 3.8485718 92 0 0 0 42.157318
12.841323 6.2329688 3.729929 109.66666 0 0 0 42.423046
12.320587 6.6174169 3.7098756 139 0 0 0 41.769112
12.445829 7.0838938 3.9768863 117 0 0 0 41.385754
13.873385 7.0147419 3.5466571 123 0 0 0 42.157318
11.808512 7.5137992 3.8868766 115 0 0 0 40.599621
-10.640034 8.2530165 3.8076575 120 0 0 0 10.13688
-9.7543144 8.1513786 3.5938919 40.5 0 0 0 10.729071
-8.6981888 8.0850945 3.7440593 214 0 0 0 11.575821
-8.1950235 8.33325 3.7315636 18.75 0 0 0 12.287315
-7.7309432 8.4631987 3.8001726 4 0 0 0 12.86779
-7.3819208 8.4878922 3.728636 55 0 0 0 13.26118
9.3495121 8.1133881 3.7450283 83 0 0 0 38.261047
10.647466 8.3518972 3.757956 39 0 0 0 39.03994
11.269788 8.3992167 3.9020267 67 0 0 0 39.433689
-7.6893806 8.6226759 3.5450764 13 0 0 0 13.064486
-7.1669874 8.6600208 3.7252033 274 0 0 0 13.65506
-6.8335371 8.9010611 3.8548083 173.75 0 0 0 14.234295
10.530076 8.6862364 3.7901392 32 0 0 0 38.648567
-6.5780201 9.2538471 3.6182513 176.5 0 0 0 14.8312
-6.3146243 9.3629799 3.7385395 296 0 0 0 15.21456
10.88665 9.4374981 3.9980323 34 0 0 0 38.261047
11.554414 9.0604553 3.7094271 17 0 0 0 39.03994
-6.2628131 9.6188869 3.6091194 46.333332 0 0 0 15.472893
-5.9959273 9.9077044 3.8311126 11 0 0 0 15.99386
-6.0622392 10.012207 3.5831547 27 0 0 0 15.99386
-5.7927508 10.320454 3.8160598 13.333333 0 0 0 16.516199
10.695729 10.234616 3.7386382 29 0 0 0 37.482159
-5.7087722 10.567762 3.6742094 16 0 0 0 16.774
-5.4735012 10.758976 3.8402739 162 0 0 0 17.158739
11.458348 10.961608 3.6126752 27 0 0 0 37.482159
-5.3944144 11.281469 3.6668205 61 0 0 0 17.547489
-5.2975183 11.821161 3.6393292 11 0 0 0 17.94529
10.950757 11.559154 3.6272295 104 0 0 0 36.688259
-5.0781093 12.121781 3.6906219 8 0 0 0 18.336121
-17.171278 12.686199 3.9333506 91 0 0 0 9.75103
-5.0480461 12.936508 3.5526254 9 0 0 0 18.72604
-4.8816757 12.508561 3.7687459 147 0 0 0 18.72604
9.3413057 12.666327 3.9721363 12 0 0 0 34.731647
9.9647589 12.837543 3.7013302 33 0 0 0 35.117474
12.544581 12.596257 3.6103244 31 0 0 0 37.084999
-19.047398 13.366059 3.7126551 45 0 0 0 9.3688602
-4.7907887 13.231003 3.7721572 8 0 0 0 19.11055
9.669241 13.10975 3.7101936 22 0 0 0 34.731647
-4.6056356 13.769203 3.7102227 19 0 0 0 19.50518
-4.3742671 14.234112 3.8030436 94 0 0 0 19.898979
11.475208 14.044833 3.6825762 15 0 0 0 35.513821
-23.990137 15.145065 3.8265221 63 0 0 0 8.5826397
-4.2364283 15.101018 3.6180866 6 0 0 0 20.284889
13.830431 15.317423 3.6774294 40 0 0 0 36.295261
-27.286438 16.314047 3.5075047 15 0 0 0 8.1949997
-4.0896888 16.100529 3.8287563 5 0 0 0 20.67314
12.230705 16.142532 3.6102934 66.5 0 0 0 34.924561
-3.8131051 16.732929 3.7427874 38 0 0 0 21.068239
13.883997 16.981354 3.906527 15 0 0 0 35.513821
12.750894 19.16234 3.5293705 21 0 0 0 33.95343
14.592214 20.794994 3.8909783 38 0 0 0 34.34251
-2.8867519 22.951118 3.601557 31 0 0 0 22.622681
-57.523739 25.472309 3.8533943 7 0 0 0 6.2437201
-2.9532332 29.404602 3.8587627 45 0 0 0 23.014481
15.287379 32.428612 3.7204564 23 0 0 0 31.605169
14.404895 32.610374 3.7020473 32 0 0 0 31.21616
-0.91388708 35.06855 3.7003267 37 0 0 0 24.190689
-0.0521922 37.808506 3.9814818 31 0 0 0 24.58041
2.0809216 43.472687 3.5121741 21 0 0 0 25.367001
31.923939 -27.545952 4.4628162 46 0 0 0 60.899559
32.206463 -26.438927 4.4087744 27 0 0 0 60.512688
34.149956 -22.824036 4.3384919 20 0 0 0 58.948078
26.228622 -21.525953 4.4312682 12 0 0 0 60.512688
34.653339 -20.77527 4.2639475 51 0 0 0 58.157951
34.903328 -19.776876 4.2317748 73 0 0 0 57.770481
35.147285 -18.79052 4.2022018 69 0 0 0 57.38763
35.357777 -17.801033 4.1718564 43 0 0 0 56.985458
35.60218 -16.841499 4.1485977 21 0 0 0 56.597961
35.803638 -15.873077 4.1233573 72 0 0 0 56.210598
36.053581 -14.935768 4.106504 55 0 0 0 55.817448
6.9261227 -13.769882 4.3204041 86 0 0 0 67.155777
36.268047 -13.991483 4.0884185 48 0 0 0 55.434582
6.9765325 -13.062804 4.1521068 95 0 0 0 66.768326
36.336224 -13.002154 4.0568304 50 0 0 0 55.041031
7.8440299 -12.39128 4.4722695 37 0 0 0 65.593018
36.548817 -12.074389 4.0440087 161 0 0 0 54.651539
8.2983112 -11.791971 4.0426631 38 0 0 0 64.817566
14.580517 -11.967112 4.3392434 71 0 0 0 60.512688
15.832773 -11.747079 4.0492091 31 0 0 0 59.734341
36.734028 -11.142875 4.0307689 176 0 0 0 54.263561
0.00046555916 -10.54387 4.0008998 245 0 0 0 74.58844
8.66644 -10.564569 4.1681132 16 0 0 0 63.637688
10.073491 -10.586824 4.0944905 20 0 0 0 62.458649
13.739429 -10.724068 4.2248354 43.5 0 0 0 60.121792
6.7312131 -10.085501 4.0034132 168 0 0 0 65.202789
8.1816273 -10.230123 4.1594429 163.5 0 0 0 63.834583
8.6566353 -10.041587 4.208806 77.5 0 0 0 63.247158
37.170738 -10.285589 4.0472035 10 0 0 0 53.868088
-4.5134749 -9.5574493 4.0113358 508 0 0 0 81.62114
6.8073654 -9.6694431 4.1949701 66 0 0 0 64.817566
7.2200031 -9.7418394 4.1498146 95.5 0 0 0 64.429634
8.202033 -9.509613 4.4518666 16 0 0 0 63.247158
12.586786 -9.8248549 4.4670124 27 0 0 0 60.121792
13.054748 -9.6840639 4.1420598 33 0 0 0 59.734341
-6.7130113 -9.066514 4.0033998 441 0 0 0 84.740738
-6.1320939 -9.1922674 4.1924162 396 0 0 0 83.96582
-5.7185431 -9.2943401 4.1410027 474 0 0 0 83.377884
-5.1783876 -9.4222698 4.0802383 478.5 0 0 0 82.60318
-4.7744994 -9.499898 4.0349545 560 0 0 0 82.019829
8.2618265 -9.1237879 4.0619426 74 0 0 0 62.860039
9.6321545 -9.1748104 4.2200484 24.5 0 0 0 61.686127
12.998007 -9.1561022 4.0516119 68 0 0 0 59.341122
14.207149 -9.2419739 4.3158135 26.5 0 0 0 58.752815
-6.6527662 -8.5391102 4.1076546 259 0 0 0 85.138466
-6.3735733 -8.8343458 4.1338272 163 0 0 0 84.544647
7.7710023 -8.7913637 4.4496145 45.5 0 0 0 63.053596
8.0426197 -8.875555 4.247345 112 0 0 0 62.860039
8.5130463 -8.7315359 4.1722469 119.5 0 0 0 62.264534
9.4100752 -8.5345402 4.1897569 58 0 0 0 61.292912
14.565995 -8.7299442 4.3226295 77 0 0 0 58.157951
8.3428249 -8.3437538 4.473237 16 0 0 0 62.070419
8.8457241 -8.017766 4.2323713 34 0 0 0 61.292912
37.699268 -8.4632645 4.050005 44 0 0 0 53.090168
37.817425 -7.519249 4.0394669 49 0 0 0 52.694031
37.890465 -6.5707965 4.0266919 24 0 0 0 52.303978
15.544894 -1.5207543 4.3518004 44 0 0 0 51.132912
16.562202 -1.6206852 4.2204065 52 0 0 0 51.132912
14.433218 -0.69531971 4.3830495 81 0 0 0 50.35807
14.704096 -0.71137917 4.1023564 44 0 0 0 50.35807
38.975315 -0.94819301 4.0686574 15 0 0 0 49.970181
14.426652 -0.33972114 4.3764844 128 0 0 0 49.970181
15.179557 -0.36057141 4.229198 114 0 0 0 49.970181
14.434335 0.015170857 4.3768272 61 0 0 0 49.572449
14.540701 0.012326351 4.050981 6 0 0 0 49.572449
15.5757 0.39622429 4.3370585 152 0 0 0 49.183712
16.089243 0.40877563 4.0787077 110 0 0 0 49.183712
10.717804 0.54247195 4.055583 25 0 0 0 48.800591
39.34547 0.976219 4.1027489 37 0 0 0 49.183712
11.605745 1.4509273 4.4145498 23 0 0 0 47.62294
12.662408 1.2667029 4.4881063 104 0 0 0 48.015961
14.069878 1.0550364 4.2770228 76 0 0 0 48.41394
16.236176 1.2131819 4.1239676 94 0 0 0 48.41394
12.285081 1.5305941 4.0630364 50 0 0 0 47.62294
33.248821 1.65005 4.2930436 39 0 0 0 48.800591
10.997639 2.4921963 4.2554932 123 0 0 0 46.059914
11.431472 2.2957327 4.1133871 128 0 0 0 46.448181
12.43286 2.1745903 4.1402717 78 0 0 0 46.849979
32.158508 2.3892295 4.1580877 10 0 0 0 48.41394
11.139773 2.7169521 4.1387386 119.33334 0 0 0 45.805981
10.244141 3.2711115 4.0587463 62 0 0 0 44.700287
11.053163 3.3786728 4.0757327 62 0 0 0 44.89341
10.03215 3.898066 4.0606265 108 0 0 0 43.730278
10.674693 3.8471725 4.0010171 71 0 0 0 44.117279
11.728829 3.89763 4.0517349 114 0 0 0 44.507168
10.045822 4.190609 4.1056767 137 0 0 0 43.339661
11.312233 4.3931379 4.2755961 72 0 0 0 43.730278
10.848619 4.5239301 4.1420674 131 0 0 0 43.339661
11.301982 5.0418854 4.3583407 95 0 0 0 42.946178
12.130238 5.4072719 4.0197301 95 0 0 0 42.946178
11.734794 6.3038425 4.359808 70 0 0 0 41.769112
12.008282 6.0773931 4.0719299 101 0 0 0 42.157318
11.685573 6.8442521 4.4312801 83 0 0 0 41.185413
11.357022 7.2273521 4.4041286 61 0 0 0 40.599621
11.754672 7.281045 4.1809654 113 0 0 0 40.792347
13.063123 7.0176034 4.4818192 38 0 0 0 41.769112
10.696103 7.9745107 4.1993561 42.5 0 0 0 39.433689
11.268888 7.7026401 4.3510165 95 0 0 0 40.081516
12.484736 7.518013 4.0459604 81 0 0 0 40.985073
17.584648 7.8257284 4.3831949 9 0 0 0 42.946178
-10.588978 8.213829 4.2829866 88.5 0 0 0 10.13688
-9.1943893 8.0699978 4.3586721 74 0 0 0 11.119055
-8.6951017 8.0821962 4.226213 123.33334 0 0 0 11.575821
-8.2607632 8.1964569 4.2855635 109 0 0 0 12.09249
-7.8933787 8.3589773 4.2803249 9.666667 0 0 0 12.61069
10.646679 8.3506565 4.4251132 41 0 0 0 39.03994
11.893807 8.4189463 4.4027019 14 0 0 0 39.818687
-7.284555 8.6534109 4.1173215 9.666667 0 0 0 13.523767
-6.8453836 8.9159718 4.2733784 32.5 0 0 0 14.234295
10.802181 8.9124622 4.231791 15 0 0 0 38.648567
-17.838818 9.4993973 4.2312946 6 0 0 0 7.4160299
-6.548975 9.211401 4.1566591 11 0 0 0 14.8312
-6.3504658 9.4127083 4.1747961 7 0 0 0 15.21456
-6.166327 9.6419964 4.2066922 6.5 0 0 0 15.60206
-5.96664 9.8555822 4.3746352 9 0 0 0 15.99386
9.3407269 9.8648491 4.441433 16 0 0 0 36.688259
10.112748 9.6816397 4.2298565 14 0 0 0 37.482159
-5.727622 10.3002 4.3293443 56.25 0 0 0 16.58065
11.380973 10.364039 4.2684765 29 0 0 0 37.8643
-5.461771 10.732885 4.2743011 121 0 0 0 17.158739
-5.3551674 11.198493 4.4040408 3 0 0 0 17.547489
-5.0685673 12.101243 4.1684055 7 0 0 0 18.336121
11.952159 12.006501 4.2728829 31 0 0 0 37.084999
-17.157881 12.678474 4.4544463 48 0 0 0 9.75103
-4.9325113 12.648728 4.4787574 6 0 0 0 18.72604
-19.042313 13.364814 4.2867017 48 0 0 0 9.3688602
-4.5847411 13.709307 4.2303286 29.5 0 0 0 19.50518
-21.329092 14.205423 4.0891891 39 0 0 0 8.9700403
-4.1790295 14.905772 4.3348727 3 0 0 0 20.284889
13.970815 14.728326 4.1174021 15 0 0 0 36.688259
13.104916 15.251686 4.078886 42 0 0 0 35.909241
-26.316832 15.729219 4.1362758 19 0 0 0 8.1949997
12.024701 16.281946 4.1059728 60 0 0 0 34.731647
-3.8182371 16.761526 4.3808789 53 0 0 0 21.068239
11.947139 17.035561 4.2201352 14 0 0 0 34.34251
36.18671 17.142963 4.1436329 21 0 0 0 42.555912
36.269417 18.285746 4.201436 16 0 0 0 42.157318
10.660476 18.906626 4.4040561 10 0 0 0 32.783241
11.266751 19.979174 4.0879159 20 0 0 0 32.783241
11.081182 20.827183 4.2047749 29 0 0 0 32.395721
-2.8843241 22.951298 4.173594 29 0 0 0 22.622681
12.885466 22.839169 4.0196896 22 0 0 0 32.783241
15.124067 28.397442 4.1296344 17 0 0 0 32.395721
-2.329905 30.817234 4.0303288 32 0 0 0 23.411039
-1.6576852 32.598572 4.2511215 30 0 0 0 23.79707
17.080444 47.882828 4.0409155 7 0 0 0 30.04044
18.355722 47.720795 4.0600767 14 0 0 0 30.431509
5.0722871 52.041927 4.2021899 16 0 0 0 26.137739
31.585629 -28.636137 4.5139289 34 0 0 0 61.292912
7.0975218 -16.018736 4.9067478 18 0 0 0 67.944069
0.35939321 -14.678288 4.8401866 139 0 0 0 74.190018
0.7070322 -14.419852 4.7597761 158 0 0 0 73.801682
1.0511376 -14.273675 4.7190957 219 0 0 0 73.417549
6.9246612 -13.760204 4.6966443 63 0 0 0 67.155777
7.0071621 -13.116102 4.7187133 26 0 0 0 66.768326
6.805212 -12.012729 4.8927145 47 0 0 0 66.378723
7.2502818 -12.095547 4.9966493 18 0 0 0 65.98999
7.2932348 -11.846886 4.588851 34.5 0 0 0 65.791504
8.3296337 -11.83496 4.7714958 13 0 0 0 64.817566
9.2106094 -11.808686 4.9358068 54 0 0 0 64.031479
13.418164 -11.576503 4.5149217 9 0 0 0 60.899559
7.3241825 -11.258872 4.7607718 19 0 0 0 65.397903
16.029337 -11.288336 4.5060353 43 0 0 0 59.341122
6.389462 -10.662508 4.712863 20 0 0 0 65.98999
6.6278801 -10.468868 4.6977658 19 0 0 0 65.593018
7.253994 -10.301411 4.7760124 62 0 0 0 64.817566
37.070065 -10.249316 4.9821792 44 0 0 0 53.868088
9.2823582 -9.7484665 4.768672 24 0 0 0 62.458649
12.845949 -9.0444384 4.7809458 9 0 0 0 59.341122
13.804014 -9.2235403 4.6409435 13 0 0 0 58.948078
10.1803 -8.7791729 4.7606726 15 0 0 0 60.899559
13.295291 -8.6444893 4.8249292 27.5 0 0 0 58.752815
13.73771 -8.6991634 4.5454712 52 0 0 0 58.557552
14.420755 -8.642312 4.697648 33 0 0 0 58.157951
15.310369 -8.6708364 4.9138584 14 0 0 0 57.770481
8.8265753 -8.4034634 4.618804 14 0 0 0 61.686127
9.1841249 -8.3231392 4.6963911 91 0 0 0 61.292912
37.638458 -8.4413128 4.9921837 56 0 0 0 53.090168
37.807919 -7.5091252 4.9864726 46 0 0 0 52.694031
37.931854 -6.5698109 4.97786 23 0 0 0 52.303978
31.822763 -4.7093644 4.9602566 25 0 0 0 51.920311
38.349106 -4.7164745 4.9916096 24 0 0 0 51.52639
38.493675 -3.7771256 4.9946089 33 0 0 0 51.132912
38.495544 -2.8247349 4.9822645 61 0 0 0 50.746593
16.581287 -2.0346351 4.6526995 51 0 0 0 51.52639
15.594744 -1.7162468 4.7578788 70.5 0 0 0 51.329651
13.784556 -1.3425744 4.886714 72 0 0 0 51.132912
15.39572 -1.121644 4.6803842 87 0 0 0 50.746593
14.098006 -0.68121994 4.6315942 23 0 0 0 50.35807
14.04283 -0.32739928 4.9533486 64 0 0 0 49.970181
14.227361 0.18863642 4.667191 40.5 0 0 0 49.378082
16.308893 0.41805515 4.9407363 75 0 0 0 49.183712
12.826982 0.96540511 4.8521814 52 0 0 0 48.41394
17.558056 0.87867123 4.887536 44 0 0 0 48.800591
12.823547 1.2830577 4.8606091 84 0 0 0 48.015961
11.852901 2.3802464 4.5598369 67 0 0 0 46.448181
12.088716 2.1194534 4.6290379 45 0 0 0 46.849979
31.813602 2.3644381 4.9035773 17 0 0 0 48.41394
47.60651 4.7034969 4.9715052 11 0 0 0 48.015961
11.208708 6.7574787 4.6043792 161 0 0 0 40.985073
11.522343 6.5653067 4.665298 125 0 0 0 41.385754
11.132638 7.4810824 4.7167244 10 0 0 0 40.212929
12.986869 7.3936095 4.5158491 102 0 0 0 41.385754
10.262847 7.7887626 4.7411418 53.333332 0 0 0 39.302441
10.806743 7.6546965 4.9816217 42 0 0 0 39.818687
11.82088 7.5269632 4.9266844 61 0 0 0 40.599621
-10.603552 8.2229519 4.7824049 88 0 0 0 10.13688
-9.8414307 8.0220194 4.5245299 61 0 0 0 10.53491
-9.0526896 8.146759 4.6358576 13 0 0 0 11.31488
10.201458 8.2122545 4.7655678 54.5 0 0 0 38.844254
9.2912807 8.90065 4.8393641 25 0 0 0 37.482159
9.6967831 8.6244602 4.8813648 22 0 0 0 38.062675
10.313979 8.513773 4.7018023 36 0 0 0 38.648567
9.395381 9.4530487 4.6848049 45 0 0 0 37.084999
9.5234184 9.1223516 4.6361032 24 0 0 0 37.482159
9.128664 9.6475725 4.9938536 24 0 0 0 36.688259
10.775317 10.308724 4.8717432 19 0 0 0 37.482159
-5.4710789 10.754236 4.577455 154 0 0 0 17.158739
10.687469 10.741596 4.7609758 21.5 0 0 0 37.084999
-5.3802438 11.25469 4.7307577 12 0 0 0 17.547489
-5.1930151 11.584127 4.5023589 156 0 0 0 17.94529
-5.048481 12.051035 4.792346 57.5 0 0 0 18.336121
-17.055676 12.600218 4.9458189 33 0 0 0 9.75103
-18.992554 13.332069 4.8457894 33 0 0 0 9.3688602
-4.7226229 13.051264 4.5768127 94 0 0 0 19.11055
-4.5657191 13.663059 4.7480583 31 0 0 0 19.50518
-21.210308 14.128492 4.6965833 46 0 0 0 8.9700403
-4.384171 14.268972 4.5489249 75 0 0 0 19.898979
12.919592 14.31436 4.8579855 18 0 0 0 36.295261
13.528545 14.266892 4.9526949 34 0 0 0 36.688259
14.189113 14.245179 4.5704527 37 0 0 0 37.084999
12.877341 14.990911 4.9779725 27 0 0 0 35.909241
-23.950048 15.1223 4.5202813 48 0 0 0 8.5826397
-4.2291493 15.083402 4.7709465 7 0 0 0 20.284889
-4.0142217 15.813143 4.5653882 50 0 0 0 20.67314
-3.7994752 16.686201 4.7857718 41 0 0 0 21.068239
12.130182 17.300144 4.8017907 22 0 0 0 34.34251
-3.5902269 17.780067 4.6190176 53 0 0 0 21.461941
11.647149 17.511414 4.7802649 17 0 0 0 33.95343
14.802312 22.230339 4.7505417 11 0 0 0 33.95343
-2.8680735 22.838835 4.7190557 18 0 0 0 22.622681
14.402348 22.824841 4.8013349 6 0 0 0 33.55658
13.432364 28.510906 4.8293715 15 0 0 0 31.605169
-2.9321294 29.221273 4.5611348 36 0 0 0 23.014481
-2.3223488 30.758026 4.7854724 34 0 0 0 23.411039
16.136385 32.166153 4.617013 27 0 0 0 31.999531
15.351747 32.573963 4.6221828 14 0 0 0 31.605169
-0.90902227 34.763016 4.5231366 25 0 0 0 24.190689
-0.055139098 37.073807 4.8160424 21 0 0 0 24.58041
22.300861 80.736099 4.5712347 17 0 0 0 28.87237
20.331501 81.335548 4.5827713 9 0 0 0 28.489611
31.818653 -27.443571 5.4809394 30 0 0 0 60.899559
32.468029 -24.076355 5.2682271 28 0 0 0 59.734341
32.85675 -23.136513 5.2357717 13 0 0 0 59.341122
34.081814 -22.768122 5.3374734 14 0 0 0 58.948078
26.828842 -19.896254 5.186316 12 0 0 0 59.734341
34.829353 -19.725246 5.2069502 38 0 0 0 57.770481
35.131359 -18.772434 5.179626 35 0 0 0 57.38763
35.252621 -17.73876 5.1298466 37 0 0 0 56.985458
6.7332082 -17.460094 5.2387528 25 0 0 0 68.718338
35.491596 -16.780006 5.1010876 17 0 0 0 56.597961
35.798283 -15.861612 5.0854936 41 0 0 0 56.210598
36.039181 -14.920846 5.0639887 35 0 0 0 55.817448
6.7453218 -13.821036 5.2586613 57.75 0 0 0 67.352875
36.251873 -13.976414 5.0419855 24 0 0 0 55.434582
7.0451188 -13.177528 5.2927666 35 0 0 0 66.768326
36.343811 -12.996174 5.0067973 20 0 0 0 55.041031
37.470203 -12.369754 5.1153708 45 0 0 0 54.651539
9.3190765 -11.938136 5.362442 45 0 0 0 64.031479
14.434971 -11.846148 5.2187371 22 0 0 0 60.512688
7.3581223 -11.012509 5.0190792 18 0 0 0 65.202789
8.525753 -11.493514 5.4198799 32 0 0 0 64.429634
9.4203091 -11.475864 5.2573676 11 0 0 0 63.637688
13.014567 -10.153747 5.0228395 48 0 0 0 60.121792
14.647291 -10.314933 5.0058637 43 0 0 0 59.341122
9.3771458 -9.847147 5.1500535 150 0 0 0 62.458649
12.77355 -9.9689026 5.3320951 64 0 0 0 60.121792
13.992358 -8.858674 5.4461012 76 0 0 0 58.557552
14.706861 -8.809247 5.2112398 50 0 0 0 58.157951
15.447769 -8.7442017 5.3937297 16 0 0 0 57.770481
13.966409 -8.3690825 5.3542399 21 0 0 0 58.157951
21.73061 -3.2108834 5.021399 14 0 0 0 51.920311
16.280659 -2.4042695 5.3972178 15 0 0 0 51.920311
14.156998 -1.73067 5.3814478 54 0 0 0 51.52639
13.880002 -1.1798528 5.2562828 20.5 0 0 0 50.939751
14.162519 -1.0285245 5.0084262 75 0 0 0 50.746593
15.319258 -1.3074503 5.0432072 84.5 0 0 0 50.939751
13.844331 -0.66329223 5.2286296 48 0 0 0 50.35807
39.043701 -0.94190502 5.0363884 33 0 0 0 49.970181
15.376702 -0.36436683 5.0427389 23 0 0 0 49.970181
14.226213 0.018648542 5.3640804 68 0 0 0 49.572449
33.285862 0.83383375 5.1198168 18 0 0 0 49.183712
39.354031 0.98436278 5.0719771 23 0 0 0 49.183712
16.585985 1.240463 5.4461365 51 0 0 0 48.41394
33.122974 1.6446757 5.0978546 22 0 0 0 48.800591
17.242941 2.1485033 5.2561369 41 0 0 0 47.62294
33.245148 3.2935693 5.1316533 15 0 0 0 48.015961
12.809994 6.4843488 5.4002843 69 0 0 0 42.157318
11.627986 6.8156052 5.071219 96.5 0 0 0 41.185413
12.291824 6.6073322 5.2495313 99 0 0 0 41.769112
12.600676 6.7727809 5.0298052 60 0 0 0 41.769112
39.083733 6.8053179 5.0990663 27 0 0 0 46.849979
11.086379 7.4499426 5.0245066 41 0 0 0 40.212929
11.613245 7.3951206 5.1782246 107 0 0 0 40.599621
-10.601137 8.2225075 5.1095171 75 0 0 0 10.13688
12.682655 8.9779024 5.457396 23 0 0 0 39.818687
10.877438 9.9129038 5.1692858 50 0 0 0 37.8643
11.131753 9.6544962 5.1759505 36 0 0 0 38.261047
12.417677 10.23534 5.2548442 16 0 0 0 38.648567
11.572691 10.536818 5.1112928 31 0 0 0 37.8643
9.1525545 11.221206 5.0860629 29 0 0 0 35.513821
10.237881 11.639678 5.2525687 35 0 0 0 36.102249
-17.062683 12.607618 5.4682722 50 0 0 0 9.75103
-19.008072 13.340367 5.4170303 36 0 0 0 9.3688602
-4.7376056 13.087699 5.2708359 72 0 0 0 19.11055
10.323629 13.292938 5.4929919 16 0 0 0 35.117474
10.865018 13.306505 5.1809902 18 0 0 0 35.513821
-4.5812135 13.701433 5.2919321 49 0 0 0 19.50518
13.782406 13.836641 5.4048691 23 0 0 0 37.084999
-21.247112 14.155544 5.3322945 43 0 0 0 8.9700403
-4.3940539 14.303732 5.2957754 64 0 0 0 19.898979
13.225162 14.295256 5.3900118 28.5 0 0 0 36.49176
15.892577 14.455641 5.4085827 10 0 0 0 37.8643
-4.1771035 14.897264 5.4733276 18 0 0 0 20.284889
-23.972773 15.139318 5.2257371 43 0 0 0 8.5826397
-3.9963186 15.755869 5.3494606 14 0 0 0 20.67314
-3.8331764 16.831394 5.2512369 47 0 0 0 21.068239
13.111447 16.869221 5.3789392 16 0 0 0 35.117474
36.351933 17.228947 5.1521249 10 0 0 0 42.555912
11.44804 18.160667 5.4064393 19 0 0 0 33.55658
10.016191 20.003157 5.0876222 10 0 0 0 31.999531
-3.1662354 20.997948 5.398241 22 0 0 0 22.23805
14.88463 22.35117 5.4368019 11 0 0 0 33.95343
14.264416 22.604465 5.412796 23 0 0 0 33.55658
-2.8914652 23.015852 5.3227081 27 0 0 0 22.622681
-58.302204 25.809883 5.4915986 5 0 0 0 6.2437201
-2.9152937 29.08106 5.2623043 19 0 0 0 23.014481
16.038279 30.10363 5.2198777 13 0 0 0 32.395721
-1.6596886 32.708076 5.0752802 21 0 0 0 23.79707
-0.90169615 34.606441 5.3591361 14 0 0 0 24.190689
18.672287 48.531162 5.3914857 9 0 0 0 30.431509
30.948584 -30.945118 5.712872 33 0 0 0 62.070419
31.228657 -29.728773 5.6269197 30 0 0 0 61.686127
31.52088 -28.565504 5.5502076 32 0 0 0 61.292912
11.263525 -19.326691 5.6988726 24.5 0 0 0 66.184357
5.1008983 -18.421745 5.8206253 16 0 0 0 70.289261
5.3371692 -17.587437 5.5979257 23 0 0 0 69.892593
6.2936673 -17.583775 5.6877451 5 0 0 0 69.114716
5.2056537 -17.16489 5.9076252 7 0 0 0 69.892593
5.6492033 -17.099998 5.7072649 32.5 0 0 0 69.509163
6.6014886 -17.109425 5.5855341 35 0 0 0 68.718338
7.2055807 -17.390892 5.7325201 16 0 0 0 68.328354
6.5110064 -16.8832 5.9594221 16 0 0 0 68.718338
7.4037471 -16.69939 5.563601 37 0 0 0 67.944069
7.9972129 -16.904896 5.694869 20 0 0 0 67.54998
6.2841401 -14.170608 5.8696208 38 0 0 0 67.944069
6.7435713 -13.809566 5.8197293 46.5 0 0 0 67.352875
36.096104 -13.914832 5.9779735 45 0 0 0 55.434582
7.1209083 -13.318151 5.7190533 29 0 0 0 66.768326
36.315899 -12.984654 5.957562 26 0 0 0 55.041031
12.872806 -11.104465 5.594049 67 0 0 0 60.899559
-21.182943 -10.032139 5.96808 81 0 0 0 92.563484
12.759345 -10.463564 5.8348475 18 0 0 0 60.512688
12.446563 -9.7057848 5.9689207 47 0 0 0 60.121792
12.62951 -9.8488922 5.6636648 44 0 0 0 60.121792
12.759209 -9.4551411 5.8094254 42 0 0 0 59.734341
13.294217 -9.3545446 5.7465525 21 0 0 0 59.341122
13.925285 -8.8087645 5.8230162 36 0 0 0 58.557552
37.827572 -7.5116434 5.9436154 46 0 0 0 52.694031
38.022396 -4.6750474 5.8976035 20 0 0 0 51.52639
38.267284 -3.7536855 5.9171767 45 0 0 0 51.132912
14.466439 -2.8632483 5.5653334 14 0 0 0 52.694031
15.439468 -2.6629298 5.9092612 31 0 0 0 52.303978
38.463181 -2.8211579 5.9326911 51 0 0 0 50.746593
16.833975 -2.0644784 5.5599666 48 0 0 0 51.52639
15.506145 -1.8958477 5.5075068 73 0 0 0 51.52639
38.66692 -1.8827538 5.9528933 30 0 0 0 50.35807
-28.649403 -0.70887578 5.8779173 21 0 0 0 99.19487
38.830887 -0.93563497 5.9705391 53 0 0 0 49.970181
14.999608 -0.34930995 5.6557488 51 0 0 0 49.970181
33.08889 1.6438444 5.9128518 24 0 0 0 48.800591
32.245117 2.3972526 5.7700944 15 0 0 0 48.41394
10.462058 10.520014 5.5739384 17 0 0 0 37.084999
9.7202654 11.912433 5.7742658 28 0 0 0 35.513821
-18.972553 13.317651 5.9756899 43 0 0 0 9.3688602
9.6390123 13.07249 5.7000928 16 0 0 0 34.731647
-21.26837 14.166843 5.9620862 28 0 0 0 8.9700403
-4.3891459 14.293039 5.6574488 26 0 0 0 19.898979
-23.958319 15.132774 5.9193563 54 0 0 0 8.5826397
-4.2096896 15.021565 5.9003 60 0 0 0 20.284889
-3.8312936 16.845243 5.6820312 42 0 0 0 21.068239
11.489768 17.272181 5.7397809 11 0 0 0 33.95343
-3.5980916 17.836483 5.7557621 15 0 0 0 21.461941
10.970922 18.388033 5.9249921 7 0 0 0 33.165718
11.287637 18.918663 5.5480361 27 0 0 0 33.165718
-3.4002697 19.297728 5.9531717 15 0 0 0 21.840759
10.80556 19.165407 5.5419149 14 0 0 0 32.783241
-3.1489167 20.896118 5.8965659 22 0 0 0 22.23805
13.482158 22.582426 5.9712582 27 0 0 0 33.165718
-2.8939004 23.055525 5.9017715 19 0 0 0 22.622681
-2.3581228 31.289024 5.6437364 6 0 0 0 23.411039
-0.051253997 37.812698 5.8467193 12 0 0 0 24.58041
32.036953 -26.286753 6.4299521 13 0 0 0 60.512688
32.448101 -22.847195 6.1532717 17 0 0 0 59.341122
34.30267 -22.913729 6.3927674 13 0 0 0 58.948078
26.812386 -22.001463 6.2460341 10 0 0 0 60.512688
13.008986 -20.541073 6.1902256 29 0 0 0 65.593018
26.87158 -19.926416 6.0226479 12 0 0 0 59.734341
34.811291 -19.713297 6.194397 20 0 0 0 57.770481
10.594616 -18.702461 6.0112071 38 0 0 0 66.378723
11.293159 -18.84116 6.1420074 53 0 0 0 65.98999
35.036045 -18.719845 6.1488304 36 0 0 0 57.38763
35.228748 -17.725079 6.1024599 55 0 0 0 56.985458
5.7641778 -17.43017 6.4958568 10 0 0 0 69.509163
7.6111307 -17.173132 6.1849093 8 0 0 0 67.944069
6.7116919 -16.768948 6.3919296 11 0 0 0 68.523346
7.0160241 -16.941748 6.0385695 27 0 0 0 68.328354
35.492207 -16.778648 6.0728331 16 0 0 0 56.597961
35.663662 -15.800389 6.0319538 55 0 0 0 56.210598
35.892658 -14.858633 6.0050321 46 0 0 0 55.817448
37.458057 -12.364184 6.0900455 47 0 0 0 54.651539
14.282487 -11.719535 6.0754585 6 0 0 0 60.512688
12.968026 -11.177018 6.4726057 34 0 0 0 60.899559
14.947101 -11.082747 6.1171336 36 0 0 0 59.734341
15.169333 -10.124137 6.4418473 20 0 0 0 58.948078
15.634738 -9.3588028 6.4345751 29 0 0 0 58.157951
14.151263 -8.9507284 6.3271337 7 0 0 0 58.557552
14.626966 -8.7557926 6.4401259 28 0 0 0 58.157951
17.747355 -0.85073185 6.2555828 21 0 0 0 50.35807
17.480469 1.313705 6.1676302 22 0 0 0 48.41394
39.085461 6.8063998 6.0812283 16 0 0 0 46.849979
16.212185 7.7063003 6.3021379 24 0 0 0 42.555912
39.433437 8.8816547 6.1913419 24 0 0 0 46.059914
39.823654 11.049574 6.3258066 22 0 0 0 45.286259
10.561483 12.309584 6.089334 20 0 0 0 35.909241
-17.09252 12.631991 6.0054951 48 0 0 0 9.75103
10.780405 13.886975 6.1665525 9 0 0 0 35.117474
13.84248 14.599953 6.0612292 18 0 0 0 36.688259
13.670408 15.146207 6.1462364 18 0 0 0 36.295261
16.400358 15.667401 6.2710252 15 0 0 0 37.482159
-3.8025427 16.701866 6.2635317 32 0 0 0 21.068239
11.63077 16.592144 6.1046963 25 0 0 0 34.34251
21.560301 16.874743 6.2112751 25 0 0 0 39.03994
-30.615137 17.306704 6.4841652 14 0 0 0 7.8028297
10.76732 19.095369 6.0661612 9 0 0 0 32.783241
-2.9459164 29.424578 6.0511451 32 0 0 0 23.014481
15.954098 31.794168 6.3244638 13 0 0 0 31.999531
0.94685435 40.627693 6.2769933 21 0 0 0 24.966801
7.0329132 57.40543 6.0431252 14 0 0 0 26.535839
30.950729 -30.945219 6.7963843 24 0 0 0 62.070419
31.495459 -28.54052 6.5976243 38 0 0 0 61.292912
31.803001 -27.428156 6.5176029 30 0 0 0 60.899559
13.024464 -20.564251 6.8020911 7 0 0 0 65.593018
11.324903 -19.980112 6.9853573 19 0 0 0 66.378723
5.3508649 -17.619104 6.5152636 19 0 0 0 69.892593
6.1966867 -17.301315 6.7271242 14 0 0 0 69.114716
5.5645118 -16.826942 6.7063661 10 0 0 0 69.509163
7.5404058 -16.996914 6.5786843 15 0 0 0 67.944069
35.985558 -14.895464 6.9846158 24 0 0 0 55.817448
36.194206 -13.951048 6.9543805 30 0 0 0 55.434582
36.44038 -13.02758 6.9358735 22 0 0 0 55.041031
13.446234 -11.025049 6.5727854 11 0 0 0 60.512688
-20.246666 -10.208837 6.895885 108 0 0 0 92.173294
14.59216 -10.265398 6.7407794 22 0 0 0 59.341122
-22.013943 -9.7714043 6.7298388 73 0 0 0 92.953514
-21.064156 -9.9758148 6.5137711 98 0 0 0 92.563484
14.351187 -9.5782261 6.5193424 25 0 0 0 58.948078
31.613861 -4.676301 6.5055571 16 0 0 0 51.920311
38.495506 -3.7748144 6.9097977 15 0 0 0 51.132912
38.642345 -2.8330839 6.9193358 45 0 0 0 50.746593
38.929382 -1.8943541 6.9579043 10 0 0 0 50.35807
-28.309721 -1.4015291 6.5081506 10 0 0 0 98.80896
39.052742 -0.93984377 6.9714842 8 0 0 0 49.970181
32.562275 1.6185726 6.6215878 21 0 0 0 48.800591
32.606571 2.4248819 6.6388922 16 0 0 0 48.41394
17.204386 8.7008448 6.764854 26 0 0 0 42.157318
-17.130173 12.657533 6.5415959 20 0 0 0 9.75103
-18.918898 13.282171 6.5328393 33 0 0 0 9.3688602
-21.197834 14.122133 6.5674868 27 0 0 0 8.9700403
40.662704 14.582104 6.6051459 9 0 0 0 44.117279
-23.976822 15.14125 6.6170998 37 0 0 0 8.5826397
40.816444 15.778564 6.6888618 13 0 0 0 43.730278
12.095118 17.24354 6.8648591 18 0 0 0 34.34251
13.448251 18.20783 6.8150635 23 0 0 0 34.731647
12.201099 19.352869 6.8893404 7 0 0 0 33.55658
14.08447 19.060736 6.551249 22 0 0 0 34.731647
13.208569 20.938339 6.8436627 8 0 0 0 33.55658
-2.9512815 29.457705 6.7821107 33 0 0 0 23.014481
16.133516 30.273159 6.9417901 19 0 0 0 32.395721
-1.6441858 32.527176 6.6538582 11 0 0 0 23.79707
-0.047439389 37.915703 6.800621 15 0 0 0 24.58041
22.293955 80.740486 6.6565957 8 0 0 0 28.87237
20.320457 81.322975 6.6687198 6 0 0 0 28.489611
32.392265 -22.806147 7.123394 21 0 0 0 59.341122
34.281647 -22.897873 7.4093766 16 0 0 0 58.948078
13.063709 -19.54023 7.1470966 12 0 0 0 65.202789
10.733821 -18.945543 7.1634846 26 0 0 0 66.378723
35.330509 -17.774569 7.0990338 7 0 0 0 56.985458
35.543331 -16.801146 7.0547562 13 0 0 0 56.597961
35.7775 -15.849162 7.0197845 18 0 0 0 56.210598
37.44379 -12.357921 7.063858 41 0 0 0 54.651539
-21.164696 -10.027848 7.1211867 93 0 0 0 92.563484
-20.215776 -10.18876 7.4448471 72 0 0 0 92.173294
-19.479721 -10.425114 7.2668805 63 0 0 0 91.790627
-22.075148 -9.8030815 7.3429837 82 0 0 0 92.953514
39.435692 0.98853278 7.0353508 23 0 0 0 49.183712
40.127289 12.203144 7.4555354 16 0 0 0 44.89341
-16.982824 12.554971 7.0085802 38 0 0 0 9.75103
-18.940077 13.29448 7.1083989 42 0 0 0 9.3688602
-21.140913 14.086539 7.1808915 34 0 0 0 8.9700403
12.796996 14.184075 7.1652308 18 0 0 0 36.295261
-23.962809 15.134977 7.3090467 26 0 0 0 8.5826397
17.538408 15.952034 7.1360106 25 0 0 0 37.8643
-27.076851 16.189528 7.3629208 11 0 0 0 8.1949997
-30.790556 17.409111 7.3914113 17 0 0 0 7.8028297
11.962985 18.967316 7.3078818 7 0 0 0 33.55658
11.654732 20.667089 7.1457043 5 0 0 0 32.783241
-2.9440923 29.415747 7.4977794 26 0 0 0 23.014481
-2.3672352 31.426401 7.2141905 17 0 0 0 23.411039
16.206257 32.290039 7.3112669 18 0 0 0 31.999531
-0.90518439 35.041412 7.1552448 18 0 0 0 24.190689
0.95140362 40.649517 7.2863626 19 0 0 0 24.966801
7.0449071 57.541718 7.4825759 22 0 0 0 26.535839
31.597063 -28.630558 7.674233 25 0 0 0 61.292912
32.064949 -27.651968 7.6190639 4 0 0 0 60.899559
36.178513 -13.94344 7.9053864 6 0 0 0 55.434582
36.418484 -13.018215 7.8833442 27 0 0 0 55.041031
-18.669554 -10.597633 7.5883741 76 0 0 0 91.405083
-17.918688 -10.761288 7.9014955 88 0 0 0 91.016281
-21.144087 -10.013483 7.6924782 75 0 0 0 92.563484
-19.48592 -10.437097 7.8124876 75 0 0 0 91.790627
-23.03112 -9.5578108 7.5792284 50 0 0 0 93.349823
-22.127693 -9.8216982 7.9587464 63 0 0 0 92.953514
37.796177 -7.502656 7.8407798 38 0 0 0 52.694031
38.635502 -3.7872927 7.8899684 12 0 0 0 51.132912
38.636711 -2.8314688 7.871532 42 0 0 0 50.746593
39.007904 -1.8970016 7.9327717 13 0 0 0 50.35807
18.441002 8.7627897 7.6623616 23 0 0 0 42.555912
-16.968571 12.537423 7.5182805 41 0 0 0 9.75103
-18.884697 13.262689 7.659462 28 0 0 0 9.3688602
-21.11326 14.065166 7.7946901 28 0 0 0 8.9700403
-23.845846 15.063498 7.9741945 21 0 0 0 8.5826397
17.711935 15.326505 7.6299314 18 0 0 0 38.261047
11.218349 17.801537 7.8897543 6 0 0 0 33.55658
11.608777 18.420277 7.6299033 10 0 0 0 33.55658
-42.473518 21.343842 7.5903645 10 0 0 0 7.0200601
-62.990467 27.89286 7.604569 7 0 0 0 6.2437201
16.110596 30.238689 7.7715936 20 0 0 0 32.395721
-2.3379645 31.071119 7.8974528 21 0 0 0 23.411039
-0.90411985 34.889629 7.9781604 18 0 0 0 24.190689
-0.043663219 37.937462 7.7374272 26 0 0 0 24.58041
32.861889 -23.13476 8.2149305 29 0 0 0 59.341122
34.842487 -19.727505 8.1762686 19 0 0 0 57.770481
35.31852 -17.766876 8.0694065 20 0 0 0 56.985458
35.541912 -16.798836 8.0217457 7 0 0 0 56.597961
37.426979 -12.350822 8.0304432 26 0 0 0 54.651539
-18.694826 -10.611897 8.1252851 75 0 0 0 91.405083
-21.164099 -10.031913 8.2752419 50 0 0 0 92.563484
-20.262369 -10.221018 8.0196476 78 0 0 0 92.173294
-19.439474 -10.412149 8.3342552 60 0 0 0 91.790627
-23.130867 -9.5943661 8.2308884 64 0 0 0 93.349823
39.446579 0.98986512 8.0081348 46 0 0 0 49.183712
20.368683 9.0704527 8.3648748 17 0 0 0 42.946178
-17.015848 12.574697 8.0578842 41 0 0 0 9.75103
-18.961433 13.309226 8.2569876 22 0 0 0 9.3688602
-21.009584 14.003584 8.3821993 27 0 0 0 8.9700403
-30.139355 17.035997 8.0820675 11 0 0 0 7.8028297
12.937266 18.449062 8.4449272 14 0 0 0 34.34251
11.242005 18.845865 8.2275286 5 0 0 0 33.165718
11.760003 19.712572 8.0426264 10 0 0 0 33.165718
-2.9227962 29.229935 8.1797943 31 0 0 0 23.014481
-1.6572195 32.81432 8.3222475 20 0 0 0 23.79707
3.4450266 47.30439 8.4842052 15 0 0 0 25.75152
31.954741 -35.246872 8.5662985 10 0 0 0 62.860039
30.99996 -30.990314 8.9706125 29 0 0 0 62.070419
31.298201 -29.788918 8.841362 24 0 0 0 61.686127
31.584749 -28.617451 8.7198782 30 0 0 0 61.292912
31.879684 -27.490393 8.610961 22 0 0 0 60.899559
-16.419458 -16.447094 8.7837048 25 0 0 0 87.102921
-16.67841 -15.906063 8.7108707 7 0 0 0 87.497665
35.897377 -15.8915 8.9694405 10 0 0 0 56.210598
35.969372 -14.878244 8.8914719 11 0 0 0 55.817448
36.139942 -13.919787 8.8443604 25 0 0 0 55.434582
36.565357 -13.061943 8.8648376 11 0 0 0 55.041031
-21.162981 -10.031298 8.8486509 24 0 0 0 92.563484
-20.300619 -10.240222 8.5918207 43 0 0 0 92.173294
-23.051373 -9.5707426 8.8158836 16 0 0 0 93.349823
-22.110611 -9.8232651 8.5470743 59 0 0 0 92.953514
-24.266085 -9.3738327 8.548727 35 0 0 0 93.748207
37.640377 -8.4292021 8.7950811 36 0 0 0 53.090168
37.79583 -7.4943657 8.7835131 48 0 0 0 52.694031
37.783009 -6.5319138 8.7385616 14 0 0 0 52.303978
38.238235 -4.6909866 8.7752771 29 0 0 0 51.52639
38.416679 -3.7578554 8.7900953 57 0 0 0 51.132912
38.592758 -2.8202832 8.8095865 32 0 0 0 50.746593
38.842358 -1.8809955 8.8509626 63 0 0 0 50.35807
-18.802042 13.199194 8.7507763 35 0 0 0 9.3688602
-23.869055 15.074981 8.6756849 31 0 0 0 8.5826397
40.686771 15.72912 8.8203974 19 0 0 0 43.730278
-42.444721 21.333059 8.7613068 6 0 0 0 7.0200601
-2.9348493 29.331688 8.9327288 18 0 0 0 23.014481
-2.317152 30.830963 8.6041498 33 0 0 0 23.411039
-0.90012783 34.869465 8.8294621 21 0 0 0 24.190689
13.428031 67.765961 8.8906145 8 0 0 0 27.71159
22.273054 80.640182 8.6802969 7 0 0 0 28.87237
20.315903 81.276863 8.6997404 14 0 0 0 28.489611
30.664051 -32.197582 9.1006546 23 0 0 0 62.458649
35.498913 -20.088974 9.3270903 6 0 0 0 57.770481
-17.313826 -19.13471 9.1178026 6 0 0 0 86.321831
35.720669 -19.072195 9.2575521 12 0 0 0 57.38763
36.029076 -18.114485 9.2172709 16 0 0 0 56.985458
-17.017557 -17.903961 9.3341265 20 0 0 0 86.709923
36.202751 -17.101566 9.1494846 10 0 0 0 56.597961
37.45385 -12.350893 9.0009747 24 0 0 0 54.651539
-23.11257 -9.5960503 9.4524012 30 0 0 0 93.349823
-22.108217 -9.822113 9.1389189 40 0 0 0 92.953514
-24.181818 -9.3508968 9.1560211 38 0 0 0 93.748207
-21.105459 14.05951 9.0407429 13 0 0 0 8.9700403
-23.728535 14.994346 9.3204422 10 0 0 0 8.5826397
-30.648167 17.327295 9.0831633 29 0 0 0 7.8028297
-1.643015 32.591339 9.0760136 13 0 0 0 23.79707
31.890463 -35.173786 9.7172384 15 0 0 0 62.860039
31.278702 -29.757992 9.891037 24 0 0 0 61.686127
31.818565 -27.426142 9.6213446 17 0 0 0 60.899559
-17.270702 -20.054918 9.999342 22 0 0 0 85.920753
