# .PCD v0.7 - Point Cloud Data file format
VERSION 0.7
FIELDS x y z intensity normal_x normal_y normal_z curvature
SIZE 4 4 4 4 4 4 4 4
TYPE F F F F F F F F
COUNT 1 1 1 1 1 1 1 1
WIDTH 959
HEIGHT 1
VIEWPOINT 0 0 0 1 0 0 0
POINTS 959
DATA ascii
8.1317711 -8.5946007 3.3486722 204 0 0 0 62.512821
4.822823 -7.6591964 3.4584382 172 0 0 0 65.655563
5.3049593 -7.983511 3.4259984 128 0 0 0 65.258965
7.6016583 -7.6513186 3.0558355 164 0 0 0 62.123886
4.4701018 -7.1007113 3.0027173 232 0 0 0 65.655563
4.8622713 -7.1272211 3.2991519 126.5 0 0 0 65.060425
5.3618622 -7.2738624 3.1213529 82.5 0 0 0 64.470078
5.7454367 -7.4038529 3.3514485 94 0 0 0 64.084099
6.8631988 -7.1364303 3.1338322 93 0 0 0 62.383179
7.3332782 -7.0261941 3.1297796 271 0 0 0 61.72345
8.110301 -7.0411477 3.3081257 250 0 0 0 60.94775
9.4091597 -7.3946533 3.0897205 93 0 0 0 60.16143
9.6608868 -7.2165895 3.113106 152 0 0 0 59.767841
4.8122606 -6.5273843 3.1032865 103 0 0 0 64.470078
5.3276863 -6.6971207 3.1693978 171.5 0 0 0 63.886913
5.7110729 -6.8248386 3.4032197 183 0 0 0 63.491634
6.2005701 -6.8003769 3.3462181 229.5 0 0 0 62.805637
6.7238221 -6.763761 3.4121068 200.66667 0 0 0 62.120052
7.603971 -6.9361258 3.1714563 59 0 0 0 61.333302
8.3877468 -6.928793 3.3506291 215 0 0 0 60.559078
8.5643711 -6.7285128 3.354351 139 0 0 0 60.16143
9.5718803 -6.7914467 3.0308897 231 0 0 0 59.377247
6.3923345 -6.435832 3.023659 174 0 0 0 62.123886
6.588172 -6.31564 3.0421448 239 0 0 0 61.72345
8.8407726 -6.2702942 3.3383977 151 0 0 0 59.377247
9.3130016 -6.2674336 3.4562747 65 0 0 0 58.994019
10.178064 -6.4951677 3.4173105 81 0 0 0 58.591633
8.470933 -5.7034469 3.400589 204 0 0 0 58.994019
8.909853 -5.684535 3.2561994 89 0 0 0 58.591633
9.7792473 -5.7460384 3.3515785 75.5 0 0 0 58.009609
8.6467247 -5.3711996 3.3900204 218 0 0 0 58.396446
9.0231771 -5.4502974 3.2478499 171 0 0 0 58.20126
8.3799124 -4.7876086 3.2157791 166 0 0 0 57.817959
8.7159204 -4.6981916 3.0527697 269 0 0 0 57.424088
9.1852598 -4.9521766 3.473949 121 0 0 0 57.424088
10.352827 -4.6320024 3.4909122 34 0 0 0 56.250248
11.099419 -4.9684553 3.4406509 56 0 0 0 56.250248
8.3558407 -4.2413597 3.295579 308 0 0 0 57.030308
8.6999111 -4.2875819 3.1092048 252.5 0 0 0 56.834274
8.6731024 -3.1379948 3.1857681 170 0 0 0 55.079327
9.0719213 -3.0346212 3.1864259 63 0 0 0 54.69088
16.236738 -3.3006318 3.0338006 62 0 0 0 52.729671
19.464334 -3.4631493 3.1215613 61 0 0 0 52.339878
-12.187032 -2.7874045 3.2030694 335 0 0 0 96.189362
8.7261877 -2.9152622 3.2921381 15 0 0 0 54.69088
9.219162 -2.7073846 3.1968489 119.25 0 0 0 54.096748
16.382341 -2.5016868 3.0324445 51 0 0 0 51.945953
-12.314166 -2.3440876 3.2128806 599.5 0 0 0 96.771805
13.603707 -2.0734878 3.2008057 142 0 0 0 51.945953
16.579077 -2.117372 3.0569682 71 0 0 0 51.559059
21.79537 -2.2434819 3.4513202 36 0 0 0 51.163422
-12.502695 -1.595024 3.2319906 369 0 0 0 97.76255
-12.419275 -1.89455 3.2207839 634 0 0 0 97.366722
17.539114 -1.8043487 3.2216492 90 0 0 0 51.163422
23.651995 -1.2700131 3.138005 36 0 0 0 50.384621
23.859219 -0.69566399 3.1603327 48 0 0 0 49.987
24.082174 -0.11199004 3.1864915 45 0 0 0 49.60458
18.565195 0.37176687 3.3844347 34 0 0 0 49.209846
19.127144 0.85078686 3.0125513 24 0 0 0 48.815128
19.6703 1.3584733 3.0997913 47 0 0 0 48.424759
29.096842 1.9981786 3.126822 21 0 0 0 48.424759
-13.676045 2.9727037 3.200387 524 0 0 0 2.7304299
-13.773557 3.3465276 3.2402122 514 0 0 0 3.1213999
-13.886244 3.7337246 3.2860093 503 0 0 0 3.51683
-13.981537 4.1265059 3.3302226 411 0 0 0 3.9016299
-14.134432 4.7407851 3.2231123 382 0 0 0 4.4873152
2.4370885 11.87493 3.2086411 66 0 0 0 27.699591
2.8081949 11.730392 3.1440144 185.33333 0 0 0 28.224787
3.2112515 11.71182 3.2666693 84 0 0 0 28.745667
3.783963 11.707528 3.2592702 38.5 0 0 0 29.4527
4.2583146 11.691313 3.2964926 24 0 0 0 30.04517
4.8023148 11.810781 3.2201216 23 0 0 0 30.630915
5.3446021 11.876014 3.2895405 24 0 0 0 31.212231
5.7089758 11.896826 3.1720042 20.5 0 0 0 31.606331
6.2212791 11.824751 3.0489168 182 0 0 0 32.192951
1.7470424 12.28264 3.280551 15.75 0 0 0 26.727314
2.1590176 12.001852 3.2257881 20 0 0 0 27.311119
6.1317225 12.013478 3.4075599 23 0 0 0 32.001122
6.7657671 12.127117 3.3368673 15.5 0 0 0 32.580292
7.3761821 12.151607 3.2437344 12 0 0 0 33.169842
7.9462628 12.39381 3.3592875 11 0 0 0 33.566639
8.3972158 12.413157 3.236536 11 0 0 0 33.94788
8.8308849 12.388754 3.2867985 80.5 0 0 0 34.346607
1.1826988 12.75176 3.2252781 10.5 0 0 0 25.948021
9.4924946 12.644651 3.2217553 6 0 0 0 34.732449
10.112504 12.803236 3.3247774 5 0 0 0 35.124981
10.694898 12.877863 3.411907 9 0 0 0 35.52314
0.73866969 13.161703 3.3178766 12 0 0 0 25.36268
10.939487 13.169561 3.0674539 6 0 0 0 35.52314
11.405489 13.065212 3.1084855 22 0 0 0 35.911301
12.235601 13.340004 3.2444887 10 0 0 0 36.30706
0.43212235 13.603631 3.0907047 6 0 0 0 24.969971
13.238275 13.739552 3.4195652 5 0 0 0 36.699139
15.375669 14.462085 3.2606802 17 0 0 0 37.488808
23.589867 18.164196 3.1258705 11 0 0 0 39.049622
24.872625 18.198872 3.237437 67 0 0 0 39.441967
26.631624 18.501053 3.4075265 32 0 0 0 39.834042
32.574703 19.242622 3.0611207 16 0 0 0 40.998981
34.273464 19.129799 3.1782219 18 0 0 0 41.392738
-22.35384 19.856537 3.1018159 67 0 0 0 10.921329
37.324692 19.649309 3.4168556 15 0 0 0 41.787048
-22.614056 21.098347 3.2056284 72 0 0 0 11.302299
-22.891102 22.427689 3.3186593 57 0 0 0 11.69058
-1.9657241 22.097357 3.3812075 149 0 0 0 23.01536
-16.58856 25.531605 3.1407843 42 0 0 0 15.2063
-26.440577 27.208731 3.0015085 7 0 0 0 12.08208
-26.255894 28.372782 3.0555005 35 0 0 0 12.47759
-25.49729 28.938002 3.0464144 16 0 0 0 12.8644
-24.953167 29.753859 3.0649855 28 0 0 0 13.24914
-24.381214 30.556343 3.0832162 26 0 0 0 13.63926
-23.811974 31.384233 3.1050014 16 0 0 0 14.03811
-23.309757 32.331978 3.1392686 14 0 0 0 14.42985
-0.4696078 32.319912 3.3197646 18 0 0 0 24.19129
-22.902792 33.460735 3.1911523 13 0 0 0 14.81975
-22.861362 37.177742 3.4285398 18 0 0 0 15.59939
-21.937994 37.708897 3.4253209 15 0 0 0 15.99181
-20.663916 37.599941 3.3674679 14 0 0 0 16.37311
-1.5349177 39.690758 3.1075668 25 0 0 0 23.80303
-20.174026 -42.700291 3.8692684 14 0 0 0 81.717262
-17.788918 -40.168232 3.6032376 33 0 0 0 81.318512
-16.54203 -39.966122 3.5498025 6 0 0 0 80.922112
-0.035052318 -37.15559 3.9823716 36 0 0 0 74.654411
0.86985725 -36.967033 3.9651785 70 0 0 0 74.265091
1.7655195 -36.755547 3.9478414 43 0 0 0 73.88092
4.3906736 -35.986958 3.8951578 61 0 0 0 72.705528
7.8744831 -35.330448 3.8958774 44 0 0 0 71.139343
10.404037 -34.521984 3.8855917 39 0 0 0 69.959778
8.5420218 -34.345135 3.8115056 21 0 0 0 70.749077
-8.461194 -33.751762 3.7157276 9 0 0 0 78.577126
29.17149 -21.791313 3.943305 10 0 0 0 59.767841
58.795822 -21.32353 3.6521797 25 0 0 0 55.079327
-5.6810832 -17.209249 3.7371843 56 0 0 0 79.750015
-15.752094 -16.601753 3.5710127 72 0 0 0 86.811218
-5.8527298 -15.198461 3.7589848 127 0 0 0 80.529411
-5.4111333 -15.146054 3.7131872 42 0 0 0 80.144646
-4.8706131 -14.762779 3.5906546 21 0 0 0 79.750015
-4.4298058 -14.618548 3.7167759 140.5 0 0 0 79.354477
-5.0355692 -14.094905 3.8250043 148 0 0 0 80.144646
-4.7323027 -14.343536 3.8602309 21 0 0 0 79.750015
3.0834138 -13.832985 3.9917488 102 0 0 0 71.139343
3.2555845 -13.090384 3.801569 22 0 0 0 70.749077
3.664361 -13.331894 3.7255728 87.5 0 0 0 70.346893
2.5256622 -12.788707 3.9940634 69 0 0 0 71.534462
5.2032456 -12.637551 3.5157733 180 0 0 0 68.396172
-6.7823644 -12.00496 3.523036 78 0 0 0 82.885948
-6.4517779 -12.101406 3.5045385 5 0 0 0 82.49942
3.9737241 -12.107783 3.5951605 79 0 0 0 69.573586
4.3901224 -12.347558 3.6969314 127 0 0 0 69.17321
3.5167334 -11.665628 3.7379513 200 0 0 0 69.959778
4.5926156 -11.974034 3.9347398 154 0 0 0 68.785843
14.196506 -11.729381 3.8312068 25 0 0 0 60.559078
-8.8083544 -11.3268 3.663094 23 0 0 0 85.227829
-7.5875192 -11.391317 3.836164 87 0 0 0 84.054863
-6.4353623 -11.39594 3.9920785 131 0 0 0 82.885948
-5.8518672 -11.308313 3.5726407 30 0 0 0 82.300171
3.7339387 -11.372052 3.6732602 65 0 0 0 69.573586
-11.770998 -10.717782 3.6690593 53 0 0 0 87.982948
-11.175019 -10.687158 3.9442317 59 0 0 0 87.596291
-9.5219822 -10.548044 3.6275926 32 0 0 0 86.410118
-6.7115245 -10.631079 3.5266485 109 0 0 0 83.670837
-6.4888072 -10.857398 3.548142 100 0 0 0 83.276489
3.8784046 -10.911159 3.8420167 169 0 0 0 69.17321
-9.7981644 -10.334373 3.6352658 21 0 0 0 86.811218
-8.2557964 -10.099678 3.8158085 147 0 0 0 85.631355
-7.8713565 -10.122871 3.5954196 16 0 0 0 85.227829
-9.9067392 -9.9500036 3.584615 127 0 0 0 87.202957
-8.3690109 -9.7422104 3.7602322 104 0 0 0 86.018738
-7.0540872 -9.5453825 3.915556 129 0 0 0 84.839005
-6.7548823 -9.6241074 3.8794191 62 0 0 0 84.447502
14.022406 -9.9488497 3.5792568 103 0 0 0 59.377247
-8.6050119 -9.0805635 3.8154747 80 0 0 0 86.811218
-8.397995 -9.3076029 3.8234439 43 0 0 0 86.410118
-8.1852903 -8.849699 3.9761007 82.5 0 0 0 86.610672
7.2931385 -8.5002785 3.9994028 142 0 0 0 63.293541
-14.306034 -8.1610937 3.796591 215 0 0 0 91.503151
10.770838 -8.0436506 3.8007231 134 0 0 0 59.767841
10.163513 -7.2098856 3.5257905 146 0 0 0 59.377247
6.5443969 -6.5832586 3.5491109 157 0 0 0 62.123886
7.2487531 -6.6096592 3.5083594 5 0 0 0 61.333302
7.568481 -6.5685244 3.5834227 169 0 0 0 60.94775
8.0475979 -6.6450887 3.730552 154 0 0 0 60.559078
8.7217045 -6.6801128 3.7905831 245 0 0 0 59.964638
9.1542521 -6.8352594 3.5168848 119 0 0 0 59.767841
7.3929701 -6.2615027 3.7036285 99 0 0 0 60.753414
7.6998444 -6.0471387 3.7423136 164 0 0 0 60.16143
8.2383595 -6.1489925 3.9277453 146 0 0 0 59.767841
8.7544918 -6.3736792 3.6040196 215 0 0 0 59.572544
9.076498 -6.1052151 3.9086623 157 0 0 0 58.994019
8.7992659 -5.6104164 3.9868066 200 0 0 0 58.591633
9.4207592 -5.3760791 3.8760452 83 0 0 0 57.817959
10.415282 -4.9698529 3.5515499 98 0 0 0 56.639961
16.375879 -4.5985136 3.9522028 28 0 0 0 53.90374
9.7334366 -4.352129 3.8102033 80 0 0 0 56.250248
10.167994 -4.2548237 3.6666374 50 0 0 0 55.862019
16.54007 -4.2102046 3.9646928 82 0 0 0 53.519001
9.3253098 -3.8984325 3.6137488 48 0 0 0 55.862019
9.5522203 -3.7205729 3.6644232 25 0 0 0 55.471729
11.957084 -3.6760068 3.5362055 95 0 0 0 54.289761
12.825978 -3.6011126 3.7627685 48 0 0 0 53.90374
13.162183 -3.6962359 3.5202427 62 0 0 0 53.90374
16.717819 -3.821857 3.9825299 33 0 0 0 53.117046
15.009622 -3.4307709 3.958077 38 0 0 0 53.117046
-12.194851 -2.7911792 3.6699231 573 0 0 0 96.189362
8.770155 -2.9293582 3.5355506 174 0 0 0 54.69088
11.17857 -2.6961074 3.6766934 49 0 0 0 53.318024
16.764633 -2.9768174 3.9524398 62 0 0 0 52.339878
-12.314655 -2.346174 3.678962 559 0 0 0 96.771805
10.69488 -2.3008211 3.9051728 60 0 0 0 52.923359
11.29346 -2.2902412 3.8277416 69 0 0 0 52.729671
12.5062 -2.2197094 3.5866272 35 0 0 0 52.339878
17.713192 -2.2608957 3.7033863 68 0 0 0 51.559059
-12.513077 -1.5983998 3.7035031 556 0 0 0 97.76255
-12.422895 -1.8971337 3.6886775 572.5 0 0 0 97.366722
12.244437 -1.5556813 3.7890518 50 0 0 0 51.559059
12.814398 -1.7896521 3.6519685 63.5 0 0 0 51.752506
17.139534 -1.7599962 3.7836337 108.5 0 0 0 51.163422
23.260174 -1.8196859 3.6711116 93 0 0 0 50.77026
-12.594217 -1.2961305 3.7175932 453.5 0 0 0 98.143517
13.635091 -1.3977247 3.5237088 32 0 0 0 51.163422
23.285814 -1.2487028 3.6676524 29 0 0 0 50.384621
-12.705334 -0.83837098 3.8970203 557 0 0 0 98.734116
23.921675 -0.69578165 3.7613251 85 0 0 0 49.987
24.824728 -0.11370585 3.8985205 38 0 0 0 49.60458
19.272863 0.38724363 3.9868486 27 0 0 0 49.209846
23.408258 0.46640956 3.6772115 25 0 0 0 49.209846
21.501015 0.95757455 3.9150541 16 0 0 0 48.815128
29.441931 0.58385956 3.8858933 19 0 0 0 49.209846
29.469305 1.3069321 3.8903039 22 0 0 0 48.815128
-13.50061 2.2566736 3.8038409 70 0 0 0 1.94832
-13.651251 2.7970853 3.6992564 463.25 0 0 0 2.5375049
-13.799029 3.3548493 3.7680972 448 0 0 0 3.1213999
33.048294 3.0837173 3.5508018 27 0 0 0 48.038921
-13.890249 3.7369325 3.8156004 426.5 0 0 0 3.51683
33.026108 3.8994913 3.5549424 6 0 0 0 47.645039
-13.758964 4.2427015 3.8160546 312 0 0 0 4.0982246
-14.088102 4.7254381 3.7559066 310 0 0 0 4.4873152
45.459473 6.4939466 3.7748821 6 0 0 0 47.249119
2.3369858 11.885925 3.8513792 91.333336 0 0 0 27.570101
2.803057 11.715469 3.8309619 196.66667 0 0 0 28.224787
3.2089808 11.711095 3.762641 114.33334 0 0 0 28.745667
3.7625618 11.648061 3.8447769 44.25 0 0 0 29.4527
4.2477899 11.670924 3.7492518 17 0 0 0 30.04517
4.7892494 11.784141 3.6842527 27 0 0 0 30.630915
5.329772 11.848043 3.7628436 12 0 0 0 31.212231
5.669137 11.819704 3.7969425 110.5 0 0 0 31.606331
1.7860246 12.215528 3.8210299 14.333333 0 0 0 26.794275
2.162071 12.032294 3.6852522 18 0 0 0 27.311119
6.1325216 12.016386 3.7431061 23 0 0 0 32.001122
6.8396592 12.145173 3.7519169 17.333334 0 0 0 32.645458
7.3654966 12.13619 3.7634749 16.5 0 0 0 33.169842
7.7676325 12.119566 3.9960344 95 0 0 0 33.566639
8.415328 12.444293 3.7968202 8 0 0 0 33.94788
8.8715515 12.450006 3.8643191 6 0 0 0 34.346607
0.72328258 12.946962 3.9034908 121 0 0 0 25.36268
1.1828821 12.763889 3.7025769 19.75 0 0 0 25.948021
9.4201126 12.556221 3.9680882 10 0 0 0 34.732449
9.5260754 12.69529 3.6223254 8 0 0 0 34.732449
10.095923 12.788458 3.719058 7 0 0 0 35.124981
10.588434 12.756269 3.7850235 9 0 0 0 35.52314
0.74059117 13.195714 3.6538284 12 0 0 0 25.36268
11.498519 13.179314 3.9928706 6 0 0 0 35.911301
12.093429 13.187222 3.6477504 5 0 0 0 36.30706
0.435395 13.700779 3.7878625 7 0 0 0 24.969971
0.10379903 14.007413 3.8696592 73 0 0 0 24.582859
-0.25641218 15.371032 3.8625271 21 0 0 0 24.19129
22.05567 17.870018 3.6775806 68 0 0 0 38.65984
-21.816423 18.441395 3.6672332 94 0 0 0 10.52199
23.565409 18.154652 3.8550005 7 0 0 0 39.049622
24.887785 18.219397 3.9986894 36 0 0 0 39.441967
28.108732 18.523052 3.5392349 42 0 0 0 40.223328
32.541317 19.22621 3.9766238 21 0 0 0 40.998981
-22.106375 19.631994 3.7926893 76 0 0 0 10.921329
-22.455675 20.945751 3.9363689 51 0 0 0 11.302299
44.452721 20.687983 3.9753089 28 0 0 0 42.55986
64.149437 22.503521 3.8308892 4 0 0 0 44.126701
-16.522738 25.423 3.8718579 54 0 0 0 15.2063
-15.791611 25.645821 3.84496 25 0 0 0 15.59939
-7.1034045 -40.838284 4.4252748 19 0 0 0 77.400993
10.877627 -39.569981 4.415925 16 0 0 0 70.346893
-14.073515 -39.347466 4.4487271 32 0 0 0 80.144646
-12.961925 -39.241768 4.4015956 37 0 0 0 79.750015
-7.6784859 -38.534164 4.1947575 19 0 0 0 77.791595
-5.7436547 -38.590782 4.1690102 27 0 0 0 77.017136
-4.7544494 -38.370167 4.1334348 71 0 0 0 76.62928
-3.7792923 -38.121456 4.097578 81 0 0 0 76.229645
-2.8232627 -37.903744 4.0675926 93 0 0 0 75.834763
-1.8770597 -37.600658 4.0310297 35 0 0 0 75.443878
-0.95079499 -37.410358 4.0088916 64 0 0 0 75.057777
2.709012 -37.315861 4.0151672 44 0 0 0 73.485748
3.6172695 -37.197433 4.0125723 37 0 0 0 73.092834
-10.318446 -31.256994 4.3220897 17 0 0 0 79.750015
-2.798409 -28.267096 4.4484863 28 0 0 0 76.229645
12.975245 -27.581884 4.0474348 64 0 0 0 67.614525
-3.6304674 -24.413965 4.4783864 91 0 0 0 77.017136
-14.210032 -18.260822 4.1838145 18 0 0 0 85.227829
-6.8968096 -16.681347 4.162034 28 0 0 0 80.922112
-4.4906778 -16.240177 4.3040643 36 0 0 0 78.967682
-7.8602972 -15.652135 4.4674869 36 0 0 0 82.100922
-6.5219889 -15.774971 4.3565536 27 0 0 0 80.922112
-5.8510966 -15.194245 4.1574969 108 0 0 0 80.529411
-3.8067291 -15.204387 4.006609 77 0 0 0 78.577126
-4.8997264 -14.850968 4.3839521 31 0 0 0 79.750015
-4.2682943 -14.73508 4.3024349 102 0 0 0 79.161079
-5.1242328 -14.343062 4.2699428 67 0 0 0 80.144646
-5.2720175 -13.697845 4.4761033 77 0 0 0 80.529411
-4.7329912 -13.789385 4.4475126 36 0 0 0 79.947327
3.1001151 -13.896303 4.3602424 26 0 0 0 71.139343
-14.087629 -13.464984 4.0071473 29 0 0 0 87.596291
2.5364747 -12.855064 4.3386841 50 0 0 0 71.534462
3.3258438 -12.700979 4.0245934 43 0 0 0 70.547989
-14.93385 -12.315756 4.454226 20 0 0 0 88.762367
2.3818443 -12.051649 4.3709903 55 0 0 0 71.534462
4.3906145 -12.341965 4.0177746 115 0 0 0 69.17321
5.1235056 -12.437668 4.1262026 71 0 0 0 68.396172
-7.3013005 -11.569393 4.1709104 82 0 0 0 83.670837
-6.2247739 -11.676156 4.363235 20 0 0 0 82.49942
3.1973603 -11.636593 4.0005336 192 0 0 0 70.346893
-8.7804813 -11.295548 4.3593392 50 0 0 0 85.227829
-8.0371571 -11.453822 4.2646565 37 0 0 0 84.447502
-7.5096917 -11.278989 4.1311994 40 0 0 0 84.054863
-7.4205923 -11.141222 4.4125075 173 0 0 0 84.054863
-6.760057 -11.315655 4.0200953 21 0 0 0 83.276489
-5.9517069 -11.173661 4.4861717 59 0 0 0 82.49942
3.2557297 -11.292369 4.3294649 105.5 0 0 0 70.153336
3.6274045 -11.041658 4.140327 114 0 0 0 69.573586
5.0187154 -11.379889 4.4312153 50 0 0 0 68.001717
-11.746128 -10.695558 4.0513086 36 0 0 0 87.982948
-11.212813 -10.723659 4.342773 70 0 0 0 87.596291
-6.7994542 -10.770608 4.2003727 29 0 0 0 83.670837
-6.4958544 -10.87823 4.489099 19 0 0 0 83.276489
3.8187392 -10.731587 4.3383951 138 0 0 0 69.17321
13.109453 -10.826957 4.3745632 77 0 0 0 60.559078
-11.259071 -10.25277 4.2629371 53 0 0 0 87.982948
-10.238825 -10.285567 4.2406602 36 0 0 0 87.202957
-6.0819554 -10.185602 4.4956284 15 0 0 0 83.276489
-8.0883665 -9.8936176 4.2130146 93 0 0 0 85.631355
-7.7567925 -9.8138943 4.3302178 71 0 0 0 85.362343
12.261998 -9.6320515 4.4027624 145 0 0 0 60.16143
-6.8563461 -9.2850456 4.2303853 29.5 0 0 0 84.839005
-6.319097 -9.4958773 4.3231502 45 0 0 0 84.054863
-8.17066 -8.6261244 4.2102108 41 0 0 0 86.811218
-7.6715989 -8.9365015 4.4621778 46 0 0 0 86.018738
-7.2928724 -8.9280596 4.368341 19 0 0 0 85.631355
-6.9290462 -8.9190674 4.2805181 43 0 0 0 85.227829
-6.2599134 -8.926322 4.1334124 41 0 0 0 84.447502
-8.3935261 -8.0360117 4.4028707 38 0 0 0 87.596291
7.9501286 -7.6119928 4.2020211 84 0 0 0 61.72345
10.285829 -7.2893405 4.4991455 67 0 0 0 59.377247
9.3879128 -6.6535244 4.3921189 155 0 0 0 59.377247
9.4575634 -6.1953487 4.1790371 127.5 0 0 0 58.792824
9.1249352 -5.3557148 4.0419073 168.5 0 0 0 58.009609
9.2451448 -4.9791298 4.0112977 205 0 0 0 57.424088
9.6829929 -4.7671795 4.1220255 78 0 0 0 56.834274
12.231377 -4.7677703 4.3594651 63 0 0 0 55.471729
16.472847 -4.1920376 4.3666449 112 0 0 0 53.519001
-14.929961 -3.8012359 4.3210344 46 0 0 0 95.799858
-13.738453 -3.5014701 4.3280344 65 0 0 0 95.799858
10.059346 -3.9170852 4.1218925 69 0 0 0 55.471729
-12.894851 -3.2849844 4.3936481 52 0 0 0 95.799858
-12.045326 -3.0739369 4.4118419 122 0 0 0 95.799858
11.773998 -3.1434102 4.3470554 55 0 0 0 53.711372
12.726441 -3.2356522 4.0323391 64 0 0 0 53.519001
-12.201883 -2.7950604 4.2894135 446.5 0 0 0 96.189362
12.581684 -2.8739645 4.2829652 44 0 0 0 53.117046
-12.315581 -2.3486872 4.2976336 470 0 0 0 96.771805
-12.514093 -1.6008935 4.3262663 472.5 0 0 0 97.76255
-12.436731 -1.9015813 4.3134575 456 0 0 0 97.366722
10.947641 -1.9365598 4.2398872 41 0 0 0 52.339878
11.022207 -1.672025 4.2508421 25 0 0 0 51.945953
-12.591088 -1.2956603 4.1859045 520 0 0 0 98.143517
12.099782 -1.2379415 4.0351334 28 0 0 0 51.163422
23.947502 -1.2825049 4.3650317 47 0 0 0 50.384621
-12.711227 -0.83736992 4.2142248 396 0 0 0 98.734116
13.456629 -0.7110846 4.1304808 36 0 0 0 50.384621
14.069679 -0.39789611 4.3116241 21 0 0 0 49.987
20.39777 0.91009945 4.2190905 20 0 0 0 48.815128
-13.32423 1.2420207 4.3774099 18 0 0 0 0.77590001
-13.409102 1.7992376 4.3130693 429 0 0 0 1.4345134
-13.506736 2.258527 4.3084307 442 0 0 0 1.94832
30.882662 2.128289 4.0783367 30 0 0 0 48.424759
-13.648895 2.7961566 4.2110186 428.5 0 0 0 2.5375049
-13.253233 2.7164917 4.4217849 182 0 0 0 2.5375049
-13.600836 3.3059731 4.2288771 144 0 0 0 3.1213999
-13.337638 3.5870261 4.1722059 227 0 0 0 3.51683
-13.838597 4.0869451 4.0048928 150 0 0 0 3.9016299
48.092369 8.0755901 4.0025239 15 0 0 0 46.86298
2.2793741 11.871363 4.238996 8.5 0 0 0 27.505356
2.8495517 11.712475 4.2288055 6.5 0 0 0 28.290989
3.2843497 11.625593 4.2390151 4 0 0 0 28.873699
3.8822184 11.548999 4.2768373 5 0 0 0 29.647671
4.2057257 11.558535 4.1676779 9 0 0 0 30.04517
4.7839236 11.639445 4.2144561 5.3333335 0 0 0 30.69578
5.2782998 11.733861 4.203474 4 0 0 0 31.212231
5.643249 11.765543 4.2636266 7 0 0 0 31.606331
6.2457519 11.878334 4.219995 8 0 0 0 32.192951
1.3096083 12.461151 4.0832882 5 0 0 0 26.138531
1.6786212 12.181981 4.2092366 7.3333335 0 0 0 26.660353
6.9037204 12.038168 4.1923733 6 0 0 0 32.775799
7.3034816 12.041415 4.255168 5 0 0 0 33.169842
8.3492002 12.348474 4.1377616 4 0 0 0 33.94788
8.8487082 12.419588 4.2334232 5 0 0 0 34.346607
0.72485131 12.937364 4.2202687 7 0 0 0 25.36268
9.9953365 12.663125 4.0787144 10 0 0 0 35.124981
10.582491 12.75071 4.1899285 9 0 0 0 35.52314
12.060169 13.157355 4.0755796 18 0 0 0 36.30706
14.243452 14.075896 4.0818286 15 0 0 0 37.086441
-21.143476 15.370092 4.0079837 13 0 0 0 9.3599195
-21.270164 16.270107 4.1036839 109 0 0 0 9.7526503
-21.519012 17.309481 4.2294335 97 0 0 0 10.13379
21.743258 17.619938 4.3189907 44 0 0 0 38.65984
23.063751 17.771503 4.4947062 39 0 0 0 39.049622
-21.807835 18.436853 4.3707619 89 0 0 0 10.52199
26.613924 18.498569 4.203156 25 0 0 0 39.834042
27.913857 18.404787 4.3380246 28 0 0 0 40.223328
34.300217 19.148106 4.1354003 16 0 0 0 41.392738
37.409309 19.697432 4.4520249 8 0 0 0 41.787048
48.89933 21.316605 4.3269534 19 0 0 0 42.961689
-22.795994 22.329475 4.087532 50 0 0 0 11.69058
-27.937878 28.756998 4.1423168 27 0 0 0 12.08208
-27.197123 29.396084 4.1353474 31 0 0 0 12.47759
-26.530373 30.117123 4.1422153 16 0 0 0 12.8644
-26.049421 31.068056 4.1818523 21 0 0 0 13.24914
-25.509218 31.977427 4.2168422 29 0 0 0 13.63926
-0.47569802 32.349716 4.1174884 27 0 0 0 24.19129
-24.968267 32.916004 4.2566624 16 0 0 0 14.03811
-24.545696 34.054676 4.3226628 22 0 0 0 14.42985
-1.5369481 39.745495 4.0770764 45 0 0 0 23.80303
-23.798105 52.031925 4.4741187 10 0 0 0 17.554331
26.577986 -47.171371 4.5201826 6 0 0 0 66.436432
-17.767015 -40.118992 4.6645532 26 0 0 0 81.318512
-16.550083 -39.985714 4.6026015 22 0 0 0 80.922112
-22.759861 -38.034725 4.7049422 7 0 0 0 83.276489
-2.8062871 -37.76292 4.9837503 51 0 0 0 75.834763
-1.8640894 -37.469364 4.9396029 71 0 0 0 75.443878
-0.94109321 -37.279385 4.9120135 47 0 0 0 75.057777
-0.028616859 -37.049931 4.8822746 34 0 0 0 74.654411
2.7156167 -37.317921 4.9356303 47 0 0 0 73.485748
3.6208541 -37.16782 4.9278898 44 0 0 0 73.092834
0.87411708 -36.879566 4.863101 22 0 0 0 74.265091
1.7649558 -36.613003 4.8341522 50 0 0 0 73.88092
4.3961496 -35.980129 4.7859726 56 0 0 0 72.705528
7.8782492 -35.318264 4.7847142 46 0 0 0 71.139343
8.6935759 -34.927746 4.7610331 24 0 0 0 70.749077
9.5044689 -34.554909 4.7423067 45 0 0 0 70.346893
10.35346 -34.332321 4.7466669 38 0 0 0 69.959778
11.216464 -34.14724 4.7590737 32 0 0 0 69.573586
12.908741 -33.648048 4.7748632 22 0 0 0 68.785843
13.783771 -33.456226 4.7954054 26 0 0 0 68.396172
14.646293 -33.217152 4.8124113 30 0 0 0 68.001717
16.359989 -32.671349 4.8461556 21 0 0 0 67.218071
7.1869717 -28.880329 4.6792488 20 0 0 0 70.749077
13.341659 -26.647175 4.6966758 42 0 0 0 67.218071
14.304303 -26.903423 4.8024812 9 0 0 0 66.823326
32.419998 -26.785442 4.5491724 18 0 0 0 60.559078
-3.2460754 -26.224987 4.7934642 16 0 0 0 76.62928
14.340019 -25.448318 4.6064296 22 0 0 0 66.436432
28.773617 -22.602648 4.8629975 13 0 0 0 60.16143
29.573042 -22.081381 4.9046736 16 0 0 0 59.767841
-14.303053 -18.380726 4.7838669 23 0 0 0 85.227829
-7.5882096 -16.079002 4.5350661 33 0 0 0 81.717262
-6.7624226 -16.356472 4.9554596 26 0 0 0 80.922112
-4.113873 -16.431368 4.7479801 22 0 0 0 78.577126
-3.6912174 -16.439457 4.7237473 52 0 0 0 78.188141
-15.658019 -15.715504 4.5571141 17 0 0 0 87.202957
-3.7168434 -15.674025 4.9136658 21.5 0 0 0 78.382629
-6.6406655 -15.011862 4.5976191 44 0 0 0 81.318512
-5.890615 -15.29688 4.5923719 99 0 0 0 80.529411
-6.976275 -14.789556 4.9815626 17 0 0 0 81.717262
-4.4332047 -14.638824 4.6651149 86 0 0 0 79.354477
-3.6355672 -14.520201 4.9375267 37 0 0 0 78.577126
3.1527538 -14.143208 4.7955604 75 0 0 0 71.139343
3.5052898 -14.091758 4.8064995 21 0 0 0 70.749077
4.275404 -13.024552 4.5414824 122 0 0 0 69.573586
5.9421787 -13.4763 4.5153995 75 0 0 0 68.001717
-17.268715 -12.874987 4.9530272 21 0 0 0 89.547668
2.5295041 -12.796427 4.9588966 32 0 0 0 71.534462
-15.574803 -12.21659 4.5542159 33 0 0 0 89.152153
-7.1785402 -12.011204 4.6116629 40 0 0 0 83.276489
2.7846498 -12.475529 4.860867 74 0 0 0 71.139343
3.0896878 -12.406375 4.7053137 62 0 0 0 70.749077
4.4119949 -12.394761 4.6834621 37 0 0 0 69.17321
-6.7196441 -11.894415 4.5034738 76 0 0 0 82.885948
5.5842237 -11.865361 4.6710806 63 0 0 0 67.614525
-16.94063 -11.385571 4.695714 16 0 0 0 90.331108
-16.124245 -11.419516 4.5463715 23 0 0 0 89.947243
-7.2118692 -11.128332 4.6968613 60.5 0 0 0 83.862854
-5.9467916 -11.16455 4.7922411 17 0 0 0 82.49942
3.7228785 -11.331406 4.5405455 146 0 0 0 69.573586
-16.171581 -10.869659 4.9625287 16 0 0 0 90.331108
-15.259467 -10.808042 4.7634988 22 0 0 0 89.947243
-11.144165 -10.66215 4.6963043 94 0 0 0 87.596291
-9.2824965 -10.80329 4.6919961 64 0 0 0 86.018738
-7.5249634 -10.728688 4.6411424 37 0 0 0 84.447502
-12.038605 -10.439424 4.8510265 50 0 0 0 88.369835
-11.231414 -10.231572 4.6267629 80 0 0 0 87.982948
-8.7786751 -10.224796 4.7712212 29 0 0 0 86.018738
-5.89294 -10.440476 4.5431657 26 0 0 0 82.885948
12.319164 -10.17438 4.5104609 19 0 0 0 60.559078
-9.663558 -9.7069092 4.5130239 70 0 0 0 87.202957
-9.315424 -9.3644705 4.8370504 42 0 0 0 87.202957
-8.5327883 -9.4607267 4.5122619 67 0 0 0 86.410118
-8.3792105 -9.2908449 4.7380638 33 0 0 0 86.410118
9.9845934 -7.8381901 4.5297632 25 0 0 0 60.16143
10.811785 -6.5247102 4.5065665 98 0 0 0 58.20126
11.146372 -4.9820185 4.6573172 38 0 0 0 56.250248
-15.723495 -4.4191489 4.9797006 108 0 0 0 95.409424
16.287235 -4.1437788 4.7359819 16 0 0 0 53.519001
15.889795 -3.6306591 4.5934343 62 0 0 0 53.117046
18.16345 -3.6849737 4.7555947 48 0 0 0 52.729671
15.944566 -3.2341614 4.5841146 51 0 0 0 52.729671
-11.699955 -2.6832592 4.5562453 220 0 0 0 96.189362
11.871448 -2.7060325 4.6410866 29 0 0 0 53.117046
20.395645 -2.5980334 4.7621865 17 0 0 0 51.559059
-12.216755 -2.1784368 4.71069 131 0 0 0 96.968704
-11.926573 -2.4294519 4.6202264 131 0 0 0 96.574898
12.335773 -2.3374591 4.6285572 59.5 0 0 0 52.534775
13.781218 -2.0938423 4.7921805 42.5 0 0 0 51.945953
15.497519 -2.3559139 4.8025379 13 0 0 0 51.945953
-12.505107 -1.6028979 4.7870345 408 0 0 0 97.76255
-12.412837 -1.9010668 4.767355 378 0 0 0 97.366722
22.099566 -1.7258272 4.5851068 22 0 0 0 50.77026
25.444399 -1.9887522 4.6446786 47 0 0 0 50.77026
-12.596012 -1.3015635 4.6536131 465 0 0 0 98.143517
12.404874 -1.2630496 4.7481441 22 0 0 0 51.163422
-12.668364 -0.99618644 4.6707916 423.5 0 0 0 98.541443
18.195944 -0.74434936 4.666276 28 0 0 0 50.18581
20.677435 -0.59326869 4.7854075 16 0 0 0 49.987
24.062063 -0.69644797 4.9725623 33 0 0 0 49.987
18.120766 -0.074177973 4.6410575 18 0 0 0 49.60458
19.531 0.39863396 4.9987507 29 0 0 0 49.209846
-13.261028 1.2327702 4.6809182 338 0 0 0 0.77590001
19.729132 1.3703879 4.5708861 24 0 0 0 48.424759
-13.206165 1.7133396 4.6794786 239 0 0 0 1.3682849
-12.860733 1.6473796 4.8165379 177 0 0 0 0.97275001
-12.97155 2.1669941 4.61975 199 0 0 0 1.94832
36.598011 3.4236364 4.8328261 22 0 0 0 48.038921
37.736252 4.4644108 4.9918165 6 0 0 0 47.645039
37.599106 5.3846455 4.9866118 11 0 0 0 47.249119
2.2808733 11.880054 4.5376682 9 0 0 0 27.505356
2.7001123 11.722597 4.5134897 11 0 0 0 28.092381
3.2788231 11.607592 4.5272985 9 0 0 0 28.873699
3.7239246 11.544078 4.5543985 9.5 0 0 0 29.452702
4.1947269 11.536728 4.6098461 34 0 0 0 30.04517
4.6979022 11.574242 4.6920953 155 0 0 0 30.630915
5.2630358 11.712989 4.665741 39 0 0 0 31.212231
5.6324577 11.755615 4.7379241 6.5 0 0 0 31.606331
6.1515298 11.827809 4.791882 62.333332 0 0 0 32.129009
6.8077645 11.879407 4.8104954 62 0 0 0 32.775799
7.2640142 11.97343 4.5777593 8 0 0 0 33.169842
1.2938726 12.359998 4.657558 199 0 0 0 26.138531
1.7184942 12.120279 4.5898199 86 0 0 0 26.727314
6.9051871 12.037237 4.5353031 4 0 0 0 32.775799
7.2920012 12.030063 4.9426751 8 0 0 0 33.169842
7.7495518 12.094315 4.6955199 84 0 0 0 33.566639
8.2297564 12.175598 4.8043947 115 0 0 0 33.94788
8.8157959 12.378086 4.7810383 4.5 0 0 0 34.346607
9.2852716 12.384787 4.6782761 29 0 0 0 34.732449
1.0094266 12.601193 4.736474 121 0 0 0 25.757509
9.933073 12.592164 4.8475752 69 0 0 0 35.124981
10.682525 12.872353 4.6447906 4 0 0 0 35.52314
11.326642 12.986318 4.7853742 67 0 0 0 35.911301
0.4168852 13.318215 4.663939 105 0 0 0 24.969971
0.7264244 13.043431 4.8928523 5 0 0 0 25.36268
12.069293 13.170652 4.9614105 14 0 0 0 36.30706
12.946913 13.448051 4.7209744 10 0 0 0 36.699139
-0.25050813 14.919364 4.8534942 17 0 0 0 24.19129
-0.2579492 15.281746 4.5937104 28 0 0 0 24.19129
18.228342 15.53527 4.8815188 16 0 0 0 38.259819
-21.273315 16.275106 4.765491 111 0 0 0 9.7526503
-21.534811 17.324886 4.9148788 93 0 0 0 10.13379
24.487894 17.929888 4.6865554 32 0 0 0 39.441967
26.113228 18.153946 4.9122901 29 0 0 0 39.834042
29.813633 18.625664 4.5624704 30 0 0 0 40.61245
32.051746 18.948137 4.8338861 24 0 0 0 40.998981
79.193222 19.336283 4.6155906 17 0 0 0 45.685993
-22.161829 19.684225 4.5339704 84 0 0 0 10.921329
-22.405958 20.902172 4.6843038 57 0 0 0 11.302299
-22.779026 22.315844 4.8719778 60 0 0 0 11.69058
-17.27005 25.208424 4.6575618 24 0 0 0 14.81975
-16.21353 26.336508 4.7111516 13 0 0 0 15.59939
-22.493784 56.303181 4.7355452 10 0 0 0 18.3365
-20.213596 -42.784332 5.0261269 23 0 0 0 81.717262
-7.0857582 -40.778271 5.4364886 13 0 0 0 77.400993
-14.065535 -39.346802 5.4758496 28 0 0 0 80.144646
-7.6917233 -38.635269 5.1742182 25 0 0 0 77.791595
-5.7254257 -38.513615 5.118113 32 0 0 0 77.017136
-4.7320919 -38.243343 5.0674 53 0 0 0 76.62928
-3.7592299 -37.985222 5.0216417 56 0 0 0 76.229645
-8.4016962 -37.398602 5.0338373 18 0 0 0 78.188141
7.1143503 -28.588709 5.361763 8 0 0 0 70.749077
7.9270835 -28.824856 5.4417448 12 0 0 0 70.346893
6.328021 -28.375416 5.2901998 21 0 0 0 71.139343
30.070549 -27.417845 5.4047155 28 0 0 0 61.333302
14.791553 -26.248236 5.4963808 10 0 0 0 66.436432
13.807395 -25.968931 5.3652606 14 0 0 0 66.823326
-16.847708 -19.592516 5.3032303 33 0 0 0 86.018738
-15.735386 -16.591471 5.255847 33 0 0 0 86.811218
-4.5469832 -16.454813 5.2039375 29 0 0 0 78.967682
-3.5951455 -16.011072 5.4107556 31 0 0 0 78.188141
-7.0055671 -15.844113 5.2762365 9 0 0 0 81.318512
-5.9055357 -15.335676 5.4142776 65 0 0 0 80.529411
-7.0686669 -14.978706 5.4548459 9 0 0 0 81.717262
-4.2962399 -14.61316 5.2712169 47.666668 0 0 0 79.225548
-5.8236856 -14.086401 5.0236545 37 0 0 0 80.922112
3.1402469 -14.064161 5.1227417 30 0 0 0 71.139343
-5.7589111 -13.943569 5.3420081 77 0 0 0 80.922112
-5.377717 -13.979752 5.3046985 95 0 0 0 80.529411
3.7529645 -13.634489 5.3760295 39 0 0 0 70.346893
4.0822983 -13.528178 5.0262976 100 0 0 0 69.959778
-14.59776 -12.652034 5.3990211 19 0 0 0 88.369835
-16.126671 -12.024613 5.1216469 19 0 0 0 89.547668
-15.702195 -12.317024 5.0811219 45 0 0 0 89.152153
-15.092848 -12.447883 5.4675174 6 0 0 0 88.762367
-15.25845 -11.67079 5.3698864 18.5 0 0 0 89.349915
-7.1891704 -11.396727 5.1018429 81 0 0 0 83.670837
-15.287418 -10.828408 5.237534 7 0 0 0 89.947243
-11.126295 -10.64563 5.2583141 58.5 0 0 0 87.596291
-12.098187 -10.487786 5.2701764 12 0 0 0 88.369835
-11.191971 -10.196238 5.1700583 68.5 0 0 0 87.982948
-9.4207296 -9.9450369 5.184711 56 0 0 0 86.811218
11.841315 -9.7789135 5.0954781 114 0 0 0 60.559078
20.297846 -9.6853046 5.2194738 44 0 0 0 56.639961
21.647654 -7.2381892 5.2931018 51 0 0 0 54.69088
16.262083 -3.2944601 5.083148 42 0 0 0 52.729671
21.110916 -3.2150826 5.4709644 9 0 0 0 51.945953
16.088657 -2.8525782 5.4102736 26 0 0 0 52.339878
20.24016 -2.5768633 5.227787 17 0 0 0 51.559059
13.716948 -1.7373341 5.2616086 39 0 0 0 51.559059
19.379564 -1.9848264 5.4765429 36 0 0 0 51.163422
19.969011 -1.5532049 5.129962 28 0 0 0 50.77026
18.14419 -1.4100266 5.1174784 14 0 0 0 50.77026
24.222788 -0.10742392 5.0017433 52 0 0 0 49.60458
19.227554 0.39388672 5.4001212 23 0 0 0 49.209846
18.649256 0.83973062 5.2416511 24 0 0 0 48.815128
19.637402 1.8500482 5.0422444 17 0 0 0 48.038921
7.3451166 12.118532 5.3254342 5 0 0 0 33.169842
7.7737141 12.143883 5.4193068 10 0 0 0 33.566639
9.3254042 12.445554 5.465517 53 0 0 0 34.732449
10.687068 12.880994 5.4726815 9 0 0 0 35.52314
16.381498 14.678693 5.0224819 7 0 0 0 37.873234
-0.25978485 15.216804 5.3216176 33 0 0 0 24.19129
-21.281248 16.283764 5.4247422 80 0 0 0 9.7526503
21.701414 17.588661 5.0025616 44 0 0 0 38.65984
23.000307 17.725357 5.2016039 38 0 0 0 39.049622
24.482038 17.928366 5.4369621 25 0 0 0 39.441967
-21.865494 18.488495 5.0892825 68 0 0 0 10.52199
27.822874 18.347872 5.1492271 24 0 0 0 40.223328
29.890579 18.676811 5.4468427 17 0 0 0 40.61245
34.255638 19.134518 5.0958834 12 0 0 0 41.392738
-22.135616 19.663712 5.2597737 81 0 0 0 10.921329
37.167782 19.582323 5.4575686 14 0 0 0 41.787048
43.966232 20.46587 5.1108179 16 0 0 0 42.55986
-22.437067 20.934208 5.4486327 58 0 0 0 11.302299
-17.166555 25.059649 5.3801403 17 0 0 0 14.81975
-27.872547 30.121149 5.2442794 28 0 0 0 12.47759
-27.402008 31.101906 5.2944736 18 0 0 0 12.8644
-26.806412 31.965633 5.326179 9 0 0 0 13.24914
-23.630287 45.62764 5.2714024 10 0 0 0 16.763411
-17.775499 -40.157272 5.7484636 16 0 0 0 81.318512
-16.531479 -39.960632 5.6627736 25 0 0 0 80.922112
-2.8148429 -37.876495 5.9385767 29 0 0 0 75.834763
-1.86889 -37.563564 5.8827062 37 0 0 0 75.443878
-0.94317979 -37.357616 5.8470807 31 0 0 0 75.057777
-0.028790023 -37.138859 5.8130479 37 0 0 0 74.654411
2.7162864 -37.32835 5.8633204 38 0 0 0 73.485748
3.6215239 -37.175488 5.8533659 52 0 0 0 73.092834
0.87512743 -36.926506 5.7833982 43 0 0 0 74.265091
1.7694997 -36.709038 5.7563233 49 0 0 0 73.88092
6.2778945 -36.456676 5.8028426 16 0 0 0 71.927322
7.8700061 -35.281273 5.6745086 25 0 0 0 71.139343
9.5561399 -34.742348 5.6597891 9 0 0 0 70.346893
10.421688 -34.558044 5.6711664 15 0 0 0 69.959778
11.270068 -34.309902 5.6755672 14 0 0 0 69.573586
13.014069 -33.921852 5.7128959 10 0 0 0 68.785843
13.854168 -33.626381 5.7199888 20 0 0 0 68.396172
14.722682 -33.389618 5.7406559 12 0 0 0 68.001717
15.582475 -33.118774 5.7592468 10 0 0 0 67.614525
13.505525 -26.973549 5.5008693 22 0 0 0 67.218071
32.432518 -26.784439 5.5852003 14 0 0 0 60.559078
28.174381 -23.268032 5.7615891 10 0 0 0 60.559078
-5.6311274 -17.067762 5.9199586 9 0 0 0 79.750015
-17.722807 -16.944044 5.6330624 21 0 0 0 87.596291
-14.460856 -16.824648 5.6452136 51 0 0 0 86.018738
-5.9067283 -16.533154 5.7828894 43 0 0 0 80.144646
-5.2860537 -16.040623 5.9788718 26 0 0 0 79.750015
-6.8634291 -15.515483 5.5873823 21 0 0 0 81.318512
-5.5232124 -15.476779 5.8174453 72 0 0 0 80.144646
-3.8037553 -15.214417 5.9401879 15 0 0 0 78.577126
-6.969831 -14.78278 5.7835393 14 0 0 0 81.717262
-4.2239704 -14.591984 5.7542834 48 0 0 0 79.161079
-6.3123555 -14.283533 5.5280867 10 0 0 0 81.318512
-5.6686873 -13.725206 5.6224904 57 0 0 0 80.922112
-5.3126616 -13.810682 5.6032963 10 0 0 0 80.529411
-15.2513 -11.668976 5.8401904 14.5 0 0 0 89.349915
-12.45967 -10.286132 5.7139535 47 0 0 0 88.762367
-11.156612 -10.168197 5.7100458 23 0 0 0 87.982948
21.377743 -8.9410801 5.9451046 15 0 0 0 55.862019
19.219973 -8.0381804 5.8670974 21 0 0 0 55.862019
23.468971 -7.2126818 5.6893973 22 0 0 0 54.289761
17.948862 -3.1800454 5.5794115 15 0 0 0 52.339878
17.854496 -2.2696564 5.9532061 19 0 0 0 51.559059
24.036217 -1.8711532 5.574244 29 0 0 0 50.77026
18.438002 -1.4283333 5.6551204 18 0 0 0 50.77026
17.487261 -0.92600358 5.7898197 27 0 0 0 50.384621
21.318789 -0.60866565 5.9874892 17 0 0 0 49.987
17.605417 -0.49996555 5.8216419 26 0 0 0 49.987
18.487494 -0.069820277 5.649457 7 0 0 0 49.60458
19.969215 -0.08047317 5.6072621 16 0 0 0 49.60458
23.825203 -0.099772401 5.5040779 42 0 0 0 49.60458
31.115417 -0.14070748 5.6477408 20 0 0 0 49.60458
18.924793 0.39240232 5.7819233 7 0 0 0 49.209846
24.025217 0.48806515 5.5492687 55 0 0 0 49.209846
19.531004 0.88413626 5.9691515 26 0 0 0 48.815128
19.173317 1.3395433 5.8672762 10 0 0 0 48.424759
8.2205324 12.173971 5.5216208 75 0 0 0 33.94788
8.7485447 12.294542 5.6722665 14 0 0 0 34.346607
10.630509 12.823758 5.8547635 32 0 0 0 35.52314
11.385663 13.057019 5.6649876 12 0 0 0 35.911301
13.152334 13.669065 5.7341428 4 0 0 0 36.699139
14.047529 13.899911 5.9742746 16 0 0 0 37.086441
-0.25492564 14.858023 5.5596948 29 0 0 0 24.19129
16.599258 14.875378 5.6362119 21 0 0 0 37.873234
-21.095654 15.337123 5.9185381 31 0 0 0 9.3599195
-21.531942 17.325214 5.5923972 119 0 0 0 10.13379
21.692312 17.583849 5.6878662 21 0 0 0 38.65984
-21.823349 18.455477 5.7809215 96 0 0 0 10.52199
31.841066 18.827017 5.7182727 10 0 0 0 40.998981
-22.821995 22.361103 5.6702991 49 0 0 0 11.69058
-16.371122 26.596336 5.52841 19 0 0 0 15.59939
-28.213198 37.195312 5.9523134 8 0 0 0 14.03811
-25.724203 37.588089 5.8038092 9 0 0 0 14.81975
-20.231382 -42.841621 6.1974206 34 0 0 0 81.717262
-12.926478 -39.157257 6.4262924 25 0 0 0 79.750015
-7.6978302 -38.665432 6.1538363 25 0 0 0 77.791595
-5.7324629 -38.560177 6.0889893 15 0 0 0 77.017136
-8.5470743 -38.045437 6.0852451 18 0 0 0 78.188141
-4.7614422 -38.479687 6.0580306 11 0 0 0 76.62928
14.315373 -26.922852 6.3118405 21 0 0 0 66.823326
-4.1283774 -16.513367 6.0277929 15 0 0 0 78.577126
-15.491509 -16.335445 6.2867985 19 0 0 0 86.811218
-5.2422318 -15.907617 6.3398042 36 0 0 0 79.750015
-5.4537582 -15.282174 6.1421041 43 0 0 0 80.144646
14.527584 -12.605067 6.3726044 31 0 0 0 60.94775
-15.392465 -11.47923 6.3142672 8 0 0 0 89.547668
-15.327651 -10.858046 6.1778779 18 0 0 0 89.947243
-12.410126 -10.245705 6.085639 32 0 0 0 88.762367
19.439959 -9.2739429 6.0656724 42 0 0 0 56.639961
15.735369 -4.8256955 6.2623401 81 0 0 0 54.289761
16.30279 -4.5655088 6.4396687 44 0 0 0 53.90374
16.090523 -4.0835943 6.3142486 28 0 0 0 53.519001
20.479244 -2.0923755 6.2919726 17 0 0 0 51.163422
17.126368 -1.3213562 6.1030555 17 0 0 0 50.77026
18.282419 -1.418219 6.0621872 46 0 0 0 50.77026
17.119305 -0.89871943 6.2996902 28 0 0 0 50.384621
18.997808 1.3254032 6.2857213 9 0 0 0 48.424759
38.984013 5.5857816 6.1442056 8 0 0 0 47.249119
39.236366 6.6060739 6.2039914 6 0 0 0 46.86298
9.9809818 12.661771 6.0611706 7 0 0 0 35.124981
10.434627 12.589966 6.1486201 7 0 0 0 35.52314
11.310351 12.981723 6.0523572 48 0 0 0 35.911301
12.002109 13.111785 6.2490878 7 0 0 0 36.30706
13.017111 13.526033 6.1392975 39 0 0 0 36.699139
16.562233 14.844354 6.1765485 15 0 0 0 37.873234
-21.334921 16.321629 6.0933151 76 0 0 0 9.7526503
-21.565588 17.348814 6.2759585 81 0 0 0 10.13379
21.937115 17.790819 6.4440126 12 0 0 0 38.65984
-21.802353 18.433865 6.4715409 50 0 0 0 10.52199
23.387087 18.025587 6.0152426 8 0 0 0 39.049622
24.833179 18.187859 6.2720861 17 0 0 0 39.441967
28.009855 18.474012 6.0145602 21 0 0 0 40.223328
-22.19425 19.718777 6.0023475 57 0 0 0 10.921329
-22.51302 21.008198 6.2228823 60 0 0 0 11.302299
-22.881605 22.422709 6.4715524 52 0 0 0 11.69058
-17.205536 25.119572 6.1399145 25 0 0 0 14.81975
-16.290949 26.46846 6.264606 15 0 0 0 15.59939
-27.802876 30.049562 6.2426653 22 0 0 0 12.47759
-26.763737 31.918562 6.3469343 16 0 0 0 13.24914
-0.47381839 32.191402 6.479672 14 0 0 0 24.19129
-33.16592 34.1432 6.0809841 15 0 0 0 12.08208
-1.5398259 39.637966 6.0209942 35 0 0 0 23.80303
-17.824509 -40.268192 6.853941 24 0 0 0 81.318512
-16.642504 -40.22913 6.7778912 11 0 0 0 80.922112
-14.101473 -39.447327 6.5263824 22 0 0 0 80.144646
-1.8716906 -37.617466 6.8234835 15 0 0 0 75.443878
-8.4154787 -37.459167 6.9423184 11 0 0 0 78.188141
2.7143614 -37.303204 6.7853737 29 0 0 0 73.485748
0.87570977 -36.955502 6.7030592 6 0 0 0 74.265091
1.7723556 -36.770168 6.677228 18 0 0 0 73.88092
10.419063 -34.549026 6.563271 13 0 0 0 69.959778
11.279202 -34.337288 6.575069 12 0 0 0 69.573586
13.011549 -33.914764 6.6112814 5 0 0 0 68.785843
13.860068 -33.640095 6.6233521 6 0 0 0 68.396172
14.738666 -33.425186 6.651444 6 0 0 0 68.001717
15.638558 -33.237171 6.6894541 11 0 0 0 67.614525
20.977106 -29.939016 6.6660786 21 0 0 0 64.861885
22.88699 -29.480669 6.8063793 23 0 0 0 64.084099
27.888382 -23.030399 6.599381 19 0 0 0 60.559078
-15.446975 -11.528811 6.810739 15 0 0 0 89.547668
19.541447 -0.54684329 6.9374242 15 0 0 0 49.987
33.635715 3.1545253 6.9503117 14 0 0 0 48.038921
-21.006691 15.274731 6.5294676 91 0 0 0 9.3599195
-21.251036 16.259817 6.7245269 74 0 0 0 9.7526503
-21.504665 17.302288 6.9340978 95 0 0 0 10.13379
28.089149 18.529238 6.8598447 20 0 0 0 40.223328
79.136063 19.343548 6.6415195 10 0 0 0 45.685993
-22.155239 19.679914 6.7144294 57 0 0 0 10.921329
-22.461126 20.955214 6.9576602 49 0 0 0 11.302299
-17.333548 25.300484 6.9330344 14 0 0 0 14.81975
-26.09124 34.39571 6.5729527 10 0 0 0 14.03811
-20.230701 -42.840473 7.3696232 16 0 0 0 81.717262
-12.984964 -39.334347 7.480494 4 0 0 0 79.750015
-7.6761589 -38.556038 7.1096406 15 0 0 0 77.791595
7.8765826 -35.310577 7.465477 32 0 0 0 71.139343
9.5813599 -34.833458 7.4583864 17 0 0 0 70.346893
10.42523 -34.569134 7.4558654 17 0 0 0 69.959778
11.287936 -34.363457 7.4704256 18 0 0 0 69.573586
27.857891 -28.014904 7.2051883 9 0 0 0 62.123886
29.998028 -27.348415 7.402432 18 0 0 0 61.333302
20.292458 -2.0669236 7.2411027 22 0 0 0 51.163422
20.16778 -0.069903038 7.1542315 11 0 0 0 49.60458
31.718214 1.4213051 7.3171153 16 0 0 0 48.815128
-25.333696 8.8630848 7.4353971 54 0 0 0 4.67981
-24.291405 9.1675282 7.1912451 80 0 0 0 5.0652099
-21.012821 15.281723 7.1749105 74 0 0 0 9.3599195
-21.290699 16.292854 7.4011655 79 0 0 0 9.7526503
22.0774 17.906969 7.1832323 7 0 0 0 38.65984
23.336573 17.998545 7.4487391 16 0 0 0 39.049622
-21.821049 18.45244 7.1768875 68 0 0 0 10.52199
24.930077 18.268171 7.05404 10 0 0 0 39.441967
63.741329 18.937481 7.0324612 5 0 0 0 44.911449
34.209728 19.115795 7.0299344 10 0 0 0 41.392738
-22.126301 19.656942 7.4305305 66 0 0 0 10.921329
-22.791275 22.329161 7.2241516 49 0 0 0 11.69058
-33.131672 34.1124 7.2498164 14 0 0 0 12.08208
-1.5396255 39.633011 7.0006075 27 0 0 0 23.80303
-23.038534 -43.179863 7.6087594 7 0 0 0 82.49942
-17.83288 -40.287308 7.9476771 23 0 0 0 81.318512
-4.7447228 -38.342495 7.9436026 32 0 0 0 76.62928
-3.7732298 -38.122993 7.8787861 21 0 0 0 76.229645
-2.8155773 -37.883003 7.8147373 6 0 0 0 75.834763
-1.8730159 -37.641663 7.7552705 28 0 0 0 75.443878
-0.94450015 -37.400551 7.7005835 44 0 0 0 75.057777
-0.029053031 -37.187626 7.6563911 22 0 0 0 74.654411
2.7174575 -37.346905 7.7148323 44 0 0 0 73.485748
3.6226583 -37.188713 7.7000957 33 0 0 0 73.092834
0.87604153 -36.973965 7.6165409 22 0 0 0 74.265091
1.7705779 -36.735458 7.5760474 37 0 0 0 73.88092
6.2584391 -36.344147 7.6058354 14 0 0 0 71.927322
13.048323 -34.01001 7.5265121 5 0 0 0 68.785843
13.86062 -33.640842 7.5192289 12 0 0 0 68.396172
14.740963 -33.429741 7.5518241 7 0 0 0 68.001717
15.641009 -33.241665 7.5948367 6 0 0 0 67.614525
16.444496 -32.837677 7.593698 36 0 0 0 67.218071
20.993824 -29.961775 7.5720482 23 0 0 0 64.861885
22.001194 -29.818073 7.6700716 7 0 0 0 64.470078
23.931826 -29.314247 7.8332849 4 0 0 0 63.689728
24.837168 -28.946472 7.8954425 6 0 0 0 63.293541
52.148323 -23.343092 7.5631647 9 0 0 0 56.250248
19.637541 -7.0907769 7.9355798 22 0 0 0 55.079327
19.988434 -0.067838222 7.581512 14 0 0 0 49.60458
21.360132 0.44942147 7.5747919 6 0 0 0 49.209846
-24.209309 9.1341944 7.8008289 71 0 0 0 5.0652099
-20.807497 14.366639 7.6041603 90 0 0 0 8.9684
-21.052149 15.307312 7.8256445 65 0 0 0 9.3599195
-21.529785 17.325232 7.6268125 72 0 0 0 10.13379
21.984678 17.834513 7.8568525 11 0 0 0 38.65984
-21.857265 18.485914 7.898046 73 0 0 0 10.52199
24.860998 18.220411 7.7917924 10 0 0 0 39.441967
28.106461 18.550665 7.6895175 23 0 0 0 40.223328
-22.490736 20.985836 7.7202673 47 0 0 0 11.302299
-33.012955 37.489838 7.6087646 9 0 0 0 12.8644
-1.5384721 39.60265 7.9688244 25 0 0 0 23.80303
-7.7134252 -38.742752 8.1158991 13 0 0 0 77.791595
-5.7767849 -38.856842 8.0746384 11 0 0 0 77.017136
-8.5514021 -38.0639 8.0137587 37 0 0 0 78.188141
9.5607796 -34.734772 8.3199549 33 0 0 0 70.346893
8.5698528 -34.404896 8.187027 8 0 0 0 70.749077
13.851543 -33.601601 8.4012136 34 0 0 0 68.396172
14.731841 -33.392643 8.4380226 25 0 0 0 68.001717
15.585332 -33.107719 8.4612989 32 0 0 0 67.614525
26.904667 -28.413811 8.1000576 20 0 0 0 62.512821
27.812302 -27.967569 8.164608 25 0 0 0 62.123886
32.828568 1.4733545 8.3795853 16 0 0 0 48.815128
-26.793324 8.6461391 8.4908962 71 0 0 0 4.2948198
-25.547171 8.935667 8.1610785 40 0 0 0 4.67981
-23.843311 9.6727772 8.38937 10 0 0 0 5.4643302
-20.861006 14.411523 8.2499075 75 0 0 0 8.9684
-21.024996 15.295615 8.4578094 55 0 0 0 9.3599195
-21.338903 16.326542 8.075799 87 0 0 0 9.7526503
-21.54104 17.330776 8.3077736 64 0 0 0 10.13379
21.580055 17.515663 8.3980188 36 0 0 0 38.65984
23.15675 17.86278 8.1185837 21 0 0 0 39.049622
24.422987 17.902683 8.4079533 22 0 0 0 39.441967
27.695753 18.282934 8.393033 22 0 0 0 40.223328
30.373188 18.994858 8.1809874 6 0 0 0 40.61245
31.983088 18.928236 8.4895134 18 0 0 0 40.998981
34.274448 19.155352 8.0097466 11 0 0 0 41.392738
-22.147718 19.678873 8.1718531 53 0 0 0 10.921329
-22.471962 20.971212 8.4755516 36 0 0 0 11.302299
-22.832081 22.372272 8.0201101 56 0 0 0 11.69058
-33.141453 34.127014 8.4276943 16 0 0 0 12.08208
-20.226639 -42.832165 8.5406466 21 0 0 0 81.717262
-7.1233859 -40.992825 8.5483236 15 0 0 0 77.400993
-16.608799 -40.147942 8.9086533 16 0 0 0 80.922112
-14.12669 -39.517872 8.6093035 31 0 0 0 80.144646
-8.5486183 -38.082172 8.9726429 23 0 0 0 78.188141
-0.95932055 -38.250965 8.8116369 19 0 0 0 75.057777
1.8129647 -37.47868 8.6473942 20 0 0 0 73.88092
2.7263894 -37.380707 8.6395369 32 0 0 0 73.485748
3.628087 -37.178028 8.6126308 23 0 0 0 73.092834
6.2828245 -36.447762 8.5332861 14 0 0 0 71.927322
-24.573444 9.2794781 8.5663147 27 0 0 0 5.0652099
-23.738945 9.6232042 8.977519 10 0 0 0 5.4643302
-22.854418 9.9183722 8.7298021 11 0 0 0 5.8463101
-20.646809 13.523768 8.6355848 80 0 0 0 8.5803499
-20.850279 14.395798 8.8629713 59 0 0 0 8.9684
-21.338236 16.334511 8.7394762 67 0 0 0 9.7526503
-21.460386 17.274494 8.957449 37 0 0 0 10.13379
22.892643 17.668407 8.7391052 25 0 0 0 39.049622
-21.787615 18.423044 8.5715733 68 0 0 0 10.52199
25.955399 18.065327 8.7820044 22 0 0 0 39.834042
29.651369 18.547129 8.8467617 18 0 0 0 40.61245
34.263489 19.160492 8.9693432 14 0 0 0 41.392738
79.143539 19.351793 8.622138 8 0 0 0 45.685993
-22.165724 19.69083 8.9045134 27 0 0 0 10.921329
37.037689 19.524799 8.5428181 9 0 0 0 41.787048
-22.848343 22.391312 8.8186855 29 0 0 0 11.69058
-33.063583 35.752972 8.6239738 12 0 0 0 12.47759
-33.112732 37.608101 8.8702717 12 0 0 0 12.8644
-17.80571 -40.226139 9.0179739 23 0 0 0 81.318512
-2.9135909 -39.294601 9.0692053 15 0 0 0 75.834763
-7.6946115 -38.682964 9.068594 16 0 0 0 77.791595
6.2801967 -36.43269 9.4379482 14 0 0 0 71.927322
7.8965926 -35.371025 9.2562933 25 0 0 0 71.139343
10.417402 -34.520779 9.2148418 45 0 0 0 69.959778
11.262105 -34.26395 9.2187767 41 0 0 0 69.573586
12.98446 -33.824986 9.2638817 34 0 0 0 68.785843
14.721753 -33.369141 9.3283443 30 0 0 0 68.001717
-26.783134 8.6507797 9.1823435 34 0 0 0 4.2948198
-24.464176 9.2309408 9.1662035 35 0 0 0 5.0652099
-22.307352 9.6825972 9.1146984 61 0 0 0 5.8463101
-21.82362 10.110579 9.0130396 13 0 0 0 6.2319999
-20.665403 13.538362 9.2466898 20 0 0 0 8.5803499
-20.837389 14.389297 9.4759626 62 0 0 0 8.9684
-21.001047 15.269444 9.0807381 40 0 0 0 9.3599195
-21.355715 16.338707 9.4016495 70 0 0 0 9.7526503
21.617775 17.542526 9.1005325 34 0 0 0 38.65984
22.745457 17.551306 9.3931923 16 0 0 0 39.049622
24.393456 17.890345 9.1432476 18 0 0 0 39.441967
-21.757942 18.407112 9.2642879 20 0 0 0 10.52199
27.674629 18.271999 9.2109661 18 0 0 0 40.223328
31.81498 18.832119 9.3533649 8 0 0 0 40.998981
39.991718 19.845911 9.111227 7 0 0 0 42.170712
-22.507631 21.000179 9.2428055 31 0 0 0 11.302299
-19.730892 49.363514 9.3790083 12 0 0 0 18.3365
-7.0965333 -40.879871 9.5402803 12 0 0 0 77.400993
-8.5491629 -38.084206 9.9315825 30 0 0 0 78.188141
2.7262673 -37.380268 9.560029 21 0 0 0 73.485748
3.6347256 -37.246727 9.5477304 26 0 0 0 73.092834
