# .PCD v0.7 - Point Cloud Data file format
VERSION 0.7
FIELDS x y z intensity normal_x normal_y normal_z curvature
SIZE 4 4 4 4 4 4 4 4
TYPE F F F F F F F F
COUNT 1 1 1 1 1 1 1 1
WIDTH 906
HEIGHT 1
VIEWPOINT 0 0 0 1 0 0 0
POINTS 906
DATA ascii
15.428967 -0.20297799 -0.61484325 64.5 0 0 0 49.833481
-6.148212 0.14785667 -0.80059797 101 0 0 0 0
-5.1333709 0.30850402 -0.78200686 34.5 0 0 0 0.59006
-4.5214391 0.10807353 -0.79048997 17 0 0 0 0
-4.265625 0.40847933 -0.79443085 13 0 0 0 1.18012
3.9796791 0.4435637 -0.73379523 46 0 0 0 47.883133
4.0175319 0.19611782 -0.73697948 36 0 0 0 48.859127
4.5648799 0.27907714 -0.7257399 63.5 0 0 0 48.663002
5.3188806 0.25992996 -0.72023612 168 0 0 0 48.859131
6.3739629 0.31161648 -0.70957923 103.66666 0 0 0 48.859131
8.1002026 0.29375541 -0.7083202 121 0 0 0 49.056229
10.475554 0.24984786 -0.66450256 182 0 0 0 49.254353
15.286913 0.36441574 -0.60920519 71 0 0 0 49.254353
-7.4314742 0.90073878 -0.80477214 153 0 0 0 1.56971
-6.0753021 0.7344107 -0.79737335 112 0 0 0 1.5680367
-5.089963 0.80134058 -0.78432435 69.75 0 0 0 2.1520627
-4.42134 0.74642545 -0.78508544 22 0 0 0 2.3473101
3.9508586 0.79385227 -0.7394774 21 0 0 0 46.512623
4.4596939 0.8160584 -0.71985346 65.666664 0 0 0 46.771332
4.5174656 0.73131561 -0.72694242 26 0 0 0 47.104744
5.2854147 0.72100729 -0.72209656 58 0 0 0 47.489143
6.3078732 0.78103995 -0.70699596 99 0 0 0 47.685162
8.2817326 0.71061814 -0.72746897 123.5 0 0 0 48.269779
10.422724 0.63488185 -0.6623435 170.5 0 0 0 48.661514
15.247829 0.73948926 -0.60831219 83 0 0 0 48.858101
-13.857273 1.3579377 -0.85851461 102 0 0 0 1.18012
-9.5033665 1.159964 -0.81038082 108 0 0 0 1.56971
-9.2907667 1.2867228 -0.64138883 110 0 0 0 1.82609
-7.3022399 1.2447456 -0.79647207 182.66667 0 0 0 2.34618
-6.0022397 1.0205468 -0.79335529 107 0 0 0 2.3433099
-5.9144821 1.301034 -0.78952593 144.33333 0 0 0 3.1290734
-5.0716896 1.1135739 -0.79119724 99 0 0 0 3.1283
-4.9092827 1.326739 -0.77445489 62 0 0 0 3.9063265
-4.2546682 1.2547374 -0.77756894 23.799999 0 0 0 4.2958779
3.7638619 1.2583975 -0.728302 51.400002 0 0 0 44.56414
4.3785653 1.2811813 -0.7249037 67.5 0 0 0 45.14917
5.1521282 1.2326132 -0.71736169 129.25 0 0 0 45.929596
6.1912704 1.2387515 -0.70247793 223.66667 0 0 0 46.514217
7.9050503 1.3743531 -0.70152235 194 0 0 0 46.9011
8.1859236 1.1115544 -0.72307289 157 0 0 0 47.490425
10.295063 1.138594 -0.65703309 210 0 0 0 47.883133
15.256032 1.3060148 -0.61058378 67.5 0 0 0 48.269779
-9.3327799 1.6788257 -0.72545248 135.33333 0 0 0 2.4758565
-7.121376 1.7527927 -0.788836 214.66667 0 0 0 3.5165131
-5.6869149 1.7629452 -0.77649993 110.25 0 0 0 4.490355
-4.7385879 1.7201593 -0.7686466 31.75 0 0 0 5.2702198
-4.0856166 1.6446886 -0.77296907 32.666668 0 0 0 5.8578529
-3.9610572 1.8781251 -0.77021098 42.5 0 0 0 6.8326402
3.4257383 1.916334 -0.72013593 29.5 0 0 0 41.626335
3.6599991 1.7125162 -0.7196269 91 0 0 0 42.764118
4.1514249 1.6790903 -0.71140003 93.25 0 0 0 43.585361
4.9167867 1.7078073 -0.70471579 202.5 0 0 0 44.368782
5.9256077 1.8115449 -0.68926913 334.33334 0 0 0 44.955143
6.0631886 1.5297204 -0.69550449 267 0 0 0 45.731247
7.6232285 1.7161661 -0.68277359 280.66666 0 0 0 46.124268
10.107862 1.7544856 -0.65092105 182.33333 0 0 0 46.902721
15.152282 1.86316 -0.60891825 101 0 0 0 47.691639
-9.5456991 2.1197512 -0.59088141 51 0 0 0 3.1283
-9.2185774 2.2037475 -0.72424549 158 0 0 0 3.3880799
-8.7723494 2.3974617 -0.76895058 244 0 0 0 3.90327
-6.9082756 2.2421782 -0.7816298 230.33333 0 0 0 4.6860499
-5.6218324 2.1238515 -0.78495914 103 0 0 0 5.4627199
-5.3831787 2.3353891 -0.76627892 73 0 0 0 6.2483768
-4.5854402 2.0493255 -0.76673305 38.5 0 0 0 6.4436903
-4.3811722 2.3501287 -0.76008821 67.5 0 0 0 7.6159101
-3.7480266 2.240298 -0.76964599 37.5 0 0 0 8.396493
3.20541 2.2404945 -0.71801645 57 0 0 0 40.065243
3.8560078 2.2152085 -0.70680845 134 0 0 0 41.433189
4.6764073 2.2372029 -0.70240605 187.8 0 0 0 42.606773
5.7456174 2.236068 -0.6860612 334.33334 0 0 0 43.782497
7.3610139 2.2435989 -0.67231464 303 0 0 0 44.955143
10.005815 2.2507982 -0.65089017 150 0 0 0 46.123699
15.003551 2.2213004 -0.60494065 117 0 0 0 47.289207
-20.188171 2.7324805 -0.78143764 36 0 0 0 1.7619951
-12.98934 2.5645413 -0.81537193 115 0 0 0 2.7409501
-9.3888378 2.5684845 -0.58851379 19 0 0 0 3.90327
-8.8476677 2.7682135 -0.78529513 241 0 0 0 4.4927197
-6.6437244 2.7026625 -0.77256507 195.66667 0 0 0 5.8578529
-6.4339557 2.9882097 -0.76435626 77 0 0 0 6.6342902
-5.1665964 2.7011549 -0.76240462 108.33334 0 0 0 7.4195971
-4.9806294 2.9185641 -0.75520593 103 0 0 0 8.2048502
-4.1748738 2.7179079 -0.76333094 103.33334 0 0 0 8.9821033
-3.8030546 2.790406 -0.75641745 70.666664 0 0 0 9.8910265
-3.2658138 2.794157 -0.7604847 32 0 0 0 11.12848
2.8216724 2.7464454 -0.72321337 63.666668 0 0 0 37.522549
3.3243313 2.7786584 -0.71255523 132.25 0 0 0 38.697311
3.6053982 2.5798399 -0.70434672 72.333336 0 0 0 39.869564
4.3924565 2.742949 -0.70179701 213.75 0 0 0 40.847336
5.5816464 2.7523336 -0.69337034 353.5 0 0 0 42.410412
7.3106709 2.732677 -0.68263233 320.5 0 0 0 43.977638
9.9173203 2.7515361 -0.65376496 310.66666 0 0 0 45.343662
14.787395 2.7508116 -0.59999585 122 0 0 0 46.709473
-19.781086 3.4196618 -0.76994735 37 0 0 0 2.3433099
-8.7143383 3.0789645 -0.78331929 242 0 0 0 5.07271
-8.4403706 3.4510756 -0.77321589 227 0 0 0 5.8577499
-6.1919408 3.2479889 -0.75378019 127.66666 0 0 0 7.4195962
-4.7264357 3.2510421 -0.75209767 107.2 0 0 0 9.3723278
-3.7052314 3.1833868 -0.75046718 78.75 0 0 0 11.12674
-3.4511366 3.4317851 -0.74886978 99.5 0 0 0 12.302
-2.7545469 3.23295 -0.75479877 31.428572 0 0 0 13.668178
-2.4090586 3.4556329 -0.74954724 13 0 0 0 15.22727
1.9424444 3.45801 -0.72556484 70 0 0 0 33.017868
2.2153208 3.2469592 -0.72012985 74.599998 0 0 0 34.383316
2.9460049 3.4069624 -0.71553862 202 0 0 0 36.144348
3.1697838 3.1551404 -0.71076071 206.5 0 0 0 37.324356
3.9920042 3.4982736 -0.71996295 451 0 0 0 38.310162
4.1656094 3.217114 -0.71391773 306.75 0 0 0 39.282272
5.3777943 3.2586901 -0.70112848 423 0 0 0 41.041515
7.1587796 3.1931839 -0.68625492 444.66666 0 0 0 42.997482
9.7079449 3.3506126 -0.65267485 395.5 0 0 0 44.369919
14.567591 3.2714312 -0.59560841 141 0 0 0 46.123699
-19.635811 3.8900762 -0.76804841 45 0 0 0 2.7409501
-12.46279 3.7492893 -0.80200726 129 0 0 0 4.29774
-9.178298 3.8884249 -0.6060375 48.5 0 0 0 6.0554199
-8.5557728 3.9958162 -0.57249421 108 0 0 0 6.6342902
-8.2113285 3.7109365 -0.76434851 249.5 0 0 0 6.4436903
-7.9700017 3.957504 -0.75493264 238 0 0 0 7.0309901
-5.825841 3.7163723 -0.74621642 120.75 0 0 0 8.7877893
-4.25811 3.7627361 -0.74701893 143.8 0 0 0 11.32266
-3.1799059 3.6589515 -0.74751639 95.25 0 0 0 13.471373
-2.8595448 3.9190998 -0.74985629 110.33334 0 0 0 14.840457
-2.1945302 3.596647 -0.75151527 75 0 0 0 16.205603
-1.7817961 3.8027511 -0.75180453 92.199997 0 0 0 17.965763
-1.3943475 3.9381506 -0.74976403 72.333336 0 0 0 19.528427
0.70716125 3.961813 -0.73199552 116 0 0 0 27.742254
1.2287792 3.8011265 -0.72885925 95.666664 0 0 0 29.888367
1.6738358 3.5825922 -0.72257406 53.25 0 0 0 31.8419
2.4199009 3.8276353 -0.71860725 164 0 0 0 33.796562
2.704067 3.6432049 -0.72088128 289 0 0 0 34.97036
3.755964 3.7296364 -0.71811771 356.25 0 0 0 37.324356
5.1768279 3.6902616 -0.70944452 377.33334 0 0 0 39.869564
5.7257504 3.8629818 -0.60161567 817 0 0 0 40.264809
7.0288043 3.785156 -0.69996309 341.66666 0 0 0 41.824844
7.5886197 3.8435469 -0.5359199 691 0 0 0 42.221859
9.5493908 3.8340216 -0.65449882 279 0 0 0 43.58667
12.067703 3.9949944 -0.50289208 108 0 0 0 44.565689
14.546327 3.645263 -0.59860361 96 0 0 0 45.731247
-19.43742 4.3460259 -0.76441079 45 0 0 0 3.1283
-12.177935 4.1535492 -0.79308611 162 0 0 0 4.8802052
-7.7054839 4.3040433 -0.74958867 232.66667 0 0 0 7.810883
-5.5778937 4.0551624 -0.74553025 47 0 0 0 9.7577496
-5.3162141 4.2733083 -0.73800105 122.33334 0 0 0 10.54218
-3.7695007 4.2517409 -0.74950087 259.20001 0 0 0 13.276629
-2.6130013 4.0818071 -0.75035942 317 0 0 0 15.818405
-2.2621701 4.3040538 -0.75537533 242.39999 0 0 0 17.181793
-1.820366 4.4760003 -0.75233936 209.66667 0 0 0 18.74828
-1.1103595 4.0651894 -0.75846004 108.66666 0 0 0 20.702436
-0.74465501 4.0632172 -0.74477625 54.5 0 0 0 22.067614
0.4151071 4.0388317 -0.73694998 29 0 0 0 26.566139
0.91984534 4.4537358 -0.66179645 24 0 0 0 28.135
1.4082191 4.4953566 -0.74552941 172 0 0 0 29.68951
1.7353632 4.3703918 -0.745646 160.8 0 0 0 30.865925
2.2284875 4.2536521 -0.65502656 179.3 0 0 0 32.506527
2.7614167 4.3565292 -0.63338006 238.25 0 0 0 33.797218
3.3066502 4.3248725 -0.6706202 418.83334 0 0 0 35.167145
3.6619596 4.2177205 -0.68782163 411.5 0 0 0 36.144348
4.2009921 4.2631426 -0.59185219 419.66666 0 0 0 37.127506
4.7594051 4.199398 -0.6455484 464.20001 0 0 0 38.228802
5.1573048 4.1408691 -0.62872392 429.66666 0 0 0 38.958851
5.7094955 4.1663074 -0.61657262 450 0 0 0 39.67194
6.4793258 4.1367998 -0.67308438 375 0 0 0 40.648609
6.8032088 4.1088157 -0.59766275 367.5 0 0 0 41.04282
7.2489142 4.1348853 -0.52546245 333 0 0 0 41.433121
7.6824174 4.1321182 -0.55058384 300 0 0 0 41.819553
8.7017527 4.1362143 -0.61117357 213 0 0 0 42.606281
9.3003483 4.1405997 -0.64743751 255 0 0 0 42.993961
12.02376 4.3122883 -0.50579393 104 0 0 0 44.174152
13.903135 4.2225533 -0.57940382 185 0 0 0 44.954159
14.454819 4.0033021 -0.59895194 112 0 0 0 45.345581
-18.902836 4.7128968 -0.74719334 108 0 0 0 3.5179701
-12.14067 4.6430087 -0.80247509 79 0 0 0 5.4627199
-7.3098884 4.8133121 -0.74447608 259.66666 0 0 0 8.9821043
-5.1119218 4.535759 -0.74036175 183 0 0 0 11.32414
-4.8667793 4.7612786 -0.7385475 325.33334 0 0 0 12.105953
-3.2630856 4.7339163 -0.76151079 383.39999 0 0 0 15.231636
-1.5967176 4.5537047 -0.75223964 185 0 0 0 19.52976
-1.2650518 4.6931176 -0.76017106 199.39999 0 0 0 20.700523
-0.85151547 4.8568482 -0.67144376 100.5 0 0 0 22.134256
0.76929814 4.6793375 -0.63303494 186.77777 0 0 0 27.480762
1.2393312 4.6030245 -0.62690204 268.45456 0 0 0 29.055275
1.7441095 4.5521374 -0.59513652 285.5 0 0 0 30.669203
2.0567527 4.5088434 -0.60612851 229 0 0 0 31.652809
-9.0520296 5.3627806 -0.64495569 43 0 0 0 8.2048502
-7.0199695 5.1287379 -0.74007511 239 0 0 0 9.7577496
-6.7905836 5.3514738 -0.73655915 238 0 0 0 10.349525
-4.6029654 5.0875673 -0.74569857 372.5 0 0 0 13.081495
-4.43397 5.2765155 -0.74997705 623 0 0 0 13.66399
-2.7128656 5.1996908 -0.696365 477 0 0 0 17.183765
-2.2999637 5.3174672 -0.70000893 447.66666 0 0 0 18.355299
-1.7450207 5.2030058 -0.66304946 321.5 0 0 0 19.724514
-1.2373326 5.0961523 -0.63334203 287 0 0 0 21.091238
-0.83210325 5.0041184 -0.67522049 202 0 0 0 22.268841
-18.535076 5.5944338 -0.74314266 40 0 0 0 4.29774
-18.085302 5.9432669 -0.73043269 48 0 0 0 4.6876998
-11.170193 5.7409897 -0.77669096 103 0 0 0 7.2241449
-8.8513937 5.5389533 -0.64027035 46 0 0 0 8.5889902
-8.416934 5.5543423 -0.6174261 65 0 0 0 8.9846601
-6.5648456 5.5738721 -0.7341944 38 0 0 0 10.92749
-6.3502951 5.8039799 -0.73420662 227.5 0 0 0 11.518999
-5.2319837 5.9489775 -0.67468911 942 0 0 0 13.277369
-4.5165782 5.9564948 -0.63549244 484 0 0 0 14.45579
-4.2933154 5.7261 -0.73761326 543 0 0 0 14.547729
-3.8428495 5.7521124 -0.6705088 589.75 0 0 0 15.427296
-3.2691166 5.5928822 -0.62654942 581.16669 0 0 0 16.398363
-17.783939 6.3288774 -0.72470438 67 0 0 0 5.07271
-11.209255 6.2915444 -0.79683042 69 0 0 0 7.8105001
-6.1522479 6.2043552 -0.74738216 302.5 0 0 0 12.302
-5.2505507 6.2763796 -0.69876975 269 0 0 0 13.66399
-4.8757501 6.1204457 -0.66678393 352 0 0 0 14.05851
-17.557447 6.7354302 -0.7226128 58 0 0 0 5.4627199
-9.9152145 6.9110432 -0.74903142 83 0 0 0 9.3726597
-6.0341625 6.5469871 -0.76310664 302 0 0 0 12.88562
-17.214613 7.0903215 -0.71581507 60 0 0 0 5.8577499
-16.875931 7.4373775 -0.70949137 53 0 0 0 6.2530899
-9.693181 7.1133618 -0.74549854 72 0 0 0 9.7577496
-9.3338499 7.3880606 -0.73861647 134 0 0 0 10.349525
-8.273509 7.0493274 -0.67151052 122 0 0 0 10.92749
-8.6886768 7.7840114 -0.72433293 56 0 0 0 11.32414
-7.6378741 7.5378957 -0.66400594 647 0 0 0 12.10634
-16.437834 8.2249212 -0.70859432 45 0 0 0 7.0309901
-8.5544128 8.0494509 -0.73018754 162 0 0 0 11.71386
-16.140598 8.5750513 -0.70516282 63 0 0 0 7.4172997
-15.855182 8.9264488 -0.70262527 57 0 0 0 7.8105001
-15.568208 9.2726517 -0.70036477 67 0 0 0 8.2048502
-15.27547 9.6112661 -0.69816566 70 0 0 0 8.5889902
-14.728831 10.30475 -0.69677967 48 0 0 0 9.3726597
-14.296839 10.531235 -0.68856567 82 0 0 0 9.7577496
-13.952384 10.81295 -0.68501759 62 0 0 0 10.15758
-13.638237 11.11334 -0.68332803 67 0 0 0 10.54147
-12.754215 11.758422 -0.67508554 73 0 0 0 11.518999
-28.508415 17.030617 -0.5074783 19 0 0 0 8.2048502
-0.70897293 -14.039395 -0.21006522 173 0 0 0 75.459808
-2.6516571 -11.74195 -0.17445302 373 0 0 0 78.194862
-21.057877 -10.60192 -0.37468898 106 0 0 0 92.27668
-20.51944 -10.969993 -0.36934075 53 0 0 0 91.887711
-23.672251 -10.495621 -0.41505399 57 0 0 0 93.06115
-19.362404 -9.1602449 -0.33706942 153 0 0 0 92.668716
4.2779012 -9.1145973 -0.38688743 214 0 0 0 67.629616
-2.1800222 -8.6410818 -0.33717394 138 0 0 0 78.589211
-1.5318232 -8.7288647 -0.33518887 245 0 0 0 77.416687
0.61776751 -8.6657171 -0.11602776 191 0 0 0 73.497513
3.9564323 -8.9982576 -0.37677225 194 0 0 0 68.016029
-5.6238952 -8.4043779 -0.38717765 209 0 0 0 84.05368
-2.2830491 -8.2016811 -0.11268967 204 0 0 0 78.972153
-0.60963148 -8.0035877 -0.30025309 130 0 0 0 75.850685
29.144354 -8.0948143 -0.4949885 24 0 0 0 53.940418
-5.0787206 -7.591795 -0.1232183 228 0 0 0 84.05368
-2.29777 -7.5281725 -0.29343924 223 0 0 0 79.361214
-1.3223655 -7.5238991 -0.47061303 223 0 0 0 77.416687
1.2951995 -7.6010003 -0.098966897 132 0 0 0 71.933952
1.7168392 -7.7628689 -0.29738966 187 0 0 0 71.154991
2.3639591 -7.8863831 -0.30940169 161 0 0 0 69.977203
-2.55074 -7.0927744 -0.27939144 222 0 0 0 80.147507
-2.0206044 -7.2488589 -0.27895451 111 0 0 0 78.972153
-1.4668162 -7.2992148 -0.094057254 214 0 0 0 77.803154
-0.91467714 -7.2710466 -0.4500218 183 0 0 0 76.639046
0.34372663 -7.4174552 -0.093905486 147 0 0 0 73.884598
0.68611109 -7.1877303 -0.090331443 153 0 0 0 73.108322
1.8629816 -7.1771545 -0.45649317 495.5 0 0 0 70.565147
2.7781534 -7.2800384 -0.29106867 156 0 0 0 68.80368
3.3553147 -7.161993 -0.48991385 503 0 0 0 67.629616
-4.9655967 -6.6863918 -0.31233785 142 0 0 0 84.842415
-2.8762732 -6.6864457 -0.18039517 204 0 0 0 81.131378
-1.6614023 -6.5780602 -0.082443677 245 0 0 0 78.589211
-1.1566612 -6.905302 -0.31443319 148.33333 0 0 0 77.285629
-0.72946006 -6.712831 -0.19533493 252.33333 0 0 0 76.374184
-0.075099118 -6.6619306 -0.29964468 248.66667 0 0 0 74.800285
0.22518918 -6.6450524 -0.24525227 209.5 0 0 0 74.085663
0.79957086 -6.6734152 -0.41002667 240 0 0 0 72.713837
1.1964146 -6.5635309 -0.32467765 266 0 0 0 71.737961
1.882812 -6.8975921 -0.089251101 283 0 0 0 70.372566
2.2573633 -6.6462688 -0.43038675 258 0 0 0 69.384277
2.7513254 -6.7167168 -0.31416881 420 0 0 0 68.410133
-9.7124348 -6.1524549 -0.1641362 155 0 0 0 90.723091
-6.4037223 -6.0938435 -0.33369622 327 0 0 0 87.588448
-4.3002081 -6.0982981 -0.09397576 268 0 0 0 84.446861
-3.6941936 -6.2365866 -0.22497062 294.75 0 0 0 83.185028
-3.2465372 -6.2406406 -0.1720638 336.5 0 0 0 82.301987
-2.6900105 -6.2546034 -0.33417946 254.5 0 0 0 81.131378
-2.0114341 -6.0525808 -0.075260229 167 0 0 0 79.763504
-1.875116 -6.3249803 -0.29472825 210 0 0 0 79.231529
-1.2565011 -6.2147818 -0.154494 207.5 0 0 0 77.805771
-0.63601977 -6.2734299 -0.30276269 183.5 0 0 0 76.244995
-0.20199513 -6.1709976 -0.22304919 166 0 0 0 75.141861
0.32542625 -6.3034062 -0.30722988 176.25 0 0 0 73.791588
0.78898519 -6.2778397 -0.30687034 210.25 0 0 0 72.620239
1.2711556 -6.3146729 -0.27403265 220.25 0 0 0 71.44648
1.7540177 -6.2875586 -0.11811186 257.25 0 0 0 70.26799
2.232677 -6.3155298 -0.16302952 222.5 0 0 0 69.190376
2.6805882 -6.325676 -0.25076506 242.5 0 0 0 68.213219
3.0345149 -6.4800406 -0.089637011 229 0 0 0 67.629616
14.330223 -6.3800211 -0.23932974 313 0 0 0 56.282879
17.142937 -6.1600509 -0.28388235 72 0 0 0 55.114166
18.706457 -6.2057881 -0.31015038 180 0 0 0 54.718792
-9.8666039 -5.5907817 -0.2999793 221.5 0 0 0 91.503937
-8.2086382 -5.6815286 -0.29996228 306.66666 0 0 0 90.069069
-7.8378859 -5.8132668 -0.25162113 283 0 0 0 89.5438
-7.222579 -5.6365709 -0.233771 279.5 0 0 0 89.152283
-6.5522861 -5.794076 -0.32980883 270.5 0 0 0 88.17131
-6.2588849 -5.6724229 -0.1110227 326 0 0 0 87.974197
-5.6445184 -5.6417036 -0.2190578 219.8 0 0 0 87.20079
-5.1763954 -5.7072392 -0.28733125 317.75 0 0 0 86.417313
-4.6307573 -5.6342063 -0.40369111 451.5 0 0 0 85.624229
-4.2958941 -5.7231216 -0.26355258 297.20001 0 0 0 84.918182
-3.6844833 -5.6213369 -0.2778652 321 0 0 0 83.90197
-3.2620423 -5.8533759 -0.35338521 294.33334 0 0 0 82.762505
-2.7517219 -5.7917457 -0.29378095 385.39999 0 0 0 81.719727
-2.1986527 -5.7544489 -0.16084382 252.39999 0 0 0 80.460304
-1.9112874 -5.7461934 -0.21724042 269 0 0 0 79.763504
-1.3107728 -5.7694468 -0.35602012 99 0 0 0 78.194862
-0.74850965 -5.9313793 -0.14096393 157 0 0 0 76.639046
-0.45444304 -5.9225101 -0.067805819 169 0 0 0 75.850685
0.12478846 -5.9335194 -0.21254547 171 0 0 0 74.286728
0.70976561 -5.931746 -0.11680359 138 0 0 0 72.717186
1.1552824 -5.9286737 -0.069726579 275 0 0 0 71.541962
1.7002465 -5.955709 -0.2999301 151 0 0 0 70.174881
10.010467 -5.7006736 -0.16624068 284 0 0 0 57.838928
11.099214 -5.6151266 -0.18238702 110 0 0 0 57.062222
11.723726 -5.5724378 -0.19191594 109 0 0 0 56.666641
13.585062 -5.6535239 -0.22238654 17 0 0 0 55.887661
18.882195 -5.7528872 -0.31072232 19 0 0 0 54.334641
-9.860096 -5.270844 -0.43174833 261 0 0 0 91.887711
-8.792944 -5.2716823 -0.26571482 130.5 0 0 0 91.110168
-8.2920017 -5.3953605 -0.25720602 235.5 0 0 0 90.530128
-6.6584001 -5.4631057 -0.324164 298 0 0 0 88.755188
-6.3441877 -5.3372474 -0.10828453 228 0 0 0 88.561798
-5.6175127 -5.3456731 -0.47784814 153 0 0 0 87.588448
-5.1988378 -5.4565883 -0.27908751 340 0 0 0 86.805054
-4.7352114 -5.4859285 -0.090148054 467 0 0 0 86.021873
-4.4544635 -5.4234343 -0.086170331 450 0 0 0 85.622719
2.6943879 -5.1872973 -0.22880562 197.42857 0 0 0 66.960258
3.3412113 -5.185884 -0.072634324 187 0 0 0 65.483017
3.6346016 -5.0781069 -0.15010929 288 0 0 0 64.693542
8.9132557 -5.0806518 -0.39561453 280 0 0 0 57.838928
9.9146194 -5.3304763 -0.43750319 578 0 0 0 57.453487
10.243326 -5.3423195 -0.31002757 226 0 0 0 57.257854
11.299734 -5.3742027 -0.49032626 492 0 0 0 56.666641
12.921648 -5.0094123 -0.20747803 99 0 0 0 55.498138
-19.339325 -4.846837 -0.31111553 10 0 0 0 95.801041
2.7974317 -4.7717819 -0.29523274 171.81818 0 0 0 66.134766
3.2408736 -4.7732759 -0.34754929 160.66667 0 0 0 65.089912
3.7697484 -4.8432488 -0.22234263 352.375 0 0 0 64.05957
4.2515373 -4.8484845 -0.23499469 763.83331 0 0 0 63.123333
4.7639141 -4.8019238 -0.24874608 477 0 0 0 62.149605
5.3170567 -4.8575869 -0.26405707 466 0 0 0 61.368526
5.7397685 -4.8136554 -0.30607113 633.28571 0 0 0 60.698483
6.2499528 -4.8295889 -0.23110355 796.66669 0 0 0 60.064423
6.744616 -4.865088 -0.17864466 503.33334 0 0 0 59.541595
7.2255526 -4.8604431 -0.2230334 455 0 0 0 59.013554
7.6986837 -4.9068208 -0.23608635 502 0 0 0 58.625553
8.0535774 -4.8579273 -0.24405888 313 0 0 0 58.240311
-19.273376 -4.3304515 -0.30791357 811 0 0 0 96.180008
-19.242865 -3.829972 -0.30558413 42 0 0 0 96.57029
-19.186666 -3.3313661 -0.30303001 406 0 0 0 96.966789
-19.156246 -2.8435345 -0.3011575 439 0 0 0 97.366096
-19.129408 -2.3611412 -0.29956684 499 0 0 0 97.753448
-19.093485 -1.8820515 -0.29803097 447 0 0 0 98.136871
-19.059578 -1.4071559 -0.2967408 449 0 0 0 98.526772
29.612757 -0.017394649 -0.48615682 17 0 0 0 49.640888
28.355383 1.3786355 -0.46520633 16 0 0 0 48.858101
-22.514421 2.2114859 -0.32163304 277 0 0 0 1.18012
-8.7968235 2.4037449 -0.21853086 10 0 0 0 3.90327
28.318419 2.0757024 -0.46561849 14 0 0 0 48.464928
-22.480639 2.7636769 -0.32246736 288 0 0 0 1.56971
26.608526 2.6097229 -0.43669698 11 0 0 0 48.074631
-22.453012 3.3185089 -0.32362503 168 0 0 0 1.95428
23.537298 3.48476 -0.3853828 27 0 0 0 47.289207
28.276581 3.4767816 -0.46797097 16 0 0 0 47.691639
-22.396814 3.8711009 -0.3245528 211 0 0 0 2.3433099
4.8325729 3.9142199 -0.23043956 76.5 0 0 0 38.892605
5.3500252 3.9072063 -0.2475087 39.5 0 0 0 39.67194
5.6996489 3.845669 -0.4274728 788 0 0 0 40.264809
7.5987687 3.8487704 -0.32690042 541 0 0 0 42.221859
9.2198524 3.8373988 -0.14320265 19 0 0 0 43.392208
10.96025 3.9350913 -0.17227244 11 0 0 0 44.174152
22.099295 3.8300946 -0.36156324 18 0 0 0 46.9011
-22.352411 4.4280329 -0.32590511 186 0 0 0 2.7409501
-8.5920105 4.0123253 -0.23086891 902 0 0 0 6.6342902
0.91670519 4.4394898 -0.38047916 104 0 0 0 28.135
1.2646919 4.4220915 -0.27338099 48.200001 0 0 0 29.30312
1.7802181 4.3734417 -0.28236669 15 0 0 0 30.998316
2.3181825 4.4467554 -0.25689742 369.36365 0 0 0 32.463219
2.7405374 4.402102 -0.25586155 433.46155 0 0 0 33.662727
3.2628245 4.3525233 -0.26099166 603.33331 0 0 0 35.00972
3.7750854 4.2783284 -0.28006613 585.40002 0 0 0 36.263302
4.261096 4.2629437 -0.20220675 777.42859 0 0 0 37.238472
4.7204919 4.2276049 -0.23568273 769.16669 0 0 0 38.112537
5.184895 4.1966338 -0.2499495 777.75 0 0 0 38.892605
5.7073069 4.1656146 -0.2664656 658 0 0 0 39.67194
6.3516998 4.1441469 -0.25166366 505.20001 0 0 0 40.495087
6.8314261 4.1267424 -0.2065172 525 0 0 0 41.04282
7.2443967 4.1333523 -0.21717161 485.5 0 0 0 41.433121
7.6537132 4.1178594 -0.22768456 489.5 0 0 0 41.819553
8.1530952 4.1291618 -0.12867247 442 0 0 0 42.221859
8.6705704 4.1226444 -0.25450814 333.5 0 0 0 42.606281
9.2687254 4.1278067 -0.27164555 195 0 0 0 42.993961
9.9912434 4.1541357 -0.42374843 140 0 0 0 43.392208
10.857102 4.2022061 -0.31524271 87 0 0 0 43.781128
12.248653 4.0571809 -0.19436248 14 0 0 0 44.565689
13.934567 4.2349434 -0.22359885 27 0 0 0 44.954159
-22.315529 4.9899673 -0.32761177 160 0 0 0 3.1283
-1.7275342 4.948658 -0.30939293 32 0 0 0 19.52976
-0.92880952 4.8372283 -0.41151616 153 0 0 0 21.872709
0.88208961 4.689384 -0.225823 256.625 0 0 0 27.840658
1.2631112 4.6254778 -0.20822752 306.16666 0 0 0 29.108131
1.7659316 4.5648918 -0.22054955 391.23077 0 0 0 30.714001
2.0908852 4.5062537 -0.17684612 364 0 0 0 31.748928
-2.7245462 5.3632507 -0.2515305 575 0 0 0 17.353821
-2.293067 5.3041911 -0.27389345 504.08334 0 0 0 18.355299
-1.7392098 5.2045159 -0.25532979 461.13333 0 0 0 19.737495
-1.2365772 5.0991573 -0.24773932 367 0 0 0 21.091238
-0.89843261 5.0281076 -0.36513287 277 0 0 0 22.070774
-22.265383 5.5530171 -0.3293426 321 0 0 0 3.5179701
-8.381114 5.5305986 -0.37113526 41 0 0 0 8.9846601
-5.6853228 5.865283 -0.49593693 103 0 0 0 12.49766
-5.2474756 5.8190522 -0.33437228 369 0 0 0 13.081495
-4.6412468 5.8201141 -0.22403958 488.25 0 0 0 14.05989
-4.2648883 5.7357702 -0.25756451 386.20001 0 0 0 14.605845
-3.8457556 5.7583332 -0.24908628 790 0 0 0 15.427296
-3.2676105 5.5918345 -0.23135307 814.66669 0 0 0 16.398361
-6.1268959 6.3287392 -0.21758243 573.5 0 0 0 12.49766
-5.2668343 6.1427846 -0.39499626 213 0 0 0 13.47068
-4.8510914 6.0881433 -0.28371191 535 0 0 0 14.05851
24.142176 6.0453906 -0.4060733 18 0 0 0 45.731247
-22.170887 6.6952415 -0.3336426 315 0 0 0 4.29774
-6.3557067 6.900382 -0.120986 120 0 0 0 12.88562
-22.101946 7.2682238 -0.33581159 220 0 0 0 4.6876998
-8.2590694 7.0371161 -0.40671059 15 0 0 0 10.92749
-22.037857 7.8490996 -0.338756 220 0 0 0 5.07271
-7.6729999 7.5733218 -0.40526798 250 0 0 0 12.10634
-22.000328 8.4474754 -0.34248945 216 0 0 0 5.4627199
-21.952999 9.0514069 -0.34636027 265 0 0 0 5.8577499
-21.866257 9.6479549 -0.34984246 239 0 0 0 6.2530899
-20.279581 10.156858 -0.33193654 83 0 0 0 7.0309901
-20.669024 10.993996 -0.34478503 1109 0 0 0 7.4172997
-20.141905 11.35324 -0.34100226 392 0 0 0 7.8105001
-23.302731 16.343636 -0.43302235 43 0 0 0 9.3726597
-22.154551 16.359192 -0.4188475 42 0 0 0 9.7577496
-25.364824 16.884264 -0.46499944 87 0 0 0 8.9846601
-21.38566 16.614136 -0.41231412 64 0 0 0 10.15758
-20.687325 16.8985 -0.40720892 25 0 0 0 10.54147
-27.003609 17.039597 -0.4877837 54 0 0 0 8.5889902
-20.135771 18.163473 -0.4160127 24 0 0 0 11.32414
-19.837555 18.796511 -0.42054439 40 0 0 0 11.71386
-19.532953 19.438524 -0.42537847 26 0 0 0 12.10634
-7.8704286 -13.123146 0.14235128 264 0 0 0 83.28167
-5.311697 -13.251921 0.49098057 580.5 0 0 0 80.734741
-4.7664065 -13.286862 0.48575893 455 0 0 0 80.147507
-4.4106231 -13.312258 0.48278996 784 0 0 0 79.763504
-0.02029836 -13.042847 0.45124105 212 0 0 0 74.67067
-3.2433071 -12.89014 0.45934939 190 0 0 0 78.589211
-5.4618011 -12.297991 0.46482047 165 0 0 0 81.330284
-2.7195303 -12.043992 0.42919225 254 0 0 0 78.194862
-2.4104924 -12.051266 0.12095302 184 0 0 0 77.803154
-6.610538 -11.654787 0.4631483 266 0 0 0 82.895103
-6.2152052 -11.611482 0.45580557 248 0 0 0 82.497299
-5.8921013 -11.687119 0.45315382 401 0 0 0 82.106674
-21.225616 -11.352164 0.20459065 38 0 0 0 91.887711
-21.744648 -10.952322 0.20656958 38 0 0 0 92.27668
-19.473551 -9.2169561 0.18698786 117 0 0 0 92.668716
9.5927439 -8.7340946 0.44976854 62 0 0 0 61.368526
44.229198 -8.8235245 0.34692594 15 0 0 0 52.766113
-11.048275 -8.1965084 0.30361024 221.5 0 0 0 89.5438
-6.2703948 -8.0290565 0.36084753 256 0 0 0 85.229614
7.2739086 -8.06637 0.11069184 77 0 0 0 62.927078
32.515285 -8.1684618 0.2674109 21 0 0 0 53.543808
36.813614 -8.2910194 0.29632074 14 0 0 0 53.151951
-11.039189 -7.7760911 0.4672828 389 0 0 0 89.935028
-5.2341399 -7.8273034 0.10147887 212 0 0 0 84.05368
-2.3436537 -7.6840658 0.38993239 676 0 0 0 79.361214
0.35066837 -7.5594354 0.46162742 299 0 0 0 73.884598
4.3370752 -7.7104759 0.096650541 132 0 0 0 66.45211
5.5727077 -7.5597124 0.10026505 60 0 0 0 64.496338
27.16062 -7.5393686 0.23065306 36 0 0 0 53.940418
-1.9669997 -7.0649233 0.086695835 133 0 0 0 78.972153
-1.0626812 -7.0588698 0.26190498 301.66666 0 0 0 77.026871
-0.74263877 -7.3787112 0.087137945 165 0 0 0 76.244995
-0.19152106 -7.031878 0.25967675 426 0 0 0 75.059517
0.23988685 -7.0496092 0.26034647 322 0 0 0 74.085663
0.86382776 -7.1855364 0.26624066 180 0 0 0 72.713837
2.3504674 -7.1976409 0.27695763 73 0 0 0 69.579285
2.8357635 -7.4255915 0.38639396 292 0 0 0 68.80368
3.6374965 -7.0707197 0.28903389 175 0 0 0 67.044952
5.3472977 -7.2583332 0.3228671 17 0 0 0 64.496338
24.567339 -7.4756041 0.21340679 40 0 0 0 54.334641
-9.9173546 -6.6296597 0.26710317 225.5 0 0 0 90.337166
-8.5942822 -6.7091265 0.24847305 355.5 0 0 0 89.152283
-2.8919153 -6.5051107 0.085335545 298 0 0 0 81.330284
-1.256307 -6.6629181 0.16846648 268.5 0 0 0 77.609924
-0.75001115 -6.6172013 0.16488639 290 0 0 0 76.442017
-0.49967277 -6.5344281 0.24435085 108 0 0 0 75.850685
0.15200567 -6.9572072 0.083937317 171 0 0 0 74.286728
0.99742681 -6.8788962 0.25711966 491 0 0 0 72.329399
1.1568679 -6.8016295 0.19745366 306.33334 0 0 0 71.935104
1.8541291 -6.7892451 0.084453031 77 0 0 0 70.372566
2.7940657 -6.6554933 0.20659292 199.66667 0 0 0 68.278954
3.1513505 -6.7271442 0.27237499 264 0 0 0 67.629616
3.7576706 -6.6866174 0.1547332 202.33333 0 0 0 66.454437
4.1644077 -6.6268754 0.089550249 181 0 0 0 65.676956
5.4040313 -6.7398167 0.16745198 150.33333 0 0 0 63.850056
11.423624 -6.875906 0.12834588 166 0 0 0 58.240311
11.944954 -6.7947412 0.1311882 199 0 0 0 57.838928
12.394061 -6.6518946 0.13342859 194 0 0 0 57.453487
13.682696 -6.9138227 0.14218168 204 0 0 0 57.062222
14.165763 -6.7255964 0.14459033 99 0 0 0 56.666641
15.473097 -6.8838558 0.15324509 97 0 0 0 56.282879
-9.5518904 -6.0507989 0.39718449 256 0 0 0 90.723091
-4.3670554 -6.1954899 0.088727511 536 0 0 0 84.446861
-3.5616603 -6.276505 0.086105287 244 0 0 0 82.895103
-3.3300955 -6.4053373 0.086092122 403.5 0 0 0 82.301987
-2.7931862 -6.2797227 0.083641678 241 0 0 0 81.326508
-2.0667763 -6.2236733 0.081359215 193 0 0 0 79.763504
-1.8236725 -6.2479501 0.16242661 292.5 0 0 0 79.166687
-1.4688647 -6.4830041 0.081903674 147 0 0 0 78.194862
-0.79197919 -6.2875957 0.23746967 343 0 0 0 76.639046
-0.24871132 -6.2612772 0.079169229 178 0 0 0 75.26017
0.39484552 -6.3443542 0.13212763 203.66667 0 0 0 73.626541
0.68972582 -6.4030066 0.15951632 242.5 0 0 0 72.911079
1.4250084 -6.2200985 0.13490616 294 0 0 0 71.022575
1.7667873 -6.3222198 0.2037982 225 0 0 0 70.271172
2.2184231 -6.2789192 0.12412488 187 0 0 0 69.190376
2.7725427 -6.3186293 0.083378486 178 0 0 0 68.016029
3.0903785 -6.3913922 0.084712811 173 0 0 0 67.434845
3.9066758 -6.3951864 0.27441472 169.5 0 0 0 65.869156
4.2724161 -6.4429455 0.088847235 134 0 0 0 65.28907
19.41828 -6.437366 0.17733277 90 0 0 0 54.718792
-10.029222 -5.6840219 0.40432334 567 0 0 0 91.503937
-9.747798 -5.7381806 0.20858262 365 0 0 0 91.241425
-9.4481878 -5.9874477 0.11432444 470 0 0 0 90.723091
-8.0217295 -5.6532974 0.10467703 361 0 0 0 89.935028
-6.4423876 -5.6981359 0.20392895 126 0 0 0 88.17131
-5.8659697 -5.7232742 0.093211152 293.5 0 0 0 87.395966
-5.1825576 -5.7158909 0.089808077 347.66666 0 0 0 86.416039
-4.6303749 -5.7828627 0.087597013 420.5 0 0 0 85.426163
-4.2610989 -5.741179 0.085756853 466 0 0 0 84.842415
-3.7337058 -5.8883805 0.08445254 256 0 0 0 83.669762
-2.187144 -5.8590913 0.079283983 289.5 0 0 0 80.34227
-1.4651626 -5.7992978 0.07730981 128 0 0 0 78.589211
1.0881931 -5.9638615 0.077742592 170.5 0 0 0 71.737961
3.9658318 -5.6795392 0.25541514 705 0 0 0 64.890755
13.649746 -5.6774192 0.13828258 19 0 0 0 55.887661
-27.56418 -5.4900184 0.23326419 33 0 0 0 96.57029
-6.5361819 -5.366663 0.095120721 346 0 0 0 88.755188
4.8810983 -5.1675253 0.26255581 649 0 0 0 62.544193
5.9237857 -5.145679 0.28532168 384.33334 0 0 0 60.976795
6.0603204 -5.008812 0.47974437 486 0 0 0 60.587833
7.2240005 -5.118402 0.097222857 518 0 0 0 59.41124
7.7766051 -5.2259746 0.10082118 539 0 0 0 59.013554
4.0858274 -4.7790198 0.23540835 455 0 0 0 63.319592
4.8701234 -4.908062 0.18718055 566 0 0 0 62.149803
5.1526761 -4.8619628 0.25974542 400 0 0 0 61.625858
5.9532409 -4.9200792 0.18651684 754.5 0 0 0 60.587833
6.297327 -4.9478898 0.19209239 749.5 0 0 0 60.195473
6.5756159 -4.9083629 0.092707656 476 0 0 0 59.802311
7.8495259 -4.9994512 0.10039678 303 0 0 0 58.625553
12.714344 -4.7481356 0.12981549 58 0 0 0 55.306152
-19.259466 -4.3308396 0.174593 162 0 0 0 96.180008
-19.182615 -3.3340921 0.17272967 298 0 0 0 96.966789
-19.149288 -2.8458967 0.17196676 231 0 0 0 97.366096
-19.126469 -2.364145 0.171362 200 0 0 0 97.753448
-16.742069 -1.6534041 0.15419826 429 0 0 0 98.136871
-16.706247 -1.2364854 0.1537015 455 0 0 0 98.526772
40.13641 -0.015894514 0.31035897 45 0 0 0 49.640888
40.295094 0.97432035 0.31113452 29 0 0 0 49.254353
26.930552 1.9792311 0.21973139 27 0 0 0 48.464928
31.133518 1.5193443 0.24843347 16 0 0 0 48.858101
-22.525751 2.2088699 0.22799154 130 0 0 0 1.18012
-22.486086 2.7606144 0.22779007 280 0 0 0 1.56971
22.479473 2.7696059 0.18957339 31 0 0 0 47.691639
26.569767 2.6109703 0.2173527 255 0 0 0 48.074631
-22.428871 3.311182 0.22754988 175 0 0 0 1.95428
22.035183 3.2671163 0.18676841 186 0 0 0 47.289207
-22.397499 3.8674717 0.2276413 211 0 0 0 2.3433099
22.136995 3.8409126 0.18777969 96 0 0 0 46.9011
-22.353201 4.424427 0.22773071 220 0 0 0 2.7409501
2.3145368 4.4677644 0.19266665 402.88889 0 0 0 32.427727
2.7255025 4.4164367 0.19752678 476.66666 0 0 0 33.602959
3.2337706 4.3471532 0.2252638 647.15387 0 0 0 34.955513
3.7988005 4.2902274 0.19662702 826.75 0 0 0 36.293045
4.2534308 4.2569461 0.24458553 733 0 0 0 37.238472
4.715023 4.2244806 0.23382229 769.16669 0 0 0 38.112537
5.1750569 4.1902084 0.24438079 719.16669 0 0 0 38.892609
5.6900053 4.1766691 0.22191539 594 0 0 0 39.632755
6.3111024 4.1420312 0.17933168 687 0 0 0 40.456711
6.8376303 4.1323175 0.18787947 614 0 0 0 41.04282
7.2390299 4.1322403 0.19447272 492 0 0 0 41.433121
7.6624718 4.1245174 0.2018646 520.5 0 0 0 41.819553
8.1442547 4.1258173 0.21005026 436.5 0 0 0 42.221859
8.6689167 4.1240091 0.21921813 358.5 0 0 0 42.606281
9.2882309 4.1386962 0.23031723 264.5 0 0 0 42.993961
9.9998589 4.1602402 0.378912 200 0 0 0 43.392208
10.010447 4.1665082 0.1075134 215 0 0 0 43.392208
10.906258 4.2236753 0.25985697 164 0 0 0 43.781128
11.976729 4.2984514 0.43926868 74 0 0 0 44.174152
12.04864 4.3263154 0.1210097 96 0 0 0 44.174152
13.571465 4.4960918 0.1312627 49 0 0 0 44.565689
22.211096 4.4191504 0.18868728 127 0 0 0 46.517849
-22.321304 4.9874821 0.22804554 192 0 0 0 3.1283
0.90965801 4.6812363 0.18465821 319 0 0 0 27.938475
1.2606453 4.619823 0.18527764 279.16666 0 0 0 29.108131
1.7419428 4.5463004 0.18773161 410.75 0 0 0 30.669199
2.0544829 4.5036874 0.1901315 408.66666 0 0 0 31.652809
-2.7593868 5.454247 0.22939824 668.5 0 0 0 17.38146
-2.3069091 5.3348365 0.21952382 608.44446 0 0 0 18.355299
-1.7419682 5.1961007 0.20851882 551.75 0 0 0 19.724512
-1.2360277 5.092814 0.20047349 399.44446 0 0 0 21.091238
-0.96308482 5.0323224 0.25976044 320 0 0 0 21.872709
22.320807 5.0147085 0.1899295 114 0 0 0 46.123699
-22.269295 5.5501904 0.22830138 296 0 0 0 3.5179701
-5.3624606 5.8019543 0.094967514 570 0 0 0 12.88562
-4.6227708 5.8916454 0.15266331 676.33331 0 0 0 14.191856
-4.2277045 5.8606157 0.17808023 822.5 0 0 0 14.83831
-3.841274 5.7491965 0.17164528 803 0 0 0 15.427296
-3.23581 5.5793028 0.19497408 751.14288 0 0 0 16.454256
22.470833 5.6323762 0.19154391 78 0 0 0 45.731247
-22.212637 6.1160345 0.22863594 304 0 0 0 3.90327
-5.6997204 6.4905491 0.31392601 320 0 0 0 13.277369
-5.2409377 6.2635102 0.29842591 403 0 0 0 13.66399
-4.8526888 6.0885239 0.18964547 583.5 0 0 0 14.05851
22.562418 6.2489624 0.19285114 44 0 0 0 45.345581
-22.175934 6.6929021 0.22926316 289 0 0 0 4.29774
-6.3416214 6.7175355 0.22050846 135 0 0 0 12.69164
-5.7272668 6.5199804 0.10060017 317 0 0 0 13.277369
22.213186 6.7450185 0.19117731 26 0 0 0 44.954159
-22.128904 7.2732258 0.22992581 281 0 0 0 4.6876998
-22.083549 7.8615055 0.23029937 294 0 0 0 5.07271
-7.391809 7.6577291 0.37969404 22 0 0 0 12.49766
-22.035484 8.457037 0.23072426 226 0 0 0 5.4627199
-21.987951 9.0618267 0.23127455 275 0 0 0 5.8577499
-21.935722 9.6746359 0.23191524 269 0 0 0 6.2530899
-21.89633 10.304428 0.23283072 283 0 0 0 6.6342902
-21.828314 10.932692 0.23360857 247 0 0 0 7.0309901
-21.770697 11.578879 0.23464572 255 0 0 0 7.4172997
-20.698166 11.664298 0.22642164 96 0 0 0 7.8105001
-25.398371 16.900959 0.27730861 111 0 0 0 8.9846601
-28.894787 17.256208 0.30492544 52 0 0 0 8.2048502
-27.057209 17.06764 0.29033408 47 0 0 0 8.5889902
-25.447882 17.849457 0.28070548 147 0 0 0 9.3726597
-25.373434 18.741873 0.28316939 89 0 0 0 9.7577496
-25.194534 19.58218 0.28483599 5 0 0 0 10.15758
-25.525841 20.865223 0.29192546 6 0 0 0 10.54147
-25.486267 21.897657 0.29564512 6 0 0 0 10.92749
-24.796347 23.513309 0.29764089 6 0 0 0 11.71386
-24.858118 24.759342 0.30344304 76 0 0 0 12.10634
7.1906929 -13.515607 0.89816111 204 0 0 0 66.849831
-8.308156 -13.108509 0.53093076 497 0 0 0 83.669762
-7.8755856 -13.126563 0.52412528 422 0 0 0 83.28167
-6.238822 -13.169671 0.50048554 283 0 0 0 81.720551
-0.020316293 -13.093709 0.77304256 269 0 0 0 74.67067
17.96591 -13.364019 0.75052959 63 0 0 0 59.802311
18.555737 -13.107153 0.76103753 35 0 0 0 59.41124
-8.6784277 -12.978107 0.53393942 141 0 0 0 84.05368
-11.815137 -12.406796 0.5828529 255 0 0 0 86.805054
-6.9140024 -12.190359 0.82544237 132 0 0 0 82.895103
-5.6795578 -12.378727 0.8030687 198 0 0 0 81.525421
-3.3832524 -12.175452 0.74739009 328 0 0 0 78.972153
-2.7258143 -12.071941 0.73263711 323 0 0 0 78.194862
-2.4762986 -12.370859 0.74617237 337 0 0 0 77.803154
-6.312551 -11.793561 0.78942043 203 0 0 0 82.497299
-5.9382958 -11.77887 0.77891046 259 0 0 0 82.106674
-3.0126553 -11.969782 0.73081011 377 0 0 0 78.589211
-0.28964478 -11.005783 0.65554923 720 0 0 0 75.059517
4.386508 -9.6412077 0.89612126 208.5 0 0 0 67.822823
12.184734 -9.546524 0.90928066 143 0 0 0 60.195473
-19.431362 -9.1928387 0.72313738 35 0 0 0 92.668716
12.612712 -9.390748 0.92322707 28 0 0 0 59.802311
2.1248238 -8.581172 0.75192255 323.66666 0 0 0 70.757729
-11.105771 -8.2376471 0.81580055 223 0 0 0 89.5438
-7.278461 -8.0302629 0.91612226 253 0 0 0 86.421158
-6.9330668 -8.2402039 0.91048384 159 0 0 0 85.822296
-6.2830791 -8.0467548 0.73800755 344.5 0 0 0 85.229614
-4.1831093 -8.0488205 0.77200466 310.5 0 0 0 82.301987
-3.4835575 -8.3886986 0.7728439 142 0 0 0 80.932465
-2.8161037 -8.1579666 0.83992416 149 0 0 0 79.955505
-2.2426724 -8.0612669 0.91738272 272 0 0 0 78.972153
2.4425421 -8.1353912 0.93156683 371 0 0 0 69.977203
2.7564723 -8.0877438 0.93703771 256.5 0 0 0 69.384277
7.6240096 -8.0487003 0.79906976 361.5 0 0 0 62.544193
12.190413 -8.1794329 0.68481052 121.5 0 0 0 59.013554
14.608865 -8.3077602 0.98455602 131 0 0 0 57.838928
16.273205 -8.2220078 0.61812001 46 0 0 0 57.062222
17.232758 -8.1806803 0.6450277 53 0 0 0 56.666641
-11.058307 -7.7895513 0.79886866 263 0 0 0 89.935028
-8.7362633 -7.5358958 0.68639028 43 0 0 0 88.368416
-8.140111 -7.7516289 0.94904 243 0 0 0 87.588448
-7.7323465 -7.733356 0.92420566 277 0 0 0 87.203484
-4.5458064 -7.5753255 0.75282437 286 0 0 0 83.28167
-4.3482919 -7.6653633 0.75101566 453 0 0 0 82.895103
-3.2833347 -7.638113 0.91189766 485.5 0 0 0 81.131378
-2.347229 -7.700665 0.6888054 610 0 0 0 79.361214
-1.5115032 -7.530499 0.84487081 192 0 0 0 77.803154
-1.2451969 -7.6508942 0.75876004 223 0 0 0 77.221779
0.35229903 -7.5658827 0.74212945 460.5 0 0 0 73.884598
2.8758075 -7.5254793 0.88550276 231 0 0 0 68.80368
12.75897 -7.8926854 0.51504362 83.5 0 0 0 58.43293
13.42216 -7.6350021 0.52905917 118 0 0 0 57.838928
14.331032 -7.6909232 0.55532175 66 0 0 0 57.453487
17.285181 -7.6911325 0.63999909 67 0 0 0 56.282879
18.216827 -7.5742168 0.66579235 161 0 0 0 55.887661
-8.5766659 -7.2202597 0.946881 235 0 0 0 88.561798
-8.1604443 -7.3982577 0.93074703 139 0 0 0 87.974197
-6.7821474 -7.1237392 0.83468413 269 0 0 0 86.805054
-4.6871252 -7.3942766 0.74636686 25 0 0 0 83.669762
-4.2101421 -7.4214506 0.93506128 268 0 0 0 82.895103
-3.7050092 -7.3459487 0.9029457 676.33331 0 0 0 82.108177
-1.30897 -7.4621024 0.83382654 138 0 0 0 77.416687
-0.92549986 -7.3794465 0.81919414 149 0 0 0 76.639046
2.8582888 -7.4800916 0.68597257 238 0 0 0 68.80368
3.0133176 -7.3416753 0.68018955 253 0 0 0 68.410408
14.691715 -7.1983123 0.95958364 73.5 0 0 0 56.864433
18.887938 -7.313724 0.68251228 165 0 0 0 55.498138
19.746096 -7.0924878 0.70562023 69 0 0 0 55.114166
24.356245 -7.4158874 0.84833038 96 0 0 0 54.334641
-9.7935753 -6.5457001 0.70033276 264 0 0 0 90.337166
-8.5917511 -6.7071505 0.78591704 400.5 0 0 0 89.152283
-2.6647248 -6.8850312 0.90315199 436.5 0 0 0 80.537025
-1.5337818 -6.7776308 0.9380812 302 0 0 0 78.194862
-1.1911781 -6.7837114 0.93036222 336 0 0 0 77.415009
-0.68304139 -6.7602119 0.91823846 253 0 0 0 76.244911
-0.3465004 -6.7167029 0.82561064 204 0 0 0 75.459808
20.973488 -6.9555135 0.74110705 43 0 0 0 54.718792
68.415199 -6.7687693 0.50830603 15 0 0 0 51.202301
-9.762599 -6.1842103 0.68778974 242 0 0 0 90.723091
-2.1408455 -6.2787232 0.84126002 429.66666 0 0 0 79.891502
-1.7853858 -6.412992 0.83460826 295.39999 0 0 0 78.974594
-1.2941467 -6.4411993 0.80847991 208.5 0 0 0 77.805771
-9.9374151 -5.9585924 0.68956047 36 0 0 0 91.110168
-6.4652095 -5.8614516 0.9562853 271 0 0 0 87.974197
68.69474 -5.0968533 0.50870866 10 0 0 0 50.81303
-19.263407 -3.8340194 0.66423398 20 0 0 0 96.57029
-19.183718 -3.3308144 0.6588105 344 0 0 0 96.966789
-19.139482 -2.8410058 0.65495116 354 0 0 0 97.366096
-19.09675 -2.3570688 0.65153623 412 0 0 0 97.753448
-19.070713 -1.8797618 0.64904571 311 0 0 0 98.136871
-19.044762 -1.4060136 0.64693695 335 0 0 0 98.526772
-22.531498 2.2135994 0.79001874 302 0 0 0 1.18012
-22.493692 2.7657466 0.79043299 300 0 0 0 1.56971
-22.460075 3.3200436 0.79144484 305 0 0 0 1.95428
-22.420576 3.875747 0.79271525 383 0 0 0 2.3433099
-22.377022 4.4334807 0.79430968 408 0 0 0 2.7409501
27.1113 4.0134549 0.9068436 128 0 0 0 47.289207
-22.316578 4.990778 0.79580092 173 0 0 0 3.1283
22.658978 4.5042543 0.76963013 102 0 0 0 46.517849
27.320246 4.7335 0.91667134 48 0 0 0 46.9011
-22.262512 5.5529013 0.79798615 287 0 0 0 3.5179701
-22.231752 6.125803 0.80146742 327 0 0 0 3.90327
-22.181355 6.6990881 0.80477118 339 0 0 0 4.29774
-22.142647 7.2823849 0.80900234 292 0 0 0 4.6876998
-22.088526 7.8679843 0.81279343 317 0 0 0 5.07271
28.149302 7.7875166 0.96199745 54 0 0 0 45.345581
-22.042093 8.4643736 0.81735164 265 0 0 0 5.4627199
25.198673 8.3269081 0.87656695 28 0 0 0 44.565689
26.594585 8.0672865 0.91674942 32 0 0 0 44.954159
-21.999838 9.0716352 0.82261717 283 0 0 0 5.8577499
1.6774144 9.4428654 0.81073016 587.5 0 0 0 27.547215
2.1499493 9.3877735 0.81390202 675.5 0 0 0 28.331276
2.7542801 9.3345652 0.82213861 217.66667 0 0 0 29.301657
3.2541611 9.3095446 0.83238262 101 0 0 0 30.08308
3.6354871 9.2796326 0.84084499 62 0 0 0 30.67107
4.144022 9.2088451 0.85146552 529.5 0 0 0 31.4522
4.6931505 9.1851025 0.86890316 467.5 0 0 0 32.231598
5.2740531 9.1705828 0.89022136 164 0 0 0 33.017868
5.7485032 9.1896496 0.91116858 13 0 0 0 33.604473
6.2042351 9.1427994 0.9281615 9.5 0 0 0 34.184319
7.2466078 9.1362171 0.97784311 46.5 0 0 0 35.362038
-21.935396 9.6794748 0.82766652 268 0 0 0 6.2530899
13.47009 9.5219984 0.95942628 64 0 0 0 39.86787
-21.899395 10.310976 0.8343786 281 0 0 0 6.6342902
-2.8340273 10.40078 0.90867651 30 0 0 0 20.50882
-2.2366323 10.133318 0.87565422 109.5 0 0 0 21.28442
-1.8342803 10.057158 0.86287493 88 0 0 0 21.872709
-21.841827 10.944713 0.84091806 241 0 0 0 7.0309901
-4.0283232 10.998886 0.98518234 86 0 0 0 19.139389
-3.6779008 10.853636 0.96434718 10 0 0 0 19.52976
-3.2977197 10.568252 0.93251491 17 0 0 0 19.91613
-21.768814 11.583214 0.84755564 215 0 0 0 7.4172997
-20.701897 11.671637 0.81712258 46 0 0 0 7.8105001
-6.2287669 -35.786549 1.1938026 54 0 0 0 77.416687
-29.915163 -34.671932 1.4981387 18 0 0 0 86.021873
-27.934132 -34.028851 1.4415599 14 0 0 0 85.622719
-25.430542 -34.277771 1.398388 17 0 0 0 84.842415
-24.224293 -34.383141 1.3784322 18 0 0 0 84.446861
-29.830717 -32.906277 1.4542259 17 0 0 0 86.421158
-29.11743 -27.718258 1.3199439 18 0 0 0 87.588448
7.2047496 -13.53617 1.2813487 234 0 0 0 66.849831
-0.12592992 -13.186891 1.3200139 164.33333 0 0 0 74.800285
18.564341 -13.113059 1.318248 21 0 0 0 59.41124
-11.804467 -12.395593 1.001027 221 0 0 0 86.805054
-5.7202811 -12.079043 1.121009 105 0 0 0 81.720551
-5.4849029 -12.355903 1.1334517 31 0 0 0 81.330284
-3.0633395 -12.181008 1.0553527 371 0 0 0 78.589211
-2.7516329 -12.19677 1.0507041 445 0 0 0 78.194862
11.33457 -9.8131285 1.2552655 90 0 0 0 60.976799
1.0922925 -9.0145063 1.2160985 172 0 0 0 72.713837
1.6727717 -9.0947437 1.2380865 231 0 0 0 71.737961
3.8197334 -9.2886524 1.0953054 328 0 0 0 68.410408
4.1910162 -9.2107563 1.1034801 245.5 0 0 0 67.822823
5.488163 -9.2089787 1.1669974 103 0 0 0 66.061363
6.2045655 -9.3348207 1.2185997 321 0 0 0 65.28907
6.5937824 -9.4099197 1.2483257 211 0 0 0 64.890755
11.435741 -9.4198694 1.2410622 116 0 0 0 60.587833
14.541583 -9.2424803 1.0083697 72 0 0 0 58.625553
15.02109 -9.0365448 1.0253205 18 0 0 0 58.240311
0.75536478 -8.9879704 1.4310981 42 0 0 0 73.302917
1.2080634 -8.7691898 1.3308355 341.66666 0 0 0 72.45755
4.3120093 -8.6252317 1.0531858 259 0 0 0 67.240074
4.6902571 -8.5759239 1.0672252 191.5 0 0 0 66.65097
5.6635032 -8.994338 1.1573844 164 0 0 0 65.676956
6.7313943 -8.8921375 1.213076 159 0 0 0 64.301056
7.2554569 -8.883955 1.2467822 265 0 0 0 63.722198
7.6349463 -8.8929825 1.2734193 147 0 0 0 63.319592
11.376051 -8.9116745 1.2115382 167 0 0 0 60.195473
32.142117 -8.9253531 1.1000499 44 0 0 0 53.940418
-6.2748814 -8.0376949 1.1111424 451 0 0 0 85.229614
-5.7576714 -8.1719208 1.2142422 163.5 0 0 0 84.446861
-5.3628349 -8.0199518 1.0529757 321 0 0 0 84.05368
2.0703902 -8.3555212 1.1549865 320 0 0 0 70.757729
3.6747231 -8.0816422 1.1907072 359 0 0 0 67.822823
4.4130564 -8.3091679 1.2598306 157 0 0 0 66.849831
5.8529887 -8.3547983 1.3632778 198 0 0 0 64.890755
6.1469522 -8.1218796 1.3617048 267.5 0 0 0 64.301056
6.7675266 -8.2863121 1.4286593 117 0 0 0 63.722198
7.6480327 -8.0724449 1.2103744 305 0 0 0 62.544193
11.269689 -8.3908062 1.1790873 129 0 0 0 59.802311
11.786079 -8.3324232 1.2103904 57 0 0 0 59.41124
12.246552 -8.2137136 1.2358551 123 0 0 0 59.013554
12.664398 -8.0495539 1.2570959 85 0 0 0 58.625553
18.203804 -8.0986357 1.1604668 113 0 0 0 56.282879
19.73461 -8.2035027 1.2420808 53 0 0 0 55.887661
33.657631 -8.4608822 1.1428643 35 0 0 0 53.543808
-6.7102127 -7.5865803 1.1041245 324 0 0 0 86.221512
-6.2068658 -7.6887622 1.2386055 386.33334 0 0 0 85.491676
-5.8966103 -7.9482784 1.2006557 380 0 0 0 84.842415
-1.7174379 -7.5963268 1.4319749 267 0 0 0 78.194862
0.35361394 -7.5659614 1.206948 323 0 0 0 73.884598
1.3227794 -7.7440014 1.2510406 471 0 0 0 71.933952
1.7342936 -7.8095727 1.2737236 455.66666 0 0 0 71.151558
2.2171712 -7.7301316 1.1823337 203.75 0 0 0 70.174881
3.9965539 -7.9949627 1.1985797 317 0 0 0 67.240074
4.3427105 -7.939559 1.3239744 274.5 0 0 0 66.65097
4.5862961 -7.701056 1.2020439 179 0 0 0 66.061363
5.0235701 -7.5642276 1.2174159 141 0 0 0 65.28907
6.7317624 -7.6500368 1.362891 239 0 0 0 63.123337
7.0809598 -7.8532119 1.1525799 69 0 0 0 62.927078
12.502754 -7.5227036 1.2234727 99 0 0 0 58.240311
14.980496 -7.5670662 1.4018487 69 0 0 0 57.062222
20.394098 -7.8952994 1.2700827 41 0 0 0 55.498138
-7.7833858 -7.0589089 1.4024826 20 0 0 0 87.974197
-3.1797838 -7.1616087 1.0539242 342 0 0 0 81.326508
-1.2434779 -7.0918369 1.3263512 117 0 0 0 77.416687
1.7890905 -7.2405314 1.3743476 280.66666 0 0 0 70.761757
2.3833802 -7.2886524 1.314806 191 0 0 0 69.579285
2.7804894 -7.2758222 1.0958507 191.75 0 0 0 68.801758
4.6751542 -7.430479 1.1781186 170 0 0 0 65.676956
6.9382687 -7.3241835 1.3498832 190 0 0 0 62.544193
13.015928 -7.401413 1.2545847 95 0 0 0 57.838928
13.545468 -7.2673168 1.2870605 95 0 0 0 57.453487
15.080868 -7.1582661 1.3946024 62 0 0 0 56.666641
21.528175 -7.1388264 1.3157313 74 0 0 0 54.718792
-8.5336962 -6.6642399 1.3118675 424.5 0 0 0 89.152283
-8.1090393 -6.8264303 1.1543417 363 0 0 0 88.561798
-7.0199761 -6.6849446 1.0583673 289 0 0 0 87.588448
-6.6525731 -6.8175488 1.0405762 219.5 0 0 0 87.004272
-6.4244332 -6.7502999 1.2474385 436 0 0 0 86.805054
-2.7994263 -6.7400589 1.1637851 795 0 0 0 80.932465
-0.51317573 -6.7488089 1.0817677 243 0 0 0 75.850685
1.8415012 -6.7388706 1.4610175 73 0 0 0 70.372566
2.0913041 -6.9730134 1.3422406 428 0 0 0 69.977203
2.7591317 -6.7203083 1.2486032 293.75 0 0 0 68.410133
3.092567 -6.5966849 1.1636748 39 0 0 0 67.629616
4.1337366 -6.760107 1.2630501 440 0 0 0 65.869156
4.9696155 -6.7437148 1.3336072 392 0 0 0 64.496338
5.1421051 -6.6306405 1.335966 360 0 0 0 64.105766
5.649117 -6.588017 1.3809316 280 0 0 0 63.319592
6.1303563 -6.8016925 1.4552268 418 0 0 0 62.927078
6.6797261 -6.7153587 1.384183 326 0 0 0 62.150101
7.1676722 -6.6931076 1.3137439 267.5 0 0 0 61.561527
11.218336 -6.7523947 1.4203328 298 0 0 0 58.240311
11.645635 -6.62466 1.4525672 193 0 0 0 57.838928
12.152234 -6.522109 1.4942404 48 0 0 0 57.453487
19.290613 -6.9290791 1.1927006 97 0 0 0 55.114166
-8.733345 -6.4830632 1.450888 7 0 0 0 89.5438
-2.1910009 -6.102993 1.1171381 508.75 0 0 0 80.148888
-1.7877376 -6.2644777 1.0829473 350.25 0 0 0 79.070946
-1.2861401 -6.400352 1.0446552 457 0 0 0 77.804901
-0.7634145 -6.398684 1.0716108 328.5 0 0 0 76.538979
-0.48505256 -6.3664041 1.1800232 18 0 0 0 75.850685
2.8705151 -6.396574 1.4090973 317.33334 0 0 0 67.88723
3.0055511 -6.4127436 1.3074075 322 0 0 0 67.629616
4.3363161 -6.2041078 1.3009138 525.75 0 0 0 64.891731
4.9166594 -6.3417816 1.4780102 595 0 0 0 64.105766
5.1857376 -6.3592072 1.407486 511 0 0 0 63.722198
-2.2241063 -5.9593716 1.174741 402 0 0 0 80.34227
-19.429646 -3.867064 1.1545926 35 0 0 0 96.57029
-19.187601 -3.3314683 1.1356611 332 0 0 0 96.966789
-19.146475 -2.842021 1.1290174 304 0 0 0 97.366096
-19.097933 -2.357192 1.1226522 347 0 0 0 97.753448
-19.073969 -1.8800592 1.1183705 330 0 0 0 98.136871
-19.05407 -1.4066755 1.114989 354 0 0 0 98.526772
40.764717 -0.022745132 1.3334506 50 0 0 0 49.640888
40.973259 0.98406589 1.3400762 55 0 0 0 49.254353
-22.514397 2.2121196 1.3401166 311 0 0 0 1.18012
41.245689 2.00543 1.349506 34 0 0 0 48.858101
-22.49247 2.7658203 1.3420432 304 0 0 0 1.56971
-22.441036 3.3174529 1.3430386 220 0 0 0 1.95428
-22.409426 3.874063 1.3459926 231 0 0 0 2.3433099
