# .PCD v0.7 - Point Cloud Data file format
VERSION 0.7
FIELDS x y z intensity normal_x normal_y normal_z curvature
SIZE 4 4 4 4 4 4 4 4
TYPE F F F F F F F F
COUNT 1 1 1 1 1 1 1 1
WIDTH 965
HEIGHT 1
VIEWPOINT 0 0 0 1 0 0 0
POINTS 965
DATA ascii
-7.748189 -16.411196 4.1836958 27 0 0 0 81.616417
-6.8046637 -16.458376 4.1067014 91 0 0 0 80.827583
-6.3275886 -16.43494 4.0614805 84 0 0 0 80.440247
3.6979299 -16.4573 4.3067336 32 0 0 0 71.057213
6.2349653 -16.161354 4.4210892 33 0 0 0 68.718681
18.62303 -16.065762 4.4437208 26 0 0 0 60.889248
-16.342712 -15.577731 4.0824327 34 0 0 0 87.475159
9.5837994 -15.98973 4.2959023 21 0 0 0 65.976463
17.581404 -15.937074 4.2891879 20 0 0 0 61.289921
6.3079662 -15.228744 4.2083879 29 0 0 0 68.331924
6.6152897 -14.924681 4.1680703 27 0 0 0 67.935211
-0.69391012 -14.251702 4.177866 28 0 0 0 75.36364
-0.34129041 -14.189838 4.3306785 75 0 0 0 74.966171
0.18174405 -14.411104 4.0428991 26 0 0 0 74.380157
7.0501566 -14.008435 4.3944054 84 0 0 0 67.151794
-1.3362362 -13.635397 4.3489542 25.5 0 0 0 76.143639
-3.6155105 -13.094926 4.48139 15 0 0 0 78.875
16.212618 -13.308329 4.3104987 38 0 0 0 60.503071
20.781515 -13.15948 4.4397664 35 0 0 0 58.548199
1.5625939 -12.655982 4.2092357 56 0 0 0 72.617203
17.280775 -12.818329 4.4195142 18 0 0 0 59.72142
-0.29074523 -12.164013 4.3157592 33 0 0 0 74.966171
0.0055064377 -12.401 4.2468619 31 0 0 0 74.57296
5.4736457 -12.352301 4.4569726 61 0 0 0 67.935211
5.7572842 -12.174574 4.2757306 152.5 0 0 0 67.541107
21.416046 -12.131055 4.4408975 73 0 0 0 57.763561
9.622098 -11.728175 4.2503209 175 0 0 0 63.639767
13.069679 -11.846354 4.4964566 33 0 0 0 61.289921
-0.82297671 -11.264336 4.1448164 103.5 0 0 0 75.749763
15.934076 -11.220401 4.4829483 29 0 0 0 59.335152
16.080696 -11.328246 4.0428967 26 0 0 0 59.335152
21.197233 -11.329138 4.3365602 37 0 0 0 57.382881
-3.3566699 -10.196685 4.0734825 131 0 0 0 79.661598
-29.454102 -9.7434855 4.0476613 31 0 0 0 94.50972
-8.1105976 -9.6625156 4.3169575 68.5 0 0 0 85.712486
-11.924943 -9.3242579 4.2382755 108 0 0 0 89.034065
-16.071789 -8.6073208 4.1942902 18 0 0 0 91.763832
17.803749 -8.9621391 4.0924454 41 0 0 0 56.98613
10.762005 -7.5796127 4.0139036 40 0 0 0 59.335152
12.639206 -7.5764556 4.1255283 24 0 0 0 58.161209
19.087442 -7.9049606 4.2382255 30 0 0 0 55.817928
8.7572145 -7.1868668 4.0183134 33 0 0 0 60.503071
9.1241302 -7.1199651 4.1041608 51 0 0 0 60.11422
9.7329931 -7.2196684 4.146781 63 0 0 0 59.72142
12.689157 -7.1855688 4.4412799 46 0 0 0 57.763561
14.020303 -7.0564337 4.00036 37 0 0 0 56.98613
-14.001738 -6.6370893 4.3353443 29 0 0 0 92.539742
8.3325338 -6.503417 4.0105157 62 0 0 0 60.11422
10.684685 -6.7684202 4.1707087 52 0 0 0 58.548199
18.441158 -6.5946937 4.2580566 45.5 0 0 0 55.035633
10.427945 -6.2527938 4.0105538 155 0 0 0 58.161209
14.575394 -6.0347328 4.4109755 64 0 0 0 55.817928
18.465654 -6.094142 4.4657898 19 0 0 0 54.652618
18.673199 -6.1666412 4.0342708 233 0 0 0 54.652618
-20.461435 -5.6726365 4.3553667 23 0 0 0 95.285347
-16.003061 -5.7397289 4.3295646 111 0 0 0 94.110237
20.138935 -5.5692558 4.2830281 49 0 0 0 53.874859
-15.609367 -5.1697412 4.1884584 147 0 0 0 94.50972
-10.604371 -5.3560491 4.2103372 8 0 0 0 92.151749
26.17215 -5.1982322 4.139123 22 0 0 0 52.700687
-15.727416 -4.7835164 4.1871104 206 0 0 0 94.900368
-11.220236 -4.6647606 4.3052301 215 0 0 0 93.332191
-10.449409 -4.6489391 4.3347383 115 0 0 0 92.928871
13.925701 -4.5943522 4.4627171 207 0 0 0 54.652618
14.001967 -4.6225452 4.1243525 211 0 0 0 54.652618
28.493505 -4.9345822 4.481698 15 0 0 0 52.313488
-15.523842 -4.3081055 4.1040587 244 0 0 0 95.285347
-11.529825 -4.4644508 4.3798218 25 0 0 0 93.71965
-10.329076 -4.2948785 4.2405686 264 0 0 0 93.332191
11.220077 -4.0091085 4.2208786 64 0 0 0 55.035633
14.298048 -4.3335104 4.1780529 211 0 0 0 54.261238
-14.164456 -3.5616767 4.446404 45 0 0 0 95.673111
-10.623319 -3.8167481 4.1400771 101.5 0 0 0 94.110237
14.223853 -3.8047087 4.3593373 141.66667 0 0 0 53.742176
-10.218517 -3.3905728 4.0826421 373 0 0 0 94.50972
10.934033 -3.0193536 4.2978797 142 0 0 0 53.874859
11.507042 -3.1774471 4.2282577 52 0 0 0 53.874859
14.163441 -3.172514 4.416245 24 0 0 0 53.086021
19.07098 -3.2998302 4.4418759 134 0 0 0 52.313488
20.169992 -3.4937601 4.1944423 47 0 0 0 52.313488
33.240711 -3.2608371 4.3405967 35 0 0 0 51.133598
-13.307034 -2.9984086 4.4927988 27 0 0 0 96.056259
-10.575607 -2.9407427 4.1616321 526 0 0 0 95.285347
10.762794 -2.68923 4.2040105 64 0 0 0 53.476807
21.4184 -2.633713 4.4184365 51 0 0 0 51.522438
24.291573 -2.9870052 4.4035106 12 0 0 0 51.522438
-11.690435 -2.0412891 4.2048955 138 0 0 0 96.836258
10.35837 -2.0532396 4.0033283 87 0 0 0 52.700687
11.076502 -2.3371258 4.1502123 89.5 0 0 0 52.893356
14.008786 -2.4218884 4.3257718 64 0 0 0 52.313488
14.871896 -2.198714 4.2016716 56 0 0 0 51.916618
17.766062 -2.1817453 4.1098871 28 0 0 0 51.522438
23.190268 -2.2748966 4.1935921 69 0 0 0 51.133598
11.121238 -1.9210386 4.2755804 37 0 0 0 52.313488
19.132744 -1.8732514 4.4106498 40 0 0 0 51.133598
20.098024 -1.9715596 4.1366887 103 0 0 0 51.133598
21.166256 -1.5521175 4.3448224 26 0 0 0 50.749447
12.973895 -1.2701826 4.2917538 142 0 0 0 51.133598
-12.767437 -0.79132688 4.2156038 52.5 0 0 0 98.59066
-11.582479 -0.57901293 4.3942428 50 0 0 0 98.790359
12.664172 -0.60869354 4.4859138 26 0 0 0 50.3489
20.087524 -0.97749931 4.1186485 39 0 0 0 50.3489
26.654633 -0.64172381 4.1302094 17 0 0 0 49.960678
-23.174189 -0.0047615329 4.1759944 69 0 0 0 99.557266
-13.688307 -0.007872941 4.1687813 19 0 0 0 99.557266
-12.148312 -0.15576115 4.154242 45.5 0 0 0 99.365341
-10.64806 -0.13885505 4.0387907 44.5 0 0 0 99.365341
12.761025 -0.303666 4.202415 49 0 0 0 49.960678
17.068214 -0.40690193 4.3395972 70 0 0 0 49.960678
-14.945533 0.35359916 4.1841207 44 0 0 0 0
-13.407314 0.31508595 4.080977 194 0 0 0 0
23.12369 0.012079438 4.1591449 19 0 0 0 49.578072
-22.415791 0.53225368 4.0760531 19 0 0 0 0
-21.413704 0.50917566 4.4190273 39 0 0 0 0
-14.935775 0.71812105 4.184906 47 0 0 0 0.39309999
-13.650035 0.87899369 4.3855147 59.333332 0 0 0 0.64987999
-11.554626 0.55212998 4.3657842 141 0 0 0 0.39309999
-10.984084 1.0621248 4.1643777 52 0 0 0 1.16921
-21.268366 1.5478033 4.3988237 38 0 0 0 0.77827001
-15.881422 1.5432816 4.4653029 30 0 0 0 1.16921
-14.598113 1.7761663 4.4747443 67 0 0 0 1.56444
-13.554851 1.6512675 4.4904366 34 0 0 0 1.56444
-11.738863 1.7157825 4.1893711 37 0 0 0 1.94621
-11.143287 1.9066873 4.2666559 36 0 0 0 2.3329899
14.663464 1.8271846 4.4902749 58 0 0 0 47.628151
15.013818 1.8678344 4.2240024 45 0 0 0 47.628151
17.226881 1.7131728 4.3974142 23 0 0 0 48.015831
-20.170477 2.4627745 4.191596 51 0 0 0 1.56444
-15.793283 2.3165364 4.0725527 51 0 0 0 1.94621
-14.338508 2.2812662 4.0633011 392 0 0 0 2.1396
-12.231632 2.094105 4.3825083 89 0 0 0 2.3329899
-11.317477 2.2218463 4.3530974 86 0 0 0 2.7339301
32.680607 2.4291146 4.252511 26 0 0 0 48.407928
-14.444065 2.8438203 4.1195693 6 0 0 0 2.7339301
19.393747 2.8965323 4.4926763 66 0 0 0 47.2346
-12.761456 3.2733507 4.1163712 220.66667 0 0 0 3.63624
-12.241422 3.3498948 4.4825172 83 0 0 0 3.8980401
-11.939882 3.2705841 4.0709662 108 0 0 0 3.8980401
-11.048678 3.3124402 4.0736303 36 0 0 0 4.2948399
-10.55628 3.4467063 4.1917462 26 0 0 0 4.6779799
19.336267 3.3721797 4.0157094 157 0 0 0 46.841328
-10.054903 3.5550542 4.0256791 86 0 0 0 5.0622802
-9.9265957 3.7842278 4.0101881 78 0 0 0 5.4509101
16.175926 3.6533985 4.2118921 69 0 0 0 46.051952
19.242777 3.8494308 4.4950743 88 0 0 0 46.450314
-10.7647 4.4105721 4.2498903 64.5 0 0 0 5.8470302
16.772331 4.2238417 4.3907166 140 0 0 0 45.665913
54.431393 4.0325561 4.3888936 36 0 0 0 48.407928
-10.598923 4.6472111 4.0876989 65 0 0 0 6.23418
9.7758608 4.6568513 4.0987082 127 0 0 0 42.545738
31.798973 4.7379951 4.169879 12 0 0 0 47.2346
-23.576996 5.256958 4.3874807 97 0 0 0 3.11619
-12.413763 5.4545293 4.4591556 21 0 0 0 6.23418
51.625309 5.1023469 4.1717339 17 0 0 0 48.015831
18.490278 5.6351252 4.426507 21 0 0 0 44.883327
-12.240608 6.1067028 4.329154 12 0 0 0 7.0070701
10.223219 6.1688938 4.2214193 36 0 0 0 40.983089
30.364386 6.8423834 4.0356421 23 0 0 0 46.051952
-18.666615 7.1526871 4.1215191 21 0 0 0 5.4509101
-15.932204 7.0091839 4.2261987 19 0 0 0 6.23418
-10.461661 7.2973814 4.3501158 155 0 0 0 9.3587503
10.553591 7.0925589 4.1802344 25 0 0 0 40.199619
12.054427 7.2660246 4.2744727 67 0 0 0 40.983089
-15.036599 7.7445889 4.3132658 15 0 0 0 7.2041349
-11.995923 7.9475479 4.0256 49 0 0 0 8.9645996
11.769245 7.9088988 4.3056335 32 0 0 0 40.199619
7.1829677 8.1964817 4.1224761 233 0 0 0 36.100296
12.870598 8.1910067 4.253902 31 0 0 0 40.587688
13.738428 8.2739153 4.4699183 23 0 0 0 40.983089
-14.942817 8.8912449 4.4329314 29 0 0 0 8.1784697
-11.870769 8.7302341 4.1218781 50 0 0 0 9.73944
11.400715 8.5046854 4.3184328 37 0 0 0 39.421421
12.670517 8.9686565 4.3274288 16 0 0 0 39.814552
13.501858 8.5913343 4.0623794 17 0 0 0 40.587688
14.267859 8.5917187 4.2263169 16 0 0 0 40.983089
-31.162447 9.4004726 4.29877 26 0 0 0 4.2948399
10.908516 9.463583 4.0280643 8 0 0 0 38.25267
-29.666695 9.7465525 4.1243606 26 0 0 0 4.6779799
-19.530819 9.7726707 4.4995961 15 0 0 0 7.0070701
-17.589521 9.9019022 4.1589336 66 0 0 0 7.7957201
-16.579741 9.8701286 4.4461937 99 0 0 0 8.1784697
5.498477 9.8222523 4.2559462 73 0 0 0 32.77317
10.594729 9.6621161 4.3525939 13 0 0 0 37.865128
12.266701 9.6226711 4.3456578 33 0 0 0 39.028873
49.65966 9.8994913 4.0670743 25 0 0 0 46.450314
-16.290867 10.246044 4.434309 87 0 0 0 8.5672197
4.7114029 10.429176 4.1850424 53.5 0 0 0 31.41205
16.883841 10.157905 4.0258145 18 0 0 0 40.983089
41.567265 10.434361 4.48701 26 0 0 0 45.665913
5.6386728 10.670263 4.1147614 28.5 0 0 0 32.386921
6.2813778 10.884283 4.1308436 50 0 0 0 32.96862
16.894545 11.330984 4.1545959 7 0 0 0 40.199619
50.204689 11.296781 4.1311803 14 0 0 0 46.051952
-14.135083 11.516393 4.2001834 8 0 0 0 10.52247
-8.7063646 12.900227 4.3516507 70 0 0 0 15.21563
-9.382205 13.909454 4.2743969 70 0 0 0 15.21563
-9.1552601 14.319504 4.3294497 6 0 0 0 15.60665
-5.5354538 14.141693 4.2441487 102 0 0 0 18.726431
51.841866 14.372526 4.3144946 16 0 0 0 45.283592
5.1670156 14.626643 4.3260074 167 0 0 0 30.030939
0.30697143 15.417004 4.3043828 36 0 0 0 24.964939
52.762665 16.033123 4.4205794 16 0 0 0 44.883327
48.590107 17.415575 4.1382437 18 0 0 0 44.109688
-34.516632 18.378832 4.1924877 35 0 0 0 7.4011998
47.12183 18.20792 4.0500245 17 0 0 0 43.71714
46.597698 19.334028 4.0438619 19 0 0 0 43.333141
26.557987 -37.712585 4.8954086 12 0 0 0 64.806442
9.6668205 -25.057291 4.8592429 22 0 0 0 68.718681
7.9416533 -24.036736 4.5826879 17 0 0 0 69.492554
12.783134 -23.915102 4.903821 37 0 0 0 66.766808
6.9901667 -23.040136 4.9528346 19 0 0 0 69.892082
37.243137 -22.322966 4.5904322 6 0 0 0 58.161209
5.8626895 -21.183512 4.5244808 19 0 0 0 70.279549
6.962326 -21.075487 4.5681629 5 0 0 0 69.492554
12.445826 -20.766579 4.9765687 13 0 0 0 65.976463
2.2939806 -18.561314 4.7720604 32 0 0 0 72.617203
2.7148981 -18.273975 4.7142191 7 0 0 0 72.228706
3.0699165 -17.671679 4.5777478 47 0 0 0 71.845131
3.5083764 -17.621279 4.585464 14 0 0 0 71.452072
4.4993143 -17.950302 4.7216916 26 0 0 0 70.672234
5.807436 -17.572859 4.7217422 20 0 0 0 69.492554
2.8893669 -16.633856 4.7300334 18 0 0 0 71.845131
3.3127439 -16.639977 4.7532196 28 0 0 0 71.452072
3.7311716 -16.604252 4.7675395 14 0 0 0 71.057213
5.5033236 -16.653564 4.9120064 12 0 0 0 69.492554
8.9916925 -16.820522 4.8633347 12 0 0 0 66.766808
-16.790197 -16.003698 4.7638178 27 0 0 0 87.475159
6.0606432 -15.709718 4.7166328 25 0 0 0 68.718681
-0.68512666 -14.046608 4.6387935 39 0 0 0 75.36364
-3.2601075 -13.763852 4.6652727 29.5 0 0 0 78.285522
-0.33420777 -13.794077 4.5519414 10 0 0 0 74.966171
0.34027845 -13.523154 4.7947721 38 0 0 0 74.187347
-3.6485732 -13.232471 4.8640599 36 0 0 0 78.875
-3.3384113 -13.379375 4.8864551 14 0 0 0 78.48455
-2.9830761 -13.339475 4.8440728 28 0 0 0 78.086494
-1.6232311 -13.245614 4.7301831 14 0 0 0 76.534325
-1.2957597 -13.257963 4.7219372 45 0 0 0 76.143639
0.66771495 -13.431508 4.7668424 55 0 0 0 73.788864
-0.30413243 -12.730943 4.8273101 37 0 0 0 74.966171
-3.7553439 -12.423146 4.9184165 13 0 0 0 79.268707
-3.0884926 -12.378254 4.8355136 48 0 0 0 78.48455
-0.58167338 -12.006528 4.5583191 44 0 0 0 75.36364
0.30613062 -12.178443 4.6193075 141 0 0 0 74.187347
0.60172272 -12.111091 4.5981307 75 0 0 0 73.788864
1.8239194 -12.25808 4.6987157 20 0 0 0 72.228706
5.727632 -12.103208 4.7455211 202 0 0 0 67.541107
9.6073446 -11.705632 4.615303 140 0 0 0 63.639767
17.176735 -10.874098 4.6736917 17 0 0 0 58.548199
15.26421 -10.197803 4.6752191 28 0 0 0 58.940578
-29.550148 -9.7751656 4.8311386 35 0 0 0 94.50972
-14.137704 -9.4641266 4.7580528 65 0 0 0 90.216064
-11.965136 -9.3588772 4.6265388 132 0 0 0 89.034065
16.25387 -9.2050362 4.7549381 30 0 0 0 57.763561
-35.541424 -8.9154844 4.7715979 34 0 0 0 95.673111
-8.7734423 -8.7975044 4.707552 18 0 0 0 87.082115
14.615156 -8.2779264 4.6967959 36 0 0 0 57.763561
-9.9232197 -7.7661967 4.773243 38 0 0 0 89.034065
12.712262 -7.6167393 4.5132756 43 0 0 0 58.161209
10.57356 -7.0620413 4.5047565 43 0 0 0 58.940578
12.067116 -7.227283 4.9787993 33 0 0 0 58.161209
12.546379 -7.1073656 4.7490211 27 0 0 0 57.763561
14.373602 -7.2334809 4.5000844 23 0 0 0 56.98613
10.75497 -6.8068805 4.8210487 36 0 0 0 58.548199
18.416536 -6.5833335 4.9723916 49 0 0 0 55.035633
24.63727 -5.5255132 4.5447445 80 0 0 0 53.086021
-20.288174 -5.095355 4.8031268 144 0 0 0 95.673111
-15.732355 -5.2103806 4.6329699 194 0 0 0 94.50972
-15.526827 -4.7225628 4.5375009 229 0 0 0 94.900368
11.467869 -4.7444901 4.699645 19 0 0 0 55.817928
11.70362 -4.5083694 4.7487321 65 0 0 0 55.427479
12.026726 -4.9754982 4.6076584 66 0 0 0 55.817928
13.816869 -4.5608249 4.7885776 91 0 0 0 54.652618
19.666847 -4.9180198 4.6524644 20 0 0 0 53.476807
20.120937 -4.5092177 4.7310004 23 0 0 0 53.086021
13.909698 -4.2153249 4.7831154 103 0 0 0 54.261238
14.46185 -4.3799243 4.5970917 126 0 0 0 54.261238
-16.085718 -3.6234558 4.6088495 20 0 0 0 96.056259
-15.820671 -3.770885 4.7462177 47.5 0 0 0 95.864685
14.324068 -3.5825975 4.8578148 201 0 0 0 53.476807
19.793797 -3.9279048 4.6302385 121 0 0 0 52.700687
18.989954 -3.2854059 4.8966403 74 0 0 0 52.313488
-13.553334 -2.705745 4.5514884 64 0 0 0 96.447746
-14.017976 -2.4418519 4.6846514 21 0 0 0 96.836258
-11.797598 -2.3601239 4.5574517 43 0 0 0 96.447746
13.657567 -2.3582306 4.9014525 56 0 0 0 52.313488
14.212266 -2.4592216 4.7452736 56 0 0 0 52.313488
17.672245 -2.1698687 4.5258694 29 0 0 0 51.522438
14.755312 -1.8102674 4.7054715 64.5 0 0 0 51.522438
18.67717 -1.8283359 4.7676444 34 0 0 0 51.133598
14.816694 -1.2655995 4.7058353 44.5 0 0 0 50.941521
17.415346 -1.2733709 4.8725944 28 0 0 0 50.749447
18.551638 -1.3566779 4.7254934 47 0 0 0 50.749447
12.695932 -0.60996968 4.808815 25 0 0 0 50.3489
14.810804 -0.71708566 4.8755054 78 0 0 0 50.3489
17.814754 -0.86326373 4.5321488 33 0 0 0 50.3489
23.430374 -0.5632937 4.7927012 16 0 0 0 49.960678
-22.859713 -0.0048510772 4.6825576 46 0 0 0 99.557266
-21.180815 -0.0083046993 4.8602529 21 0 0 0 99.557266
-13.946287 -0.34863001 4.593298 29 0 0 0 99.173409
16.253618 -0.38720483 4.5386271 25 0 0 0 49.960678
20.590084 -0.49110866 4.72084 37 0 0 0 49.960678
16.78698 0.01297727 4.6844888 27 0 0 0 49.578072
18.353497 0.23772681 4.662075 30.5 0 0 0 49.381737
-15.336773 0.73551452 4.6724806 25 0 0 0 0.39309999
-22.456785 1.083774 4.6375561 33 0 0 0 0.39309999
-14.619376 1.4210289 4.8305507 28 0 0 0 1.16921
17.185335 1.2834672 4.8065643 26 0 0 0 48.407928
18.474867 1.3792486 4.7035828 52 0 0 0 48.407928
21.77401 1.0873245 4.9929428 116 0 0 0 48.793568
59.345718 1.4737623 4.7739587 27 0 0 0 49.185398
-12.083852 1.7671766 4.6096611 98 0 0 0 1.94621
14.47462 1.8013684 4.7941236 18 0 0 0 47.628151
21.766666 1.6241219 4.9982476 54 0 0 0 48.407928
-23.025003 2.2433496 4.7709069 50 0 0 0 1.16921
-15.834016 2.3211215 4.8695316 41 0 0 0 1.94621
-14.233586 2.4442003 4.7493367 73 0 0 0 2.3329899
20.082579 2.4961648 4.6358991 51 0 0 0 47.628151
22.552544 2.2369072 4.6324787 24 0 0 0 48.015831
-13.559646 2.6654036 4.8810129 56 0 0 0 2.7339301
-11.586967 2.8681099 4.5057702 38 0 0 0 3.5053401
19.328333 2.8870609 4.9578714 71 0 0 0 47.2346
21.917595 2.7195845 4.5148096 24 0 0 0 47.628151
57.637577 2.8489149 4.6400237 18 0 0 0 48.793568
-13.895477 3.0903287 4.681252 152 0 0 0 3.11619
-12.495163 3.0942817 4.5464401 32 0 0 0 3.5053401
30.78974 3.0515306 4.7823091 48 0 0 0 48.015831
-13.111093 3.9406044 4.5022755 253 0 0 0 4.2948399
-12.16379 3.6503365 4.7945666 60 0 0 0 4.2948399
30.818018 3.821049 4.7988086 50 0 0 0 47.628151
-13.47008 4.4107475 4.6613512 22 0 0 0 4.6779799
-12.695452 4.1510177 4.7179685 66 0 0 0 4.6779799
15.62824 4.3511147 4.9231563 11 0 0 0 45.283592
-22.396893 4.9937325 4.7309189 20 0 0 0 3.11619
-12.781362 5.2483368 4.5439777 52 0 0 0 5.8470302
17.201908 5.2435369 4.5628695 29 0 0 0 44.883327
-18.187904 5.9640551 4.881546 11 0 0 0 4.6779799
-11.750743 5.8583851 4.9576845 12 0 0 0 7.0070701
16.911123 5.6132355 4.521069 23 0 0 0 44.497688
-19.501719 6.3962059 4.731946 10 0 0 0 4.6779799
-13.004117 6.0996099 4.7235355 17 0 0 0 6.6226702
-12.148812 6.433526 4.8558888 22 0 0 0 7.4011998
10.567041 6.3753786 4.6645093 105 0 0 0 40.983089
17.942774 6.4487805 4.8345723 11 0 0 0 44.109688
-16.177219 6.651412 4.8933716 33 0 0 0 5.8470302
-12.930532 6.8556252 4.812767 38 0 0 0 7.4011998
-11.577389 6.8740821 4.7560115 63 0 0 0 8.1784697
10.443357 6.6568913 4.6805282 52 0 0 0 40.587688
17.561592 6.8042264 4.7757239 13 0 0 0 43.71714
-21.455755 7.0433607 4.6549382 21 0 0 0 4.6779799
-13.444086 7.1260371 4.6290445 26 0 0 0 7.4011998
-11.549815 7.2458739 4.8161345 14 0 0 0 8.5672197
-10.202062 7.4914169 4.7795925 210 0 0 0 9.73944
11.723902 7.46381 4.5653152 22 0 0 0 40.587688
-14.631154 7.7619519 4.6329231 44 0 0 0 7.4011998
-10.316703 7.5755458 4.5214171 108 0 0 0 9.73944
9.9276648 7.8002577 4.7700038 18 0 0 0 39.028873
15.435949 7.8048453 4.8183951 29 0 0 0 42.15934
-14.38635 8.0887079 4.6164689 49 0 0 0 7.7957201
-12.626228 8.3701038 4.9811125 9 0 0 0 8.9645996
13.337359 8.4901714 4.7961802 16 0 0 0 40.587688
-29.384781 8.8639851 4.8120637 22 0 0 0 4.2948399
-12.939625 8.5751848 4.7219315 25 0 0 0 8.9645996
-10.987645 8.5003786 4.5682435 30 0 0 0 10.13622
11.521186 8.5909138 4.7188549 27 0 0 0 39.421421
44.495918 8.8715277 4.7505875 16 0 0 0 46.450314
-19.649866 9.2363663 4.7370758 17.5 0 0 0 6.6226702
-12.88223 9.4772558 4.8643703 27 0 0 0 9.73944
9.543189 9.149826 4.9922705 13 0 0 0 37.467049
11.633885 9.129673 4.6700382 31.5 0 0 0 39.028873
-19.198317 9.6024704 4.9463334 19 0 0 0 7.0070701
-10.727021 9.6383629 4.7420478 25 0 0 0 11.30679
42.797127 9.6318521 4.5931201 33 0 0 0 46.051952
-13.935007 10.796782 4.9290118 28 0 0 0 10.13622
5.4497061 10.959486 4.6243253 23 0 0 0 31.99699
16.776085 10.667519 4.5482807 18 0 0 0 40.587688
-14.573286 11.293287 4.6983433 17 0 0 0 10.13622
-14.180346 11.554694 4.6612244 22 0 0 0 10.52247
42.018162 11.651651 4.5635562 31 0 0 0 45.283592
-8.9130659 13.938961 4.624856 94 0 0 0 15.60665
-5.8462448 13.9226 4.9635167 60 0 0 0 18.324881
-5.5206714 14.098278 4.6028624 47 0 0 0 18.726431
15.38647 14.0072 4.7574568 16 0 0 0 37.865128
5.1353865 14.544533 4.680995 104 0 0 0 30.030939
-0.073996529 15.491847 4.7052174 42 0 0 0 24.56864
0.30739635 15.516253 4.7131991 55 0 0 0 24.964939
-56.117439 16.95731 4.8646865 5 0 0 0 4.2948399
-28.123861 19.720478 4.5230422 9 0 0 0 9.3587503
24.459414 -29.79805 5.0431828 9 0 0 0 63.639767
8.5474396 -23.885544 5.2162008 20 0 0 0 69.103798
-6.1074095 -22.115072 5.282197 18 0 0 0 78.875
-11.229717 -21.041481 5.4869938 45 0 0 0 82.387939
25.015921 -20.527027 5.0333776 31 0 0 0 60.503071
16.157345 -18.73241 5.0814199 23 0 0 0 63.246513
4.5590649 -18.187531 5.2493606 12 0 0 0 70.672234
2.1908619 -17.714924 5.2186179 19.5 0 0 0 72.617203
2.6296241 -17.678417 5.4450111 16 0 0 0 72.228706
3.5074482 -17.599129 5.4667726 10 0 0 0 71.452072
4.9563036 -17.899168 5.1998253 22 0 0 0 70.279549
15.504582 -17.969425 5.4575171 55 0 0 0 63.246513
3.7557285 -16.699041 5.2155809 29 0 0 0 71.057213
5.9129772 -16.511904 5.3429046 18 0 0 0 69.103798
6.3826952 -16.533876 5.3985639 58 0 0 0 68.718681
6.8658285 -16.563831 5.4611549 8 0 0 0 68.331924
-16.407852 -15.644785 5.2117686 73 0 0 0 87.475159
5.230485 -15.828233 5.4923191 132 0 0 0 69.492554
5.7191811 -15.384518 5.4083667 57 0 0 0 68.91124
-13.081892 -13.762257 5.3092637 21 0 0 0 86.695709
-10.531835 -13.522625 5.2185674 18 0 0 0 85.120087
-1.9914191 -13.500032 5.1704392 20 0 0 0 76.919395
0.0087140761 -13.527123 5.1259031 20 0 0 0 74.57296
-10.690235 -13.052629 5.1371098 19 0 0 0 85.512161
-8.2551699 -13.069317 5.4718671 12 0 0 0 83.557365
6.6915002 -13.284196 5.2678747 40 0 0 0 67.151794
20.715771 -13.117213 5.0292201 32 0 0 0 58.548199
-12.903831 -12.924992 5.1078124 51 0 0 0 87.082115
6.5121751 -12.928432 5.4822531 129 0 0 0 67.151794
-10.18012 -12.425814 5.2899752 16 0 0 0 85.512161
-9.4932098 -12.194389 5.4695449 32 0 0 0 85.120087
5.7128506 -12.071627 5.0603824 140 0 0 0 67.541107
18.142673 -12.118551 5.0138831 18 0 0 0 58.940578
21.541887 -12.201572 5.0760336 28 0 0 0 57.763561
9.9315042 -11.515984 5.0105853 46 0 0 0 63.246513
-8.6691504 -11.136832 5.3436146 18 0 0 0 85.120087
-8.498312 -11.48782 5.4101372 15 0 0 0 84.733521
9.8815231 -11.449626 5.3542986 59 0 0 0 63.246513
21.128185 -11.286228 5.4980745 29 0 0 0 57.382881
-9.1115532 -10.58987 5.2894406 16 0 0 0 85.912811
38.912685 -10.756321 5.2478442 8 0 0 0 53.874859
-13.677362 -9.6539955 5.0946245 75 0 0 0 89.81765
-13.023844 -9.6769018 5.3403988 7 0 0 0 89.431297
-13.829347 -9.2595177 5.2683926 72.5 0 0 0 90.216064
-13.453594 -9.492589 5.4186001 53 0 0 0 89.81765
-12.058494 -9.4349337 5.417048 43 0 0 0 89.034065
-11.987987 -9.3732281 5.0110912 77 0 0 0 89.034065
-14.13623 -8.9721432 5.0946321 88 0 0 0 90.603645
-15.480061 -7.3401113 5.2107658 64 0 0 0 92.539742
18.342827 -6.5565176 5.4367566 20 0 0 0 55.035633
-15.160316 -5.8617048 5.3471279 74 0 0 0 93.71965
14.695016 -5.6646786 5.1806526 16 0 0 0 55.427479
25.053877 -5.6182337 5.2529664 28 0 0 0 53.086021
-20.278864 -5.0930109 5.3144464 68 0 0 0 95.673111
-15.777474 -5.2283225 5.0552831 174 0 0 0 94.50972
14.176645 -5.4591503 5.3712654 49 0 0 0 55.427479
13.78405 -4.5443125 5.1327991 50 0 0 0 54.652618
19.090122 -4.7730803 5.4896498 27 0 0 0 53.476807
13.727724 -4.1545291 5.2478147 88.5 0 0 0 54.261238
-15.834617 -3.9780412 5.3698258 65 0 0 0 95.673111
-14.318666 -3.9794416 5.2560825 59 0 0 0 95.285347
14.22635 -3.5525827 5.1842771 57 0 0 0 53.476807
32.244015 -3.9642825 5.0282259 19 0 0 0 51.522438
-13.489128 -3.0443251 5.2322259 30 0 0 0 96.056259
18.178543 -3.1448421 5.1476755 34 0 0 0 52.313488
-14.718524 -2.9433291 5.3078232 67 0 0 0 96.447746
18.917643 -2.3221002 5.3158426 44 0 0 0 51.522438
13.464648 -1.9851162 5.147419 40 0 0 0 51.916618
19.568075 -1.9149886 5.4819355 31 0 0 0 51.133598
-15.310424 -1.1427612 5.4276633 17 0 0 0 98.390961
21.896839 0.55441475 5.016902 47 0 0 0 49.185398
-23.590134 1.1356078 5.4469023 12 0 0 0 0.39309999
21.659956 1.0820076 5.4998212 34 0 0 0 48.793568
-23.281658 1.6919837 5.3833599 30 0 0 0 0.77827001
-13.253903 1.6107812 5.0404401 138 0 0 0 1.56444
-23.287994 2.265981 5.3956904 5 0 0 0 1.16921
16.539745 2.4721067 5.490006 31 0 0 0 47.2346
32.77985 2.4370239 5.0791712 19 0 0 0 48.407928
-22.355389 2.7279584 5.1934943 66 0 0 0 1.56444
19.360676 2.8921645 5.4527731 75 0 0 0 47.2346
-13.842112 3.0739698 5.0084095 197 0 0 0 3.11619
15.795459 3.1620862 5.2889576 25 0 0 0 46.450314
18.428928 3.218349 5.2123961 21 0 0 0 46.841328
19.442369 3.3946767 5.0060945 95 0 0 0 46.841328
-13.342155 3.654196 5.2230906 33 0 0 0 3.8980401
18.859177 3.7733481 5.3570523 79 0 0 0 46.450314
19.460306 3.8931077 5.0330944 79 0 0 0 46.450314
15.736085 4.3782678 5.3610573 14 0 0 0 45.283592
17.379051 4.3798871 5.4350233 83 0 0 0 45.665913
18.512297 4.1799736 5.2861762 41 0 0 0 46.051952
30.136408 4.4914608 5.4628949 10 0 0 0 47.2346
-13.436432 4.7615347 5.0356255 85 0 0 0 5.0622802
17.890574 4.5049677 5.139421 14 0 0 0 45.665913
32.629879 4.8621178 5.0946932 40 0 0 0 47.2346
-13.425035 5.1301537 5.0769057 31 0 0 0 5.4509101
-12.268816 5.3866467 5.0593572 62 0 0 0 6.23418
15.215283 5.4711947 5.3065495 29 0 0 0 44.109688
17.985649 5.4820318 5.2363558 21 0 0 0 44.883327
19.349928 5.3804798 5.0915227 19 0 0 0 45.283592
51.797153 5.1201248 5.4503145 11 0 0 0 48.015831
-18.867924 6.7037101 5.1062078 8 0 0 0 5.0622802
-16.24445 6.676805 5.3433881 34 0 0 0 5.8470302
-20.525118 7.2944713 5.0214334 15 0 0 0 5.0622802
47.909512 7.1261969 5.0717263 22 0 0 0 47.2346
-20.531321 7.8678741 5.0681791 20 0 0 0 5.4509101
-19.204054 7.9022017 5.2947264 22 0 0 0 5.8470302
-12.121888 7.6084356 5.40417 42 0 0 0 8.5672197
-10.906712 7.608882 5.0216613 25 0 0 0 9.3587503
17.533037 7.805089 5.3423038 15 0 0 0 42.93782
-28.13463 8.4870062 5.3333812 31 0 0 0 4.2948399
-12.690508 8.4075699 5.3769927 31 0 0 0 8.9645996
18.222393 8.1111116 5.0547743 31 0 0 0 42.93782
-11.613976 8.9833241 5.1863089 15 0 0 0 10.13622
11.595661 8.6523819 5.1052761 6 0 0 0 39.421421
-27.744541 9.115798 5.2998157 7 0 0 0 4.6779799
-11.877179 9.6693058 5.0357256 29 0 0 0 10.52247
-16.829069 10.02162 5.4770412 54 0 0 0 8.1784697
-16.432724 10.338034 5.4284759 120 0 0 0 8.5672197
-16.843451 10.596688 5.0714402 41 0 0 0 8.5672197
13.240832 10.923319 5.2026954 20 0 0 0 38.643768
-14.029593 11.432283 5.0597887 26 0 0 0 10.52247
-13.582559 11.062923 5.3271861 28 0 0 0 10.52247
-10.966041 11.422891 5.2060266 27 0 0 0 12.47143
-12.480585 12.382892 5.3458605 38 0 0 0 12.08367
5.6245341 12.035254 5.015974 20 0 0 0 31.60811
13.436698 12.237492 5.0586729 14 0 0 0 37.865128
-11.481534 12.562829 5.1750436 46 0 0 0 12.85661
-12.738623 13.280995 5.1438069 17 0 0 0 12.47143
-9.3008509 13.08461 5.2776957 46 0 0 0 14.82123
-8.991209 13.329295 5.2858415 60 0 0 0 15.21563
14.806408 13.480561 5.0717239 9 0 0 0 37.865128
-9.390749 13.92016 5.1055074 77 0 0 0 15.21563
-8.8726101 13.871378 5.0067143 119 0 0 0 15.60665
-12.801825 14.021625 5.3064008 51 0 0 0 12.85661
-12.322416 14.178113 5.2498755 21 0 0 0 13.25729
-5.9534349 14.169399 5.4275308 27 0 0 0 18.324881
-6.618906 14.751278 5.3134913 22 0 0 0 17.93425
-0.81117332 14.964856 5.2904758 88 0 0 0 23.793289
4.8888812 14.997635 5.1768012 18 0 0 0 29.6439
5.2571449 14.875457 5.1774626 71 0 0 0 30.030939
-0.44779897 15.347423 5.0432038 71 0 0 0 24.177691
-0.070596464 15.718318 5.162035 26 0 0 0 24.56864
-4.7677135 16.157656 5.1182561 46 0 0 0 20.091484
-3.2674637 16.05055 5.3801947 70 0 0 0 21.448259
-2.8616993 16.064463 5.3595138 29 0 0 0 21.84296
-1.769614 17.188658 5.2461448 43 0 0 0 23.00433
-35.893494 17.992779 5.2908001 28 0 0 0 7.0070701
-3.5974741 17.693455 5.2606297 78 0 0 0 21.448259
-5.5844264 18.147354 5.2993841 40 0 0 0 19.892019
46.984428 18.155184 5.2623572 21 0 0 0 43.71714
-5.205049 18.523455 5.3693724 100 0 0 0 20.290951
-4.7723227 18.739407 5.3957162 36 0 0 0 20.676069
-4.3346176 18.956528 5.4252677 39 0 0 0 21.060141
-3.4339423 19.348413 5.4811506 53 0 0 0 21.84296
-2.9574544 19.424419 5.4799366 83 0 0 0 22.230789
-2.454216 19.285975 5.4220448 45 0 0 0 22.619009
46.518772 19.301563 5.2609625 19 0 0 0 43.333141
47.582664 21.126942 5.4363132 17 0 0 0 42.93782
23.986752 -35.888329 5.6458673 6 0 0 0 65.20034
8.5731287 -23.943243 5.8514624 14 0 0 0 69.103798
9.1715288 -23.760866 5.8597751 12 0 0 0 68.718681
-5.0754108 -22.654921 5.9151282 46 0 0 0 78.086494
-5.512197 -22.05426 5.7923274 28 0 0 0 78.48455
-0.52407295 -21.684465 5.5294676 21 0 0 0 74.966171
7.6717172 -21.427988 5.7988977 16 0 0 0 69.103798
-1.5346723 -20.922338 5.869843 22 0 0 0 75.749763
0.98417711 -19.902805 5.5774159 55 0 0 0 73.788864
14.833288 -19.993925 5.7242188 13 0 0 0 64.41954
14.95299 -19.154922 5.5878038 61 0 0 0 64.027718
-9.5101175 -18.923738 5.9223523 13 0 0 0 81.999672
3.2684133 -18.790743 5.8084006 14 0 0 0 71.845131
4.6453032 -18.516556 5.8133883 17 0 0 0 70.672234
5.3748956 -17.698244 5.6332378 7 0 0 0 69.892082
13.913013 -17.823536 5.7568908 20 0 0 0 64.027718
2.4849286 -16.686369 5.972084 14 0 0 0 72.228706
2.9312935 -16.873154 5.6422348 27 0 0 0 71.845131
3.3846903 -16.99914 5.70997 39 0 0 0 71.452072
3.6581693 -16.265305 5.6954241 34 0 0 0 71.057213
4.1082549 -16.391047 5.5673528 15 0 0 0 70.672234
3.9122818 -15.587089 5.6901622 99 0 0 0 70.672234
2.6852441 -15.426836 5.9288874 13 0 0 0 71.845131
3.20402 -15.094049 5.8432035 57 0 0 0 71.254639
3.8031332 -15.152544 5.9150543 120 0 0 0 70.672234
4.2191086 -15.218895 5.7839041 93 0 0 0 70.279549
4.625257 -15.223139 5.8258839 88 0 0 0 69.892082
5.2701683 -15.300745 5.7297921 114 0 0 0 69.298172
5.8234997 -15.07887 5.7226124 67 0 0 0 68.718681
4.9070702 -14.832931 5.9151697 127 0 0 0 69.492554
5.3160667 -14.838183 5.9671025 100 0 0 0 69.103798
6.0051136 -14.482099 5.9352269 129 0 0 0 68.331924
-12.796065 -12.821442 5.5117393 53 0 0 0 87.082115
-9.2947483 -12.563368 5.5309486 16 0 0 0 84.733521
6.8682585 -12.841161 5.5147214 53 0 0 0 66.766808
-8.1967869 -12.298509 5.5949702 36 0 0 0 83.948814
9.9045277 -11.475802 5.7380118 112 0 0 0 63.246513
29.765928 -10.642478 5.6852589 14 0 0 0 55.035633
-12.907094 -9.5971146 5.6885414 18 0 0 0 89.431297
-13.384491 -9.2077312 5.7454472 48 0 0 0 90.016861
-14.941986 -8.4808636 5.651433 50 0 0 0 91.385246
106.45754 -7.84727 5.9106793 9 0 0 0 50.749447
-14.835996 -7.0381017 5.8049278 31 0 0 0 92.539742
-20.267984 -5.6228051 5.8689232 40 0 0 0 95.285347
-15.312988 -4.663373 5.6585107 48 0 0 0 94.900368
13.808208 -4.7414761 5.5214128 111.5 0 0 0 54.844124
-16.028646 -4.0326595 5.8409705 64 0 0 0 95.673111
-15.61337 -3.5229416 5.6575007 79 0 0 0 96.056259
24.722418 -3.6530461 5.7235351 24 0 0 0 51.916618
-14.652578 -2.5575349 5.6246257 11 0 0 0 96.836258
14.631634 -1.7904538 5.5712638 7 0 0 0 51.522438
18.528334 0.47351235 5.6235714 51 0 0 0 49.185398
19.274616 1.4428481 5.8617358 34 0 0 0 48.407928
18.476515 1.8410074 5.6322069 30 0 0 0 48.015831
-32.19706 2.345994 5.8619595 18 0 0 0 0.77827001
-22.279203 2.168298 5.7096791 40 0 0 0 1.16921
16.55061 2.0651433 5.885191 22 0 0 0 47.628151
18.390684 2.7511098 5.6394434 33 0 0 0 47.2346
56.587147 2.7979822 5.9328241 9 0 0 0 48.793568
-16.430197 3.2391045 5.5076709 49 0 0 0 2.7339301
16.668158 3.7649071 5.6074581 22 0 0 0 46.051952
19.331465 3.8714032 5.9755683 25 0 0 0 46.450314
17.187351 4.3286963 5.8141427 35 0 0 0 45.665913
32.319008 4.0074058 5.8371863 15 0 0 0 47.628151
16.362198 4.9886765 5.6121221 16 0 0 0 44.883327
19.767462 5.4965434 5.7105641 32 0 0 0 45.283592
18.632061 5.6823354 5.9027276 84 0 0 0 44.883327
-18.836027 6.6933017 5.5922236 7 0 0 0 5.0622802
15.783912 7.4988909 5.7304945 8 0 0 0 42.545738
16.80238 7.2370768 5.5453181 13.5 0 0 0 43.135483
18.759632 7.2673812 5.598793 39 0 0 0 43.71714
-13.556842 8.0596123 5.9555302 23 0 0 0 8.1784697
-12.462562 8.2563591 5.6449471 29 0 0 0 8.9645996
-13.742826 10.119541 5.6110063 22 0 0 0 9.73944
-12.679708 10.321235 5.7745128 20 0 0 0 10.52247
14.713174 10.408748 5.9072633 9 0 0 0 39.814552
-34.528084 11.35069 5.6946931 16 0 0 0 4.6779799
-12.271772 11.031046 5.827908 38 0 0 0 11.30679
-11.880734 11.216578 5.770751 30 0 0 0 11.69174
-34.207958 12.181607 5.6888304 24 0 0 0 5.0622802
9.8419027 12.076497 5.8745456 16 0 0 0 35.505081
-9.0768251 12.758616 5.5306773 97 0 0 0 14.82123
14.456889 12.531881 5.7941642 7 0 0 0 38.25267
-12.669559 13.20526 5.5638537 44 0 0 0 12.47143
-8.8821249 13.157662 5.6072278 118 0 0 0 15.21563
-6.3569903 14.151325 5.8576951 61 0 0 0 17.93425
-5.3117094 14.615538 5.8711891 38 0 0 0 19.108469
-4.9700861 14.797701 5.8933001 64 0 0 0 19.49815
0.65074629 14.737141 5.5682526 73 0 0 0 25.3601
5.5769892 14.638645 5.9085188 12 0 0 0 30.43182
-0.45291373 15.395977 5.8132749 60 0 0 0 24.177691
0.30074435 15.263929 5.7619786 19 0 0 0 24.964939
2.1633289 15.069286 5.7447586 27 0 0 0 26.917549
4.9168172 15.096262 5.9882932 66 0 0 0 29.6439
-5.2501221 15.64159 5.8244376 9 0 0 0 19.49815
-4.8579116 15.743426 5.8159804 5 0 0 0 19.892019
-2.0301273 15.827755 5.6320152 8 0 0 0 22.619009
-0.26836327 15.667396 5.7212963 69 0 0 0 24.373165
-0.075469837 16.012188 5.650207 45 0 0 0 24.56864
-4.292417 16.832706 5.7051344 30 0 0 0 20.676069
-3.7942309 16.560532 5.5799389 71 0 0 0 21.060141
-1.7309062 16.783947 5.9534297 23 0 0 0 23.00433
-2.6427062 17.317709 5.7517786 39 0 0 0 22.230789
-4.5817165 17.969826 5.6308684 54 0 0 0 20.676069
-1.3818684 17.752766 5.8449583 15 0 0 0 23.399441
-2.3005822 18.024103 5.515615 35 0 0 0 22.619009
-0.95718515 18.021048 5.9230123 28 0 0 0 23.793289
0.3742401 18.113449 5.9450979 19 0 0 0 24.964939
-33.236965 18.752466 5.9700441 27 0 0 0 7.7957201
-4.2352891 18.50399 5.7627773 69 0 0 0 21.060141
-3.3328097 18.752541 5.7811785 80 0 0 0 21.84296
-2.8471935 18.666243 5.7310925 61 0 0 0 22.230789
-36.942478 19.668001 5.5127668 15 0 0 0 7.4011998
-24.967733 20.400389 5.8368659 18 0 0 0 10.52247
-30.607531 21.469881 5.8446579 20 0 0 0 9.3587503
5.6788917 22.955397 5.9913087 25 0 0 0 28.479099
48.226257 22.846415 5.5706272 5 0 0 0 42.545738
8.5613146 -25.892931 6.2727008 12 0 0 0 69.492554
15.015759 -23.701269 6.4481511 14 0 0 0 65.594482
-2.7704613 -22.545012 6.3527584 14 0 0 0 76.534325
15.297136 -22.883583 6.3261662 11 0 0 0 65.20034
-10.394826 -22.01248 6.1980252 15 0 0 0 81.616417
-6.6898537 -22.09646 6.4550414 15 0 0 0 79.268707
-10.952489 -21.792217 6.2093801 13 0 0 0 81.999672
-11.271783 -21.119982 6.0950346 19 0 0 0 82.387939
-5.8275042 -21.101601 6.1226835 16 0 0 0 78.875
-5.3617311 -21.452318 6.1843066 15 0 0 0 78.48455
0.52205992 -20.820593 6.3399782 18 0 0 0 74.187347
12.199339 -20.346352 6.0401936 36 0 0 0 65.976463
13.177507 -19.715214 6.0369897 28 0 0 0 65.20034
13.615705 -19.32688 6.0184059 42 0 0 0 64.806442
-9.5278835 -18.967073 6.4572425 16 0 0 0 81.999672
-8.6637945 -18.356676 6.1768718 43 0 0 0 81.616417
2.7035277 -18.194963 6.0580239 9 0 0 0 72.228706
2.1888878 -17.658827 6.2973967 10 0 0 0 72.617203
4.8892074 -17.655935 6.0332131 8 0 0 0 70.279549
13.096806 -17.654591 6.1441813 25 0 0 0 64.41954
2.919457 -16.769815 6.0254455 26 0 0 0 71.845131
-29.050671 -16.473808 6.0137053 18 0 0 0 91.385246
-9.1544199 -15.31032 6.3096709 15 0 0 0 83.170036
5.7204933 -14.812126 6.0109091 89 0 0 0 68.718681
-13.15148 -13.834998 6.2787962 39 0 0 0 86.695709
15.781301 -13.604408 6.3346009 23 0 0 0 60.889248
21.195292 -13.413924 6.3741837 38 0 0 0 58.548199
20.91337 -11.170966 6.0248256 21 0 0 0 57.382881
14.654911 -10.310753 6.3338566 14 0 0 0 59.335152
-12.870574 -9.5698586 6.0654802 31 0 0 0 89.431297
13.02833 -9.6542788 6.13308 100 0 0 0 59.72142
-13.013987 -9.1893253 6.0249596 49 0 0 0 89.81765
-16.327515 -8.2345667 6.0120807 43 0 0 0 92.151749
-14.044843 -7.5287542 6.0254064 16 0 0 0 91.763832
-14.614005 -6.9328465 6.1150084 22 0 0 0 92.539742
18.618259 -6.6537952 6.4935455 31 0 0 0 55.035633
-20.37508 -5.6562915 6.4201651 23 0 0 0 95.285347
24.264563 -5.4358463 6.3081207 19 0 0 0 53.086021
19.937666 -3.9514008 6.168087 20 0 0 0 52.700687
18.435993 0.47164184 6.2781849 18.5 0 0 0 49.185398
18.326559 1.3691068 6.0303507 17 0 0 0 48.407928
21.796936 1.0892128 6.076848 19 0 0 0 48.793568
17.838114 1.7812411 6.3228073 25 0 0 0 48.015831
18.71666 1.8618805 6.170433 20 0 0 0 48.015831
18.019793 2.6994846 6.4248648 42 0 0 0 47.2346
19.286674 3.3683469 6.4196181 59 0 0 0 46.841328
17.147167 4.3251662 6.2350626 51 0 0 0 45.665913
16.623608 4.6309853 6.0849547 16 0 0 0 45.283592
20.153204 4.5536089 6.259737 53 0 0 0 46.051952
16.464846 5.0263376 6.0700603 21 0 0 0 44.883327
18.023325 6.9830375 6.3349323 25 0 0 0 43.71714
18.529457 7.1822624 6.0200648 12 0 0 0 43.71714
-29.485308 8.8973207 6.344666 22 0 0 0 4.2948399
-12.681336 9.816268 6.0554924 25 0 0 0 10.13622
13.803539 10.830626 6.1819701 11 0 0 0 39.028873
-11.799643 11.1406 6.1276736 39 0 0 0 11.69174
-11.104935 11.56301 6.053792 13 0 0 0 12.47143
13.653222 11.841314 6.3662157 16 0 0 0 38.25267
-12.328671 12.229384 6.1327705 22 0 0 0 12.08367
13.341367 12.158636 6.3582945 12 0 0 0 37.865128
13.9054 12.050984 6.0295963 6 0 0 0 38.25267
-12.024367 12.526466 6.1321421 41 0 0 0 12.47143
-13.098367 13.005955 6.0673037 11 0 0 0 12.08367
-12.096889 13.23925 6.3330655 31 0 0 0 12.85661
-12.380326 13.559731 6.0350971 40 0 0 0 12.85661
9.1206493 14.513562 6.4603453 22 0 0 0 33.558712
-9.8624935 15.440928 6.021266 8 0 0 0 15.60665
-7.3355546 15.329041 6.4153447 26 0 0 0 17.55183
-4.3298745 15.355302 6.0223751 18 0 0 0 20.290951
5.3069811 15.028027 6.01088 63 0 0 0 30.030939
10.192288 15.360987 6.4928837 10 0 0 0 33.940033
-0.85562313 15.877172 6.0003757 38 0 0 0 23.793289
6.4713731 15.793254 6.4340973 16 0 0 0 30.821421
8.8930712 15.824303 6.3945312 15 0 0 0 32.77317
-2.050909 16.002117 6.0884442 13 0 0 0 22.619009
-1.7295297 16.778378 6.3641877 19 0 0 0 23.00433
-1.3024651 16.621105 6.2905912 23 0 0 0 23.399441
5.4812226 16.809719 6.2316189 33 0 0 0 29.6439
-1.3354044 17.054218 6.035162 26 0 0 0 23.399441
0.34857351 17.276512 6.0949998 27 0 0 0 24.964939
-34.880116 18.569437 6.1822305 30 0 0 0 7.4011998
-55.901386 19.933746 6.3620663 10 0 0 0 5.0622802
-28.140343 20.784695 6.3336043 14 0 0 0 9.73944
17.092112 20.914309 6.1641097 24 0 0 0 35.505081
17.862909 20.791777 6.2550092 22 0 0 0 35.90078
-27.717487 21.542313 6.3543758 23 0 0 0 10.13622
4.4520326 22.736906 6.4474049 64 0 0 0 27.69738
5.0225697 22.679724 6.4635072 52 0 0 0 28.09012
-27.006981 23.201212 6.4425607 50 0 0 0 10.91302
6.361558 23.244347 6.1044312 51 0 0 0 28.861151
-26.626596 24.034309 6.4893813 49 0 0 0 11.30679
16.80336 -23.847239 6.7022653 18 0 0 0 64.806442
-10.402649 -22.028767 6.8077073 32 0 0 0 81.616417
7.1549129 -21.629202 6.9308434 13 0 0 0 69.492554
-11.205338 -20.995289 6.6503763 38 0 0 0 82.387939
12.049252 -20.095634 6.5482965 17 0 0 0 65.976463
8.8114262 -19.859882 6.6103649 36 0 0 0 67.935211
10.551717 -19.724911 6.8040843 31 0 0 0 66.766808
12.579255 -19.857849 6.5689216 44 0 0 0 65.594482
11.681172 -19.474123 6.9059443 26 0 0 0 65.976463
-0.9019407 -18.640692 6.6032033 34 0 0 0 75.36364
3.7147424 -18.618649 6.716888 12 0 0 0 71.452072
7.8305016 -18.895962 6.7312942 29 0 0 0 68.331924
14.50417 -18.579264 6.5853295 36 0 0 0 64.027718
14.156607 -18.12738 6.9925828 33 0 0 0 64.027718
-7.9057293 -17.882082 6.9139361 63 0 0 0 81.220596
12.991891 -17.506336 6.6298881 23 0 0 0 64.41954
15.203739 -17.619816 6.5018024 53 0 0 0 63.246513
2.1251488 -17.145035 6.5382524 15 0 0 0 72.617203
15.292603 -16.861296 6.9197645 41 0 0 0 62.849167
-28.336046 -16.068602 6.6682229 15 0 0 0 91.385246
-29.045565 -15.54129 6.7421951 7 0 0 0 91.763832
10.423624 -14.043335 6.6154017 17 0 0 0 64.41954
-13.206303 -13.902125 6.777153 36 0 0 0 86.695709
15.047734 -13.634748 6.6774211 22 0 0 0 61.289921
13.435815 -11.579515 6.7063818 60 0 0 0 60.889248
16.985672 -11.344414 6.7134657 19 0 0 0 58.940578
-21.107084 -6.4214659 6.6971245 23 0 0 0 94.900368
21.515535 1.0793095 6.529079 23 0 0 0 48.793568
32.683758 1.6248552 6.6735744 26 0 0 0 48.793568
18.4147 3.6920168 6.6201353 21 0 0 0 46.450314
18.012272 6.9861169 6.8058934 19 0 0 0 43.71714
17.375706 7.2361407 6.631475 22 0 0 0 43.333141
19.001793 8.4574308 6.8128633 8 0 0 0 42.93782
-12.366834 12.268764 6.5775142 28 0 0 0 12.08367
-6.7658763 16.130758 6.6024694 18 0 0 0 18.324881
7.4551921 16.98068 6.5332885 11 0 0 0 31.21599
51.051155 18.307711 6.9982781 15 0 0 0 44.109688
48.04924 19.946072 6.7129874 18 0 0 0 43.333141
12.8515 21.556229 6.9724216 6 0 0 0 33.16407
13.764333 21.846703 6.5306931 8 0 0 0 33.558712
3.7964628 22.305033 6.8539658 37 0 0 0 27.312771
48.337643 22.909605 6.8997169 13 0 0 0 42.545738
5.6940489 23.012121 6.5948577 65 0 0 0 28.479099
6.3008466 23.021212 6.6389818 65 0 0 0 28.861151
-26.204321 24.846354 6.5319099 46 0 0 0 11.69174
-25.854132 25.748072 6.5989161 48 0 0 0 12.08367
-25.412807 26.581888 6.6495657 24 0 0 0 12.47143
-5.6776991 -25.342506 7.2581167 21 0 0 0 78.086494
-9.8852358 -22.346529 7.4294744 20 0 0 0 81.220596
15.001705 -21.291225 7.2740669 18 0 0 0 64.806442
-11.1332 -20.868702 7.1914978 31 0 0 0 82.387939
-6.7886777 -20.588076 7.1321936 49 0 0 0 79.661598
10.521245 -20.883163 7.1113701 54 0 0 0 67.151794
13.611376 -20.3545 7.4431434 24 0 0 0 65.20034
-7.0279946 -19.699104 7.3946886 12 0 0 0 80.049797
13.819016 -19.606499 7.291811 47 0 0 0 64.806442
9.5988894 -19.062248 7.0214539 34 0 0 0 67.151794
10.290938 -19.245441 7.1787963 39 0 0 0 66.766808
9.9900064 -18.667097 7.4844351 64 0 0 0 66.766808
7.6725583 -18.496502 7.0815597 32 0 0 0 68.331924
8.0648994 -18.169432 7.2716317 24.5 0 0 0 67.935211
13.499165 -18.195005 7.4492421 51 0 0 0 64.41954
12.571695 -17.844776 7.17871 47 0 0 0 64.806442
13.903308 -17.809168 7.4285569 52 0 0 0 64.027718
15.175519 -17.580288 7.0595932 31 0 0 0 63.246513
-9.1469679 -17.154411 7.3503232 15 0 0 0 82.387939
-33.277069 -11.920919 7.227138 20 0 0 0 94.110237
28.671469 -11.04545 7.036375 25 0 0 0 55.427479
23.830198 -9.1808462 7.1164827 23 0 0 0 55.427479
-17.432112 -6.745779 7.0597334 24 0 0 0 93.71965
-21.210445 -6.4487982 7.2779226 27 0 0 0 94.900368
-23.227938 2.2589662 7.1021004 20 0 0 0 1.16921
19.110252 4.3226438 7.3842683 25 0 0 0 46.051952
33.862785 6.7613621 7.0340285 20 0 0 0 46.450314
-22.063398 10.373722 7.4154363 19 0 0 0 6.6226702
-22.936602 11.484123 7.171978 15 0 0 0 7.0070701
-12.598415 13.793432 7.0530567 21 0 0 0 12.85661
-10.917809 15.371578 7.1181183 21 0 0 0 14.82123
-35.036255 18.654966 7.1908035 17 0 0 0 7.4011998
-41.43396 20.779835 7.2502117 12 0 0 0 7.0070701
3.7308967 21.898098 7.2790055 29 0 0 0 27.312771
12.437387 22.076759 7.0399756 28 0 0 0 32.77317
3.2872732 22.627531 7.4921408 34 0 0 0 26.917549
5.6814547 22.974966 7.1659136 55 0 0 0 28.479099
-27.231009 23.396704 7.3780823 7 0 0 0 10.91302
4.5503712 23.248198 7.1739383 28 0 0 0 27.69738
5.1054626 23.063835 7.1530323 49 0 0 0 28.09012
-26.345137 24.98288 7.4592042 43 0 0 0 11.69174
-0.074447677 26.377089 7.342514 26 0 0 0 24.56864
-2.0375504 26.591457 7.4260607 19 0 0 0 23.399441
-1.3831543 26.617661 7.4208164 14 0 0 0 23.793289
8.1049976 26.956482 7.1235943 56 0 0 0 29.261021
-10.77517 -21.438803 7.888804 33 0 0 0 81.999672
12.456424 -20.772493 7.9628844 47 0 0 0 65.976463
13.282352 -20.957676 7.5420933 41 0 0 0 65.594482
-10.89887 -20.420891 7.6111169 21 0 0 0 82.387939
12.711242 -20.064592 7.8089423 25 0 0 0 65.594482
10.778804 -19.004145 7.7220206 40 0 0 0 66.36544
12.861275 -19.240637 7.6093755 20 0 0 0 65.20034
11.782672 -18.585592 7.7768021 23 0 0 0 65.594482
13.28655 -17.895092 7.8754654 32 0 0 0 64.41954
14.106135 -17.169807 7.8512893 46 0 0 0 63.639767
15.484732 -17.078197 7.5778241 25 0 0 0 62.849167
13.136535 -15.990466 7.8212986 33 0 0 0 63.639767
23.943108 -9.2188225 7.7806535 21 0 0 0 55.427479
60.745548 1.5212423 7.8569064 9 0 0 0 49.185398
18.395567 8.1960869 7.5856657 16 0 0 0 42.93782
50.165806 11.299084 7.9156618 19 0 0 0 46.051952
3.5382643 20.819603 7.9563131 44 0 0 0 27.312771
4.7518792 21.49572 7.7525167 38 0 0 0 28.09012
0.98712426 21.659718 7.6398191 51 0 0 0 25.3601
3.7504735 22.05126 7.8775024 45 0 0 0 27.312771
4.3182125 22.089293 7.9258528 57 0 0 0 27.69738
4.4643264 22.788994 7.6073785 53 0 0 0 27.69738
1.0701878 23.22076 7.6189203 22 0 0 0 25.3601
5.2686152 23.767859 7.9728923 24 0 0 0 28.09012
7.9305978 26.377283 7.6553636 26 0 0 0 29.261021
-25.203753 27.69655 7.6898279 7 0 0 0 12.85661
4.6999059 27.50211 7.7584209 17 0 0 0 27.312771
1.3109397 28.187534 7.8510351 19 0 0 0 25.3601
-10.09031 -44.997627 8.3216457 23 0 0 0 78.086494
-8.485693 -23.756794 8.2941446 30 0 0 0 80.049797
12.402316 -21.881424 8.2680588 13 0 0 0 66.36544
-8.2520447 -21.451151 8.1226101 33 0 0 0 80.440247
-10.660266 -19.990631 8.0054636 15 0 0 0 82.387939
11.944638 -19.903601 8.2019043 35 0 0 0 65.976463
10.584414 -18.661219 8.1089706 28 0 0 0 66.36544
12.656492 -18.91971 8.0429268 21 0 0 0 65.20034
13.128151 -18.619207 8.049489 20 0 0 0 64.806442
11.620196 -18.329008 8.2017097 81 0 0 0 65.594482
12.363649 -18.481844 8.4024429 38 0 0 0 65.20034
12.688016 -17.995094 8.3203182 17 0 0 0 64.806442
20.322803 -12.849748 8.4853678 22 0 0 0 58.548199
-33.059898 -11.849581 8.0403471 14 0 0 0 94.110237
-29.096792 6.4930086 8.3395996 22 0 0 0 3.11619
49.405678 19.100468 8.1461535 12 0 0 0 43.71714
-28.119762 20.76622 8.0412703 34 0 0 0 9.73944
4.1341286 21.156937 8.1205072 39 0 0 0 27.69738
4.6458941 21.018696 8.1083651 38 0 0 0 28.09012
3.2806668 22.630739 8.0532541 36 0 0 0 26.917549
48.498928 22.986116 8.2510986 8 0 0 0 42.545738
-26.809118 24.196079 8.3030682 16 0 0 0 11.30679
6.1599693 24.866093 8.3873177 31 0 0 0 28.479099
49.21484 24.822994 8.472332 14 0 0 0 42.15934
-26.388239 25.017706 8.3592253 20 0 0 0 11.69174
-26.063677 25.953733 8.454504 22 0 0 0 12.08367
-1.3830094 26.546516 8.0544128 33 0 0 0 23.793289
-0.73232424 26.638134 8.0734243 38 0 0 0 24.177691
9.5134048 -54.749084 8.6471577 10 0 0 0 71.845131
-7.8236222 -23.752838 8.8359365 10 0 0 0 79.661598
-7.1839881 -23.757145 8.7698402 19 0 0 0 79.268707
-12.60891 -19.954863 8.9167337 13 0 0 0 83.557365
11.666507 -19.440039 8.5672026 30 0 0 0 65.976463
-28.147167 20.7887 8.9071207 42 0 0 0 9.73944
5.9970756 24.247093 8.7908125 45 0 0 0 28.479099
-25.22603 27.714268 8.6116428 18 0 0 0 12.85661
-11.213517 -44.824863 9.4744167 34 0 0 0 78.48455
-29.141314 -14.690016 9.0898275 13 0 0 0 92.151749
-30.124638 6.7190495 9.3912163 23 0 0 0 3.11619
49.859718 12.524868 9.1849709 13 0 0 0 45.665913
50.360611 13.973808 9.3357925 15 0 0 0 45.283592
47.675652 19.791647 9.2168913 11 0 0 0 43.333141
47.356121 21.036942 9.2513189 11 0 0 0 42.93782
-27.227482 23.390209 9.1338444 10 0 0 0 10.91302
5.9011431 23.859314 9.2527256 24 0 0 0 28.479099
-26.390139 25.022083 9.2518778 26 0 0 0 11.69174
7.4112611 27.030167 9.1723995 16 0 0 0 28.861151
8.0567541 -54.221333 9.8877468 27 0 0 0 72.228706
6.6275425 -53.624374 9.7470026 8 0 0 0 72.617203
5.2229748 -52.893425 9.5886745 10 0 0 0 73.01255
-9.08955 -45.766991 9.5682507 30 0 0 0 77.701279
-10.166689 -45.337986 9.5275669 42 0 0 0 78.086494
-27.052788 -40.517929 9.9767742 27 0 0 0 83.948814
-29.767223 -38.171154 9.909688 25 0 0 0 85.120087
51.291805 15.598293 9.5744963 12 0 0 0 44.883327
51.860683 17.17337 9.7547369 10 0 0 0 44.497688
50.928364 18.264496 9.660285 16 0 0 0 44.109688
-41.031536 21.858133 9.5617647 28 0 0 0 7.4011998
48.253452 22.870022 9.5315399 17 0 0 0 42.545738
-27.143608 23.320354 9.9938335 19 0 0 0 10.91302
49.229191 24.830303 9.8397913 12 0 0 0 42.15934
6.9453969 25.372259 9.8999739 26 0 0 0 28.861151
24.073877 -62.362625 10.389811 20 0 0 0 68.718681
11.167366 -56.069252 10.310213 5 0 0 0 71.452072
9.557313 -54.999107 10.068409 21 0 0 0 71.845131
-1.2102159 -49.84391 10.223705 15 0 0 0 74.966171
-28.112658 -39.946636 10.001873 36 0 0 0 84.344551
-29.180584 -39.374413 10.033751 29 0 0 0 84.733521
-23.372543 -39.040943 10.435912 14 0 0 0 83.170036
-22.347097 -39.495983 10.408739 5 0 0 0 82.788971
-24.391163 -38.562576 10.463931 17 0 0 0 83.557365
-32.010166 -37.135441 10.034244 36 0 0 0 85.912811
55.891064 2.7762368 10.007522 17 0 0 0 48.793568
48.924988 11.021042 10.196641 18 0 0 0 46.051952
49.6539 12.473779 10.407076 16 0 0 0 45.665913
47.64912 19.780901 10.481327 9 0 0 0 43.333141
47.150814 20.946022 10.480969 11 0 0 0 42.93782
-26.346775 24.983427 10.137909 20 0 0 0 11.69174
-25.943268 25.838785 10.222545 21 0 0 0 12.08367
5.243557 -53.098442 10.938627 24 0 0 0 73.01255
-10.18446 -45.454159 10.691705 18 0 0 0 78.086494
50.430107 13.993614 10.636489 20 0 0 0 45.283592
50.67944 18.175688 10.938117 16 0 0 0 44.109688
49.149963 19.002338 10.705505 16 0 0 0 43.71714
-41.057812 21.865509 10.704393 18 0 0 0 7.4011998
-27.804007 21.605474 10.700178 13 0 0 0 10.13622
-40.549137 22.887955 10.713493 26 0 0 0 7.7957201
48.205269 22.847343 10.834718 20 0 0 0 42.545738
-27.07707 23.257196 10.844904 12 0 0 0 10.91302
-26.669359 24.068537 10.913905 11 0 0 0 11.30679
-20.343468 37.88266 10.918955 11 0 0 0 16.766171
9.5887699 -55.177525 11.479065 17 0 0 0 71.845131
