# .PCD v0.7 - Point Cloud Data file format
VERSION 0.7
FIELDS x y z intensity normal_x normal_y normal_z curvature
SIZE 4 4 4 4 4 4 4 4
TYPE F F F F F F F F
COUNT 1 1 1 1 1 1 1 1
WIDTH 942
HEIGHT 1
VIEWPOINT 0 0 0 1 0 0 0
POINTS 942
DATA ascii
-11.088887 10.970819 0.91020519 210 0 0 0 12.08212
-9.8640165 10.755918 0.85641938 243 0 0 0 12.85955
-18.850996 11.218126 0.71335757 117 0 0 0 8.1935902
-10.589934 11.000083 0.8930276 25 0 0 0 12.46593
-18.478477 11.616884 0.71156144 110 0 0 0 8.57479
-8.7270355 -7.3474832 1.2400072 164 0 0 0 88.484695
-1.2877477 -7.388597 1.1954137 170 0 0 0 77.339806
1.3835299 -7.0184555 1.4945725 329 0 0 0 71.468704
8.2697372 -7.1480293 1.4585677 287 0 0 0 60.90155
-8.8193808 -6.7153659 1.2058907 131.5 0 0 0 89.267082
-7.1650615 -6.5014396 1.2944334 12 0 0 0 87.893379
-3.6708956 -6.6744432 1.0259503 229 0 0 0 82.621826
-3.2921438 -6.5402856 1.1682169 778 0 0 0 82.034966
0.65798652 -6.7925024 1.4271494 84 0 0 0 73.029327
1.1056132 -6.9403496 1.4689413 263 0 0 0 72.057297
1.5185291 -6.8203878 1.4607482 240 0 0 0 71.085632
2.2547152 -6.6889992 1.4186382 128.66667 0 0 0 69.389778
2.8622334 -6.9472947 1.3840293 40 0 0 0 68.343124
7.6981821 -6.99301 1.3894629 355 0 0 0 61.295769
-18.390335 -6.074142 1.1277446 121 0 0 0 94.554657
-14.243973 -6.3179355 1.3024089 101 0 0 0 92.975731
-7.696002 -6.323534 1.3317084 92 0 0 0 88.676674
-7.3887987 -6.3811288 1.3059036 91 0 0 0 88.292709
-6.725256 -6.1026511 1.441595 515 0 0 0 87.893379
-1.7068132 -6.2221613 1.2504028 263.625 0 0 0 78.853477
-1.3054793 -6.1459789 1.4698908 315 0 0 0 77.919312
-0.0085473768 -6.1110306 1.4306357 141 0 0 0 74.595032
0.37723827 -6.2919803 1.2402065 300.5 0 0 0 73.62175
0.73234046 -6.2879992 1.2006366 270.60001 0 0 0 72.717392
1.5607154 -6.2858076 1.0373957 43 0 0 0 70.69239
2.8515923 -6.0646377 1.0727712 265 0 0 0 67.55397
3.2338538 -6.0826135 1.1019456 197 0 0 0 66.780846
3.7331877 -6.2578197 1.1640555 31.5 0 0 0 65.991577
5.067513 -6.1979485 1.2759925 373.66666 0 0 0 63.64854
16.715918 -6.4479337 1.4938285 20 0 0 0 55.428009
-18.777988 -5.6946044 1.1419978 36 0 0 0 94.951248
-7.6018481 -5.645431 1.2676899 147 0 0 0 89.464867
-7.2900729 -5.7926502 1.4002756 290.66666 0 0 0 88.938423
-6.9248905 -5.9807911 1.452291 449 0 0 0 88.292709
-5.1682057 -5.9973578 1.0652387 7 0 0 0 85.949715
0.36690772 -5.7505074 1.4440231 219.66667 0 0 0 73.555336
0.83714312 -5.7208791 1.4974686 207 0 0 0 72.257637
4.9044027 -5.7083712 1.0154139 192 0 0 0 63.25005
7.9404922 -5.9033222 1.202899 514.5 0 0 0 59.731861
10.817261 -5.7905459 1.3325753 264 0 0 0 57.383461
14.024645 -5.812006 1.2715225 75 0 0 0 55.813801
16.776743 -5.7704506 1.4804993 10 0 0 0 54.851944
17.61204 -5.8187928 1.0836753 41 0 0 0 54.656151
19.222561 -5.8297591 1.1708342 121 0 0 0 54.260601
21.385212 -5.9144921 1.2897441 109 0 0 0 53.875912
-11.513463 -5.1079144 1.3653414 196 0 0 0 92.975731
-11.215227 -5.3090434 1.0442433 263 0 0 0 92.577477
0.49286801 -5.1166124 1.4623084 247 0 0 0 73.029327
0.58888829 -5.4084086 1.411011 205.5 0 0 0 72.834366
4.2168827 -5.4287963 1.1007127 6 0 0 0 64.034279
39.825924 -0.94999039 1.3207432 61 0 0 0 49.963001
39.94965 0.029283402 1.3258432 58 0 0 0 49.572849
40.028259 1.0135587 1.3303071 66 0 0 0 49.180126
32.490631 2.4256973 1.0925044 13 0 0 0 48.400539
9.1105375 3.2919152 1.0746477 360 0 0 0 44.105
9.6166964 3.2075655 1.1221246 289 0 0 0 44.48946
25.35364 3.1537907 1.4938719 37 0 0 0 47.62225
9.081007 3.6676908 1.086772 637.5 0 0 0 43.523201
24.834475 3.7119682 1.4700282 110 0 0 0 47.223713
9.1235657 4.0827374 1.1088703 612 0 0 0 42.932259
9.3155088 4.732451 1.1583325 840 0 0 0 42.155079
9.5909739 5.8004584 1.2405937 830 0 0 0 40.975101
9.43647 6.1968775 1.2499793 520 0 0 0 40.395149
7.9942632 8.9168701 1.1813111 495 0 0 0 36.289341
8.3809175 8.8949261 1.2043467 405 0 0 0 36.685162
8.8865385 8.9749346 1.0891339 45 0 0 0 37.078781
9.2595005 8.9000959 1.262867 28.5 0 0 0 37.468601
9.5619297 8.7467976 1.2733798 443 0 0 0 37.860752
10.148473 8.8314238 1.1560967 52 0 0 0 38.246441
10.75753 8.6802559 1.1860535 204 0 0 0 38.837967
11.64889 8.7074881 1.2447921 54 0 0 0 39.415081
12.142995 8.6173382 1.2728546 190 0 0 0 39.802792
-34.210808 9.4134569 1.1053201 20 0 0 0 3.90658
3.678071 9.4198647 1.2528421 572.5 0 0 0 30.623341
4.1825252 9.4275408 1.2345799 45.666668 0 0 0 31.335304
4.7224035 9.2757416 1.2886128 560.25 0 0 0 32.181786
5.218874 9.1052408 1.2989031 720 0 0 0 32.964844
5.7874146 9.2777529 1.2166744 86 0 0 0 33.551418
6.2470169 9.2314129 1.239338 250.5 0 0 0 34.133526
6.6236734 9.0485277 1.2462667 614 0 0 0 34.726727
7.2211108 9.1300507 1.1500199 253.5 0 0 0 35.304111
7.7347856 9.068305 1.176162 318.5 0 0 0 35.898071
8.9343271 9.0226297 1.4040062 28 0 0 0 37.078781
-22.105606 9.7327633 1.3619015 4 0 0 0 6.2392502
-2.3445342 9.9842501 1.2581885 769.5 0 0 0 21.065479
-1.0726833 9.882822 1.2242103 769 0 0 0 23.011351
-0.7021535 9.8234463 1.2142515 822.5 0 0 0 23.588455
-0.22001956 9.8870602 1.3418841 618 0 0 0 24.37532
0.26501763 9.8421144 1.3373101 713 0 0 0 25.153811
0.74189103 9.7246332 1.3261831 826.5 0 0 0 25.942215
1.2278975 9.7432613 1.3361001 741 0 0 0 26.715315
1.7490864 9.6774445 1.2581674 698.33331 0 0 0 27.565741
2.1709223 9.5301418 1.2112744 853.75 0 0 0 28.275934
2.6905017 9.5932293 1.2343731 253 0 0 0 29.055935
3.1945348 9.5495806 1.2474544 103.75 0 0 0 29.83209
-21.373039 10.039701 1.3338224 5 0 0 0 6.6313901
-20.403381 10.19842 1.2911927 63 0 0 0 7.0236301
-19.514067 10.355797 1.2531432 71 0 0 0 7.4053698
-6.7303047 10.450108 1.3504744 493 0 0 0 15.60102
-5.7064743 10.469552 1.3002657 428 0 0 0 16.76816
-5.1601038 10.348755 1.2637846 603.5 0 0 0 17.350349
-4.7042723 10.369572 1.2463342 521 0 0 0 17.93631
-4.3956003 10.353786 1.2325176 353 0 0 0 18.32444
-3.8424292 10.048311 1.3134191 711.5 0 0 0 18.916149
-3.3501523 10.10193 1.2576507 295 0 0 0 19.626368
-2.7820015 10.163333 1.1615078 77.5 0 0 0 20.478069
-2.1076102 10.08281 1.2642974 585 0 0 0 21.45159
-1.7184943 10.049464 1.2528507 46.5 0 0 0 22.033089
-1.3351094 10.013296 1.2428008 63 0 0 0 22.61795
-18.885149 10.620481 1.2312171 151 0 0 0 7.79427
-12.868208 10.989876 1.3990992 202 0 0 0 10.9127
-11.110894 10.987766 1.2986137 236 0 0 0 12.08212
-10.544384 10.947337 1.2654207 172 0 0 0 12.46593
-9.8874426 10.776761 1.2202196 283 0 0 0 12.85955
-9.4716406 10.842426 1.2029848 272 0 0 0 13.25323
-8.9870396 10.807341 1.1765628 38 0 0 0 13.63757
-8.2800684 10.638078 1.3483143 218 0 0 0 14.162234
-7.2586637 10.692369 1.4015142 14 0 0 0 15.20532
-6.243906 10.519022 1.3314054 375.5 0 0 0 16.17934
-18.869564 11.228034 1.2488852 25 0 0 0 8.1935902
-13.913444 11.311195 1.4789504 9 0 0 0 10.52448
-12.362119 11.089753 1.3751096 287 0 0 0 11.30775
-11.746209 11.064499 1.3385071 127 0 0 0 11.69482
-18.458881 11.603271 1.2419696 146 0 0 0 8.57479
-17.641569 11.69875 1.2084734 48 0 0 0 8.9658003
-16.668369 11.647099 1.1638883 42 0 0 0 9.35777
19.681124 -9.3083601 1.8049085 147 0 0 0 56.596249
-8.7757444 -8.7837172 1.9584894 167 0 0 0 87.130493
-20.762953 -8.0116224 1.8450639 41 0 0 0 93.762161
-8.7306318 -8.3201866 1.9033303 199 0 0 0 87.511604
-18.204887 -7.5438843 1.6378109 71 0 0 0 93.372749
1.8794941 -7.1765194 1.5489464 194.5 0 0 0 70.494156
2.6963403 -7.0290208 1.57166 230 0 0 0 68.736198
4.2557688 -7.1254067 1.9334116 328.66666 0 0 0 65.992073
4.9317493 -7.025197 1.9984816 374 0 0 0 64.822983
5.7965446 -7.4500813 1.9633065 24 0 0 0 64.034279
6.1771669 -7.181931 1.9705905 328 0 0 0 63.25005
7.2102661 -7.2283216 1.8705057 186.33333 0 0 0 62.073776
10.889041 -7.2845287 1.7416146 223 0 0 0 58.945766
-19.695292 -6.5084376 1.721827 37 0 0 0 94.554657
-19.169712 -6.8614526 1.6908629 54 0 0 0 94.15699
-16.445797 -6.8154173 1.915346 127 0 0 0 93.372749
-13.879045 -6.5684905 1.656902 158 0 0 0 92.577477
-8.7695951 -6.5116692 1.9974328 166 0 0 0 89.464867
-8.1962395 -6.734139 1.9407067 152 0 0 0 88.676674
-7.1525784 -6.8171444 1.8098429 176 0 0 0 87.511604
0.16136932 -6.9159784 1.6151278 296 0 0 0 74.210121
0.81806302 -6.6893468 1.5749741 307.5 0 0 0 72.643478
1.3195945 -6.6895385 1.5931703 252.33333 0 0 0 71.470436
1.8185798 -6.6178513 1.6038308 223 0 0 0 70.301231
2.2206368 -6.764163 1.5725529 243.5 0 0 0 69.5168
2.8551784 -6.9303064 1.56503 203 0 0 0 68.343124
4.919013 -6.6548629 1.928371 240 0 0 0 64.426926
5.2424736 -6.738802 1.9885257 286 0 0 0 64.034279
6.3181429 -6.9911456 1.9606555 337 0 0 0 62.864498
6.6541319 -6.8384056 1.9853296 327 0 0 0 62.270744
7.2949133 -6.6281762 1.5630409 351 0 0 0 61.295769
7.7349353 -6.6875343 1.6202677 224 0 0 0 60.90155
8.1538305 -6.7059383 1.6718543 172 0 0 0 60.506474
9.471549 -6.6816397 1.8324964 281 0 0 0 59.342739
10.835039 -6.684782 1.6941485 157 0 0 0 58.361885
-49.931648 -6.1413236 1.6387028 57 0 0 0 97.669243
-16.218855 -6.259418 1.8711948 132 0 0 0 93.762161
-12.191085 -6.1436772 1.8126233 36 0 0 0 92.192657
-7.0610008 -6.0982151 1.7108819 236 0 0 0 88.292709
-6.8477101 -6.2136536 1.6958685 429 0 0 0 87.893379
-1.7792357 -6.2241063 1.6464821 409.66666 0 0 0 79.034233
-1.1913338 -6.1509986 1.697742 295.25 0 0 0 77.629562
-0.90738165 -6.0824413 1.8175744 211.5 0 0 0 76.947029
-0.0074530956 -6.1064749 1.8804446 154 0 0 0 74.595032
0.28846747 -6.0603809 1.7697815 162 0 0 0 73.817871
1.8451337 -6.3112469 1.7008411 143.33333 0 0 0 70.038689
2.2080851 -6.2048268 1.7554246 294.11111 0 0 0 69.127541
2.7251015 -6.2591577 1.6971204 207.39999 0 0 0 68.029228
3.1592779 -6.3072667 1.8211766 388 0 0 0 67.166573
4.4067111 -6.2811494 1.9789393 282 0 0 0 64.822983
4.7270832 -6.0796571 1.9866056 253 0 0 0 64.034279
5.0707626 -6.2009802 1.7701088 406 0 0 0 63.64854
7.5157061 -6.1831636 1.7855426 239 0 0 0 60.506474
8.0232944 -6.2753644 1.7407029 142.5 0 0 0 60.120808
9.0706568 -6.0717063 1.7282734 185 0 0 0 58.945766
13.686923 -6.0711222 1.6184967 104 0 0 0 56.214848
-12.169202 -5.7625651 1.7882493 112 0 0 0 92.577477
-10.529727 -5.6354613 1.8855201 103 0 0 0 91.808472
-8.0452299 -5.6735778 1.8036282 279 0 0 0 89.86779
-7.6492462 -5.6805272 1.7414577 217 0 0 0 89.464867
-2.1758769 -5.8526468 1.8448676 306.5 0 0 0 80.26857
-1.9836419 -5.9979877 1.7890128 7 0 0 0 79.686752
-1.1053808 -5.907198 1.9240994 196.5 0 0 0 77.532181
-0.15223961 -5.8523064 1.6598495 276.42856 0 0 0 74.98867
0.132695 -5.7806401 1.6869503 258 0 0 0 74.210121
0.80557919 -5.6513195 1.7124132 169.16667 0 0 0 72.313171
1.291889 -5.7259989 1.647532 246.625 0 0 0 71.033936
1.5642236 -5.6999373 1.6743892 264.33334 0 0 0 70.295914
5.0351567 -5.8580265 1.9930677 236 0 0 0 63.25005
6.6040401 -5.7137003 1.8211501 117 0 0 0 60.90155
7.9373636 -5.9001894 1.6917973 291 0 0 0 59.731861
9.0852871 -5.7634478 1.7044265 151 0 0 0 58.554966
9.7891426 -5.8762612 1.8065145 276 0 0 0 58.168808
10.336693 -5.8632464 1.731056 159.5 0 0 0 57.78056
10.771984 -5.7642369 1.7804152 149.5 0 0 0 57.383461
11.996312 -5.6777115 1.7658188 123 0 0 0 56.596249
14.079429 -5.8349152 1.6471372 120 0 0 0 55.813801
19.252716 -5.835608 1.6741316 134 0 0 0 54.260601
21.300671 -5.8875809 1.8356977 82 0 0 0 53.875912
30.085186 -5.9724436 1.7703542 17 0 0 0 52.701649
-12.986917 -5.3858371 1.8656682 161 0 0 0 93.372749
-12.243017 -5.4336739 1.7791097 196 0 0 0 92.975731
-7.5913782 -5.3538194 1.9322101 420 0 0 0 89.86779
-2.6275148 -5.3858981 1.9201369 48.5 0 0 0 81.839363
-1.7459142 -5.2800121 1.9182637 49.5 0 0 0 79.686752
0.30861577 -5.182013 1.6667488 121.75 0 0 0 73.621742
0.67622983 -5.2908115 1.6138448 209.75 0 0 0 72.545998
6.0831738 -5.0093865 1.6475793 345 0 0 0 60.506474
7.3544397 -5.1931267 1.6555825 181 0 0 0 59.342739
7.8910251 -5.2849321 1.7445136 161 0 0 0 58.945766
10.853096 -5.4688082 1.7711509 179.5 0 0 0 56.987862
12.21952 -5.419466 1.7786061 20 0 0 0 56.214848
16.571421 -5.4730749 1.8817352 125 0 0 0 54.656151
29.860144 -5.168365 1.7505769 7 0 0 0 52.30822
-50.017113 -4.9083071 1.6365705 54 0 0 0 98.057686
-9.6273136 -4.5600615 1.9491535 99 0 0 0 92.577477
-8.5240421 -4.5631709 1.772192 190 0 0 0 91.808472
5.4459677 -4.9534154 1.7217162 187 0 0 0 61.295769
5.8083434 -4.7812753 1.7595142 342.33334 0 0 0 60.509613
6.2971859 -4.6830883 1.6419755 482.5 0 0 0 59.731773
6.6387491 -4.9387431 1.72851 478 0 0 0 59.731861
7.7075181 -4.89259 1.6787825 322 0 0 0 58.554966
8.0529499 -4.748508 1.7957696 314.66666 0 0 0 58.039394
10.432844 -4.784812 1.8175514 284 0 0 0 56.405548
16.284351 -4.7199001 1.8302487 100 0 0 0 54.068256
-8.6892471 -4.3806176 1.7834436 374 0 0 0 92.192657
5.7225142 -4.2604318 1.8439412 348.25 0 0 0 59.731819
6.2835598 -4.3222823 1.7840141 287.5 0 0 0 59.144253
6.788414 -4.4278264 1.694809 417 0 0 0 58.750366
8.3859825 -4.3599672 1.7378521 267.5 0 0 0 57.185661
10.727383 -4.4472136 1.8388975 303 0 0 0 55.813801
11.260731 -4.3462396 1.9101466 236 0 0 0 55.428009
11.884707 -4.2535257 1.9961132 209 0 0 0 55.047741
-50.042263 -3.672585 1.6334645 47 0 0 0 98.443375
5.7157378 -3.8327429 1.9545932 468 0 0 0 58.945766
-50.194668 -2.4462271 1.6353645 40 0 0 0 98.842995
32.180523 2.401819 1.8733798 12 0 0 0 48.400539
28.393553 2.8236604 1.6623951 22 0 0 0 48.007767
25.349066 4.4287214 1.5066183 8 0 0 0 46.842392
25.869402 5.8435459 1.5539368 47 0 0 0 46.05024
14.284501 8.1470852 1.799091 193 0 0 0 41.369381
7.9875154 8.9122066 1.7700269 508.5 0 0 0 36.289341
8.3471613 8.8621254 1.7997454 328.5 0 0 0 36.685162
9.5647478 8.7520752 1.7516516 370 0 0 0 37.860752
10.818141 8.6566954 1.6406742 227 0 0 0 38.90353
3.6679478 9.3978329 1.7493904 468.25 0 0 0 30.623341
4.0822124 9.4148254 1.7789476 11 0 0 0 31.20298
4.718307 9.2701731 1.802987 415.25 0 0 0 32.181786
5.2093844 9.0907574 1.8158878 649 0 0 0 32.964844
6.3913507 9.2024918 1.6608204 16 0 0 0 34.326778
6.6164436 9.0419273 1.660496 570 0 0 0 34.726727
7.762248 9.1031322 1.769444 28 0 0 0 35.898071
-2.3444388 9.9758034 1.7619265 709.5 0 0 0 21.065479
-1.0736029 9.8759241 1.7132509 649 0 0 0 23.011351
-0.70291167 9.8110142 1.698054 873.75 0 0 0 23.588455
0.74093843 9.7182207 1.6869488 575.75 0 0 0 25.942215
1.8249884 9.6502342 1.7019539 627.5 0 0 0 27.694799
2.1666107 9.5171328 1.6923909 912.75 0 0 0 28.275934
-20.637217 10.310213 1.8769951 5 0 0 0 7.0236301
-7.1295581 10.493353 1.9989446 25 0 0 0 15.20532
-6.7216477 10.430622 1.8044055 416 0 0 0 15.60102
-5.19661 10.309281 1.6391033 418 0 0 0 17.284943
-3.8380167 10.030831 1.8398255 560.75 0 0 0 18.916149
-3.4361434 10.076042 1.8254241 375 0 0 0 19.493839
-2.1087041 10.079329 1.7712796 553.5 0 0 0 21.45159
-18.900343 10.623581 1.7691065 115 0 0 0 7.79427
-12.853869 10.976399 1.8058211 189 0 0 0 10.9127
-11.10657 10.982302 1.6753448 261 0 0 0 12.08212
-9.8757763 10.760317 1.7498837 269 0 0 0 12.85955
-9.4641199 10.830075 1.7250414 270.5 0 0 0 13.25323
-8.2272053 10.653708 1.784502 203.5 0 0 0 14.228695
-7.1925774 10.588553 1.7015814 19 0 0 0 15.20532
-6.4329014 10.539448 1.7969885 105.5 0 0 0 15.98512
-3.3522625 10.697193 1.6442075 32 0 0 0 19.89142
-18.825233 11.19587 1.7885094 6 0 0 0 8.1935902
-17.34601 11.496097 1.7041471 28 0 0 0 8.9658003
-15.497512 11.393409 1.5808431 245 0 0 0 9.7538996
-14.83772 11.47545 1.5439812 5 0 0 0 10.14019
-13.921721 11.316796 1.9132329 7 0 0 0 10.52448
-12.352293 11.079718 1.7748216 281 0 0 0 11.30775
-18.462727 11.599967 1.7822831 149 0 0 0 8.57479
-12.234975 11.527459 1.7990648 23 0 0 0 11.69482
-3.5160782 13.59535 1.8804734 31 0 0 0 20.673611
-58.571682 14.601398 1.8498317 26 0 0 0 3.50963
-8.8066301 -9.2578869 2.0144067 22 0 0 0 86.735771
19.729433 -9.3315182 2.3399787 72 0 0 0 56.596249
-7.4787364 -8.6771765 2.0926208 29 0 0 0 85.949715
-8.3689175 -8.3766985 2.1621504 132 0 0 0 87.130493
-7.6958828 -8.2902203 2.0670543 82 0 0 0 86.537903
-6.3132124 -7.7004547 2.1883531 102 0 0 0 85.55484
4.0355377 -7.5768671 2.1025813 134.5 0 0 0 66.780846
6.9807076 -7.7185144 2.4161968 68 0 0 0 62.864498
7.2105823 -7.5892601 2.4305131 307 0 0 0 62.468513
-23.820406 -7.226687 2.0591803 28 0 0 0 94.951248
-9.1894732 -7.1793928 2.1301844 153 0 0 0 89.069298
-7.4031558 -7.0557833 2.1234539 302 0 0 0 87.511604
-6.645772 -7.1624413 2.0301697 282 0 0 0 86.537903
-6.2572823 -7.2614198 2.2715096 295.20001 0 0 0 85.948807
1.7454207 -7.0159111 2.4000032 232 0 0 0 70.69239
4.2012815 -7.2348981 2.1537352 185 0 0 0 66.186356
4.8120236 -7.2250013 2.0205026 198 0 0 0 65.209541
7.3472333 -7.3624043 2.4154441 171 0 0 0 62.072979
8.4570065 -7.3095903 2.04458 119 0 0 0 60.90155
-18.179956 -6.5073671 2.0744362 45 0 0 0 94.15699
-16.906057 -6.5276651 2.3948102 81 0 0 0 93.762161
-8.1809607 -6.7215643 2.197473 258 0 0 0 88.676674
-7.6534796 -6.9442015 2.1454611 237 0 0 0 87.893379
-6.7490072 -6.7582426 2.2173409 264.60001 0 0 0 87.127769
-6.3682804 -6.8648787 2.4056468 213 0 0 0 86.537903
-1.3111557 -6.5758715 2.3093405 198 0 0 0 77.724548
-0.17325954 -6.752841 2.1994238 296.5 0 0 0 74.9888
0.9658193 -6.5835629 2.2110374 116 0 0 0 72.257637
1.3728136 -6.6650796 2.3134015 266 0 0 0 71.341011
1.7461365 -6.6602993 2.3699965 204.5 0 0 0 70.494156
2.0320277 -6.7392168 2.249856 159.5 0 0 0 69.910072
4.3792915 -6.940589 2.1135316 250 0 0 0 65.603485
4.7432551 -6.7637997 2.1284127 186 0 0 0 64.818237
7.2388306 -6.7387896 2.056921 190.5 0 0 0 61.487804
19.082163 -6.8253064 2.1779315 74 0 0 0 55.047741
-7.177845 -6.3032928 2.1409824 300.66666 0 0 0 88.159607
-6.7389345 -6.2698574 2.3655534 271 0 0 0 87.702492
-4.9669948 -6.0621781 2.4052298 10 0 0 0 85.55484
-1.7823167 -6.2859936 2.1709671 275.75 0 0 0 79.002098
-1.4328969 -6.3737869 2.4900093 205 0 0 0 78.114075
-0.68230468 -6.1085925 2.1943846 193.25 0 0 0 76.3591
-0.0062247044 -6.2277369 2.3755777 240 0 0 0 74.595032
0.3104561 -6.4591641 2.4656947 59 0 0 0 73.820969
0.74247885 -6.073204 2.2618537 214 0 0 0 72.643478
1.1647735 -6.2304187 2.3251526 204.60001 0 0 0 71.625046
1.7449402 -6.3309193 2.3961337 187.66667 0 0 0 70.299461
2.1355317 -6.2440481 2.1945486 195 0 0 0 69.323212
3.2163393 -6.1374788 2.3455975 228.75 0 0 0 66.873413
3.7512293 -6.2813568 2.1584399 331.5 0 0 0 65.992317
4.1734796 -6.1074162 2.0930743 282 0 0 0 65.016266
4.9079947 -6.3089232 2.4558494 186 0 0 0 64.034279
5.0547595 -6.1805201 2.0585001 358 0 0 0 63.64854
5.7105894 -6.1677809 2.3749104 218.5 0 0 0 62.666504
6.7372689 -6.4302526 2.167233 286 0 0 0 61.67984
16.842348 -6.0225725 2.3675859 39 0 0 0 55.047741
-11.437596 -5.7642765 2.019629 147 0 0 0 92.192657
-7.6000485 -5.9385858 2.0047891 208 0 0 0 89.069298
-7.1723986 -5.7505879 2.2495253 364.25 0 0 0 88.872986
-6.9262662 -5.9839821 2.3524938 253 0 0 0 88.292709
-2.6024613 -5.6867476 2.3091006 286.5 0 0 0 81.445541
-2.3257482 -5.6170039 2.1212392 82.333336 0 0 0 80.857605
-1.7864665 -5.8875179 2.1964264 168 0 0 0 79.288704
-1.3937521 -5.8622022 2.1518769 94 0 0 0 78.312157
-0.85275829 -5.7228322 2.0674613 196 0 0 0 76.947029
0.30752578 -5.6879954 2.0716319 157.5 0 0 0 73.71904
0.6958198 -5.7228308 2.13272 197 0 0 0 72.641441
1.9260395 -5.8728428 2.0571673 202 0 0 0 69.5168
2.1134875 -5.7939849 2.1025751 135.66667 0 0 0 68.998482
3.3371105 -5.8340106 2.3598118 332.5 0 0 0 66.286652
3.7812266 -5.8370166 2.2660923 349.75 0 0 0 65.406509
4.2543936 -5.8776264 2.2682838 285.39999 0 0 0 64.58535
4.6040754 -5.6322832 2.1041522 311.75 0 0 0 63.645351
5.3305125 -5.7575617 2.0244157 323.5 0 0 0 62.666504
5.6816549 -5.560153 2.0511513 406.5 0 0 0 61.876411
6.1951227 -5.6313381 2.263432 351.5 0 0 0 61.295769
17.111708 -5.6481819 2.3854563 57 0 0 0 54.656151
-14.590311 -5.2263479 2.2437937 53 0 0 0 94.15699
-12.886409 -5.3441215 2.1967154 181 0 0 0 93.372749
-12.134819 -5.3856344 2.0922034 155 0 0 0 92.975731
-11.601948 -5.4941683 2.0241361 274 0 0 0 92.577477
-7.6223269 -5.1022463 2.2451591 269.5 0 0 0 90.256927
-7.2848921 -5.273828 2.201673 333.25 0 0 0 89.666328
5.4001994 -5.4189997 2.1654096 306 0 0 0 62.072979
5.5128899 -5.2667975 2.1585176 344 0 0 0 61.67984
6.3219643 -5.4690599 2.2594285 221 0 0 0 60.90155
6.7151303 -5.4331298 2.3700955 291.66666 0 0 0 60.377918
7.2532072 -5.2568541 2.41819 162 0 0 0 59.5373
8.1709204 -5.1838865 2.3717976 252.5 0 0 0 58.554966
29.0812 -5.0290761 2.4415646 11 0 0 0 52.30822
-9.2905445 -4.8268156 2.1738856 281.5 0 0 0 92.000565
-7.8418446 -4.6434517 2.2875233 232 0 0 0 91.13298
8.279192 -4.9712553 2.2486274 323 0 0 0 58.168808
8.7551394 -4.873775 2.1688578 197 0 0 0 57.648193
9.0634613 -4.8512282 2.3917274 206 0 0 0 57.383461
9.6576328 -4.8686609 2.2492597 210 0 0 0 56.987862
10.523405 -4.9828954 2.1316304 196 0 0 0 56.596249
16.245146 -4.9231052 2.250103 141 0 0 0 54.260601
18.239819 -4.5619822 2.254437 82.5 0 0 0 53.484039
64.703728 -4.7321124 2.1210237 6 0 0 0 50.748806
-9.7718182 -4.1954575 2.2076769 156 0 0 0 93.17424
-9.4480543 -4.4752131 2.1706643 379 0 0 0 92.577477
-8.1879702 -4.2143817 2.2153046 307.66666 0 0 0 92.064598
-7.9740448 -4.2708001 2.3260114 375 0 0 0 91.808472
6.8769479 -4.3662868 2.3062491 225 0 0 0 58.554966
7.3841915 -4.4361625 2.4367697 194 0 0 0 58.168808
10.429431 -4.1761146 2.0594115 207.5 0 0 0 55.620903
14.83296 -4.1004314 2.0443914 95 0 0 0 53.875912
18.239666 -4.0865421 2.4754007 62 0 0 0 53.09494
18.857119 -4.227706 2.0818264 76 0 0 0 53.09494
-10.196384 -3.7960443 2.2579405 225 0 0 0 93.959579
-9.8057785 -3.7903383 2.4400206 116 0 0 0 93.762161
-8.0886841 -3.6729224 2.3583913 164.66667 0 0 0 92.842979
5.5802617 -3.7418156 2.1570895 235.5 0 0 0 58.945766
10.718567 -3.6893888 2.2183661 353.5 0 0 0 54.851944
12.03201 -3.9752162 2.3184524 151 0 0 0 54.656151
18.466208 -3.6626711 2.4935369 70 0 0 0 52.701649
18.638597 -3.6997945 2.0483973 118 0 0 0 52.701649
-8.1024523 -3.3638024 2.4750891 111 0 0 0 93.372749
18.408291 -3.1826968 2.4754124 18 0 0 0 52.30822
18.837898 -3.2598395 2.0612934 138 0 0 0 52.30822
18.787731 -2.7770059 2.0486789 105 0 0 0 51.91861
39.825623 -0.95091283 2.2968683 72 0 0 0 49.963001
39.947212 0.028337786 2.3046134 40 0 0 0 49.572849
40.039692 1.0128891 2.3121154 55 0 0 0 49.180126
28.339418 2.822578 2.3694198 22 0 0 0 48.007767
25.314545 3.1527896 2.1278095 30 0 0 0 47.62225
24.861206 3.7197535 2.0984914 93 0 0 0 47.223713
25.854492 5.1792531 2.2015469 6 0 0 0 46.445938
25.915352 5.8579798 2.2192411 34 0 0 0 46.05024
26.236767 6.6128044 2.2604764 5 0 0 0 45.660728
25.784567 7.1780901 2.2377388 78 0 0 0 45.277302
12.525116 8.4337788 2.2171021 201 0 0 0 40.204689
13.671266 8.2543859 2.1428652 259 0 0 0 40.975101
14.256577 8.1341534 2.2005215 198 0 0 0 41.369381
15.402463 8.2893286 2.3413265 81 0 0 0 41.767166
16.824757 8.0103006 2.489814 180 0 0 0 42.541721
7.9901452 8.9148712 2.216331 406 0 0 0 36.289341
8.3494091 8.8642225 2.253443 295 0 0 0 36.685162
8.8596678 8.9503222 2.3287077 8 0 0 0 37.078781
9.5618687 8.7491102 2.233674 325 0 0 0 37.860752
10.115065 8.8046408 2.4757321 7 0 0 0 38.246441
10.779917 8.7011642 2.2115812 139 0 0 0 38.837967
13.699126 8.7383299 2.1801636 13 0 0 0 40.585609
2.2848437 9.4959106 2.055012 833 0 0 0 28.468679
3.6662199 9.3963032 2.2464151 421.5 0 0 0 30.623341
4.0888834 9.4302149 2.1625888 11 0 0 0 31.20298
4.7188869 9.2736425 2.3168614 352.25 0 0 0 32.181786
5.2093496 9.0926733 2.3333919 588 0 0 0 32.964844
6.4018574 9.2173309 2.2194304 15 0 0 0 34.326778
6.6150551 9.0398846 2.2153978 460.5 0 0 0 34.726727
7.3915834 9.115984 2.4635992 7 0 0 0 35.49844
7.71803 9.0514469 2.3495514 15 0 0 0 35.898071
-2.3456624 9.9732075 2.2643254 682 0 0 0 21.065479
-1.0737684 9.8615742 2.198102 706 0 0 0 23.011351
-0.7044481 9.8106728 2.1813047 681.75 0 0 0 23.588455
0.73884141 9.7092018 2.1644602 509.75 0 0 0 25.942215
1.8246129 9.6548014 2.1866617 557 0 0 0 27.694799
2.1237447 9.5160437 2.2108338 779.33331 0 0 0 28.211685
2.5665767 9.6195879 2.3383782 11 0 0 0 28.859301
-21.465061 10.076285 2.4999638 5 0 0 0 6.6313901
-20.659794 10.320409 2.4371936 6 0 0 0 7.0236301
-7.0941567 10.439349 2.299665 41 0 0 0 15.20532
-6.7145061 10.41754 2.2600486 416 0 0 0 15.60102
-5.2885537 10.280357 2.256762 479.5 0 0 0 17.154129
-3.7909663 10.025727 2.3178365 555 0 0 0 18.979767
-3.4310851 10.054741 2.3426332 315.5 0 0 0 19.493839
-2.1109362 10.081537 2.2773342 447.5 0 0 0 21.45159
-18.895546 10.619734 2.2924669 120 0 0 0 7.79427
-12.86453 10.980542 2.2205708 180 0 0 0 10.9127
-11.09211 10.962307 2.2460287 248.5 0 0 0 12.08212
-9.8470039 10.725047 2.2808518 290 0 0 0 12.85955
-9.4672651 10.830033 2.2551999 265 0 0 0 13.25323
-8.2158403 10.637131 2.2781327 185.25 0 0 0 14.228695
-6.4254751 10.525204 2.250159 69 0 0 0 15.98512
-3.3527617 10.695292 2.1967359 31.5 0 0 0 19.89142
-18.965219 11.278358 2.3348961 5 0 0 0 8.1935902
-17.313232 11.473046 2.2029214 22 0 0 0 8.9658003
-15.491012 11.387415 2.0447311 230 0 0 0 9.7538996
-13.865895 11.26591 2.342304 6 0 0 0 10.52448
-12.346506 11.069441 2.1791708 256 0 0 0 11.30775
16.069992 11.388645 2.1493938 6 0 0 0 39.802792
-18.452801 11.592477 2.3080649 154 0 0 0 8.57479
-12.26569 11.55137 2.2152727 12 0 0 0 11.69482
14.163474 11.707403 2.4631183 6 0 0 0 38.641289
8.2490215 12.489299 2.3895175 15 0 0 0 33.940273
9.4416208 12.221687 2.2719083 18 0 0 0 35.109779
9.8807583 12.157435 2.1096678 18 0 0 0 35.49844
12.927382 12.403677 2.4042785 20 0 0 0 37.468601
13.833756 12.016902 2.005321 15 0 0 0 38.246441
14.052667 12.210094 2.4954071 13 0 0 0 38.246441
2.1518755 12.979754 2.2658925 72 0 0 0 27.307619
8.2616549 12.508312 2.0213456 15 0 0 0 33.940273
12.522516 12.622759 2.3869359 13 0 0 0 37.078781
-0.26692471 13.224689 2.272537 56.75 0 0 0 24.37532
0.21977922 13.167669 2.2636847 63 0 0 0 24.95713
0.54338044 13.155706 2.2640061 51.5 0 0 0 25.350491
1.668149 13.026356 2.2608705 57 0 0 0 26.715315
8.2386856 13.163834 2.2853003 13 0 0 0 33.551418
-6.6586137 13.825945 2.4206321 21 0 0 0 17.54657
-6.2889991 13.92136 2.2224302 33.5 0 0 0 17.93631
-3.5122514 13.57765 2.2243438 46 0 0 0 20.673611
3.7534919 13.925313 2.3029079 34 0 0 0 28.859301
4.2866716 13.84378 2.3144503 47 0 0 0 29.444654
4.8326964 13.783331 2.3324509 52 0 0 0 30.027439
6.3524055 13.638296 2.2153707 35.5 0 0 0 31.599951
-8.0779657 14.043919 2.1496689 18 0 0 0 16.37356
-7.6212587 14.031837 2.1206756 18 0 0 0 16.76816
-6.0291433 14.271425 2.2557058 14 0 0 0 18.32444
-1.8968736 14.49513 2.3223825 35 0 0 0 22.61795
-12.129934 14.625108 2.0377264 10 0 0 0 13.63757
-4.1884995 14.724117 2.234448 34.5 0 0 0 20.28253
-2.6394494 14.573904 2.3503878 38 0 0 0 21.840019
-2.2659566 14.535329 2.3357832 39 0 0 0 22.22616
-11.022635 15.47313 2.0425301 14 0 0 0 14.82353
-10.957169 15.373013 2.4924252 11 0 0 0 14.82353
-3.1038892 -8.6799126 2.8223248 5 0 0 0 80.07283
1.7212366 -8.7026529 2.9369519 228 0 0 0 71.468704
-2.9367993 -8.2073317 2.8858831 75 0 0 0 80.07283
1.8630145 -8.3430462 2.8314533 134 0 0 0 71.085632
-1.1516218 -7.7519946 2.9810917 53 0 0 0 76.947029
3.5659299 -7.5690017 2.7735014 104 0 0 0 67.55397
-5.7772508 -7.0481815 2.5679004 280 0 0 0 85.55484
-2.6896148 -7.2404428 2.8449292 55 0 0 0 80.26857
3.8282161 -7.4029446 2.557183 270.5 0 0 0 66.973709
18.885223 -7.2799726 2.672972 49 0 0 0 55.428009
-7.6633015 -6.6201587 2.850656 273 0 0 0 88.292709
-5.9338231 -6.888917 2.6736665 187 0 0 0 85.949715
-4.5971508 -6.8920794 2.9478753 48 0 0 0 83.985184
-3.1704814 -6.7116075 2.6438797 7 0 0 0 81.643761
-2.371474 -6.631783 2.6822004 51 0 0 0 80.07283
-1.6334977 -6.5175972 2.5601611 52 0 0 0 78.510239
-1.3068399 -6.5601482 2.5488255 7 0 0 0 77.724548
0.15464836 -6.5568814 2.5002525 179 0 0 0 74.210121
2.1908762 -6.6699224 2.6763976 141.33333 0 0 0 69.518837
5.7946315 -6.7346988 2.7260058 204 0 0 0 63.25005
-6.6171384 -6.1565285 2.5477276 207 0 0 0 87.702492
-5.123786 -6.2556686 2.8784604 10 0 0 0 85.55484
-2.0840552 -6.310082 2.5323997 89 0 0 0 79.686752
-1.9504323 -6.4299541 2.5602152 217 0 0 0 79.288704
1.7868251 -6.4941883 2.5682297 131 0 0 0 70.295914
2.4956176 -6.4996505 2.6543813 59 0 0 0 68.736198
2.9594827 -6.2840061 2.5630937 192.5 0 0 0 67.55397
4.2352619 -6.3574634 2.661751 226 0 0 0 65.212006
4.9597225 -6.0630083 2.6981878 194 0 0 0 63.64854
5.3553863 -6.0760369 2.6894562 237.5 0 0 0 63.057274
5.7037592 -6.1536751 2.5773041 115 0 0 0 62.666504
6.1511936 -6.1688681 2.8904769 190 0 0 0 62.072979
7.4987545 -6.1654859 2.9775114 293 0 0 0 60.506474
-7.6709442 -5.6985607 2.6920953 319 0 0 0 89.464867
-7.2801342 -5.8330135 2.6288781 375.5 0 0 0 88.872986
3.1158218 -5.8586206 2.5335214 188 0 0 0 66.773117
4.3800321 -5.8284926 2.7212961 258 0 0 0 64.296043
4.746078 -5.7309732 2.6999197 257.75 0 0 0 63.545727
5.3107691 -5.7327576 2.7874832 234 0 0 0 62.666504
5.7118869 -5.6358695 2.661381 187 0 0 0 61.941936
6.0477986 -5.6337175 2.5404546 290.5 0 0 0 61.487804
6.5723753 -5.6828346 2.6688187 252 0 0 0 60.90155
8.3039541 -5.5587068 2.5703976 160 0 0 0 58.945766
13.279424 -5.8887591 2.6495016 56 0 0 0 56.214848
-8.2344103 -5.0817213 2.7261019 274 0 0 0 90.83905
-7.2583332 -5.120996 2.5049059 187 0 0 0 89.86779
5.742908 -5.3483562 2.801259 203 0 0 0 61.487804
6.6496711 -5.2018805 2.5951848 130 0 0 0 60.120808
7.0184779 -5.4911695 2.9577625 270 0 0 0 60.120808
8.7414265 -5.1003118 2.6038713 285 0 0 0 57.974686
10.935882 -5.2864776 2.7197559 138 0 0 0 56.726788
16.477135 -5.4394569 2.7286687 152 0 0 0 54.656151
16.590933 -5.028019 2.7268403 69 0 0 0 54.260601
-8.615942 -4.7544127 2.8908587 205 0 0 0 91.617691
-8.4112158 -4.7756624 2.9627826 330 0 0 0 91.426918
-7.4590373 -4.9930201 2.5308645 344 0 0 0 90.256927
6.3063269 -4.5701323 2.7815251 212 0 0 0 59.5373
6.6271315 -4.8021221 2.5177507 385 0 0 0 59.5373
8.834837 -4.7294431 2.5790799 161 0 0 0 57.383461
9.3147678 -4.8400984 2.9613376 277.5 0 0 0 57.185661
9.8780746 -4.9775949 2.8428171 299 0 0 0 56.987862
11.198661 -4.9664106 2.8434057 158 0 0 0 56.214848
11.749994 -4.8680959 2.9508815 30 0 0 0 55.813801
-8.7133741 -4.2632589 2.9717355 112 0 0 0 92.385071
6.3230348 -4.2348695 2.720232 182 0 0 0 58.945766
6.6452999 -4.1055317 2.5998416 257.5 0 0 0 58.361885
7.0361834 -4.3453999 2.5448766 246 0 0 0 58.361885
10.665565 -4.4202785 2.9667523 224 0 0 0 55.813801
-10.257869 -3.6779315 2.5280368 27 0 0 0 94.15699
5.9109797 -3.8560429 2.6995869 293.5 0 0 0 58.750366
6.2966461 -3.7138422 2.734195 218 0 0 0 58.039394
6.6965399 -3.6948769 2.640142 323 0 0 0 57.582008
11.834995 -3.7480531 2.8833547 54.5 0 0 0 54.458374
13.177669 -3.9961872 2.8557663 51 0 0 0 54.260601
-10.360278 -3.4298694 2.5317197 32 0 0 0 94.554657
-8.0645771 -3.3497052 2.6786025 314 0 0 0 93.372749
6.4973121 -3.4803307 2.818856 133 0 0 0 57.383461
6.5425224 -3.300072 2.8031809 228 0 0 0 56.987862
12.233236 -3.384095 2.6362362 56 0 0 0 53.875912
13.473674 -3.3717306 2.8811777 26 0 0 0 53.484039
25.255383 3.144814 2.7421734 44 0 0 0 47.62225
24.851254 3.717644 2.7090783 116 0 0 0 47.223713
25.862576 5.8454194 2.8599534 42 0 0 0 46.05024
24.334835 7.4246116 2.7495279 11 0 0 0 44.883881
25.759777 7.1705408 2.8862364 100 0 0 0 45.277302
18.635397 7.7688074 2.6921577 29 0 0 0 43.32983
19.819748 7.6940136 2.8316402 90 0 0 0 43.716568
12.508581 8.4222059 2.7756701 184 0 0 0 40.204689
13.296169 8.4818068 2.9002383 9 0 0 0 40.585609
13.671656 8.2540712 2.7373214 245 0 0 0 40.975101
14.293735 8.1548729 2.6144533 162 0 0 0 41.369381
15.368043 8.2704678 2.7691758 110 0 0 0 41.767166
16.199471 8.2084332 2.8789515 129 0 0 0 42.156353
16.80555 8.0007391 2.9487445 160 0 0 0 42.541721
7.9845743 8.9100266 2.6571121 392.5 0 0 0 36.289341
8.3413715 8.8570328 2.7011137 269 0 0 0 36.685162
8.8555546 8.9489155 2.9478898 9 0 0 0 37.078781
9.2267723 8.8724251 2.8391106 9.5 0 0 0 37.468601
9.5598097 8.746892 2.713881 344 0 0 0 37.860752
10.141948 8.8276339 2.8140008 46 0 0 0 38.246441
10.763962 8.6879625 2.7218974 142 0 0 0 38.837971
11.719508 8.7619514 2.6958332 9 0 0 0 39.415081
12.141461 8.6181726 2.7417405 130 0 0 0 39.802792
13.691457 8.7330961 2.5819092 10 0 0 0 40.585609
2.2802949 9.4864235 2.6530604 661.5 0 0 0 28.468679
3.6595411 9.3823566 2.7396953 365.5 0 0 0 30.623341
4.1759353 9.4215126 2.7601507 26.666666 0 0 0 31.335304
4.7043238 9.2471638 2.8223591 344.5 0 0 0 32.181786
5.2054667 9.0878162 2.8489337 526.25 0 0 0 32.964844
5.7938337 9.2950191 2.7061763 21.5 0 0 0 33.551418
6.2369356 9.2230444 2.7506304 11.5 0 0 0 34.133526
6.6075001 9.0327988 2.7639978 390 0 0 0 34.726727
7.2000875 9.1096992 2.7232721 162.5 0 0 0 35.304108
7.7135868 9.0492563 2.7872739 118 0 0 0 35.898071
-24.948851 9.5551071 2.8073826 15 0 0 0 5.4640598
-23.429476 9.6341505 2.6652803 5 0 0 0 5.8539701
-3.6894224 9.9983015 2.7392392 538 0 0 0 19.107
-2.3458052 9.965847 2.7651048 499.5 0 0 0 21.065479
-1.0746872 9.8547478 2.6838002 564.5 0 0 0 23.011351
-0.7049998 9.7954111 2.6605735 630.75 0 0 0 23.588455
-0.22337374 9.8855743 2.8033042 24.5 0 0 0 24.37532
0.26128331 9.8307581 2.7900739 35.5 0 0 0 25.153811
0.71137607 9.6894875 2.7093875 447 0 0 0 25.90354
1.182264 9.7285881 2.7024348 39 0 0 0 26.650202
1.7043637 9.6783915 2.6708858 290.75 0 0 0 27.501209
2.0401733 9.5146351 2.6456428 672.5 0 0 0 28.083189
2.6843214 9.5848589 2.8306227 29 0 0 0 29.055935
3.1848798 9.5324612 2.8586402 16 0 0 0 29.832088
-20.589899 10.279713 2.9918966 4 0 0 0 7.0236301
-7.1114917 10.461414 2.7683215 61 0 0 0 15.20532
-6.7132215 10.411682 2.713079 406.5 0 0 0 15.60102
-5.6993256 10.440948 2.7551916 277 0 0 0 16.76816
-5.2899904 10.276127 2.8204117 441.5 0 0 0 17.154129
-4.9972115 10.320148 2.659584 14 0 0 0 17.54657
-3.9857755 10.040519 2.6428814 508.5 0 0 0 18.7253
-3.3589108 10.108731 2.8273208 313.66666 0 0 0 19.626368
-2.7821865 10.139144 2.7070858 319.5 0 0 0 20.478069
-2.1090226 10.06312 2.777873 412 0 0 0 21.45159
-1.7198262 10.026779 2.6246951 17 0 0 0 22.033089
-18.895788 10.614399 2.8224614 115 0 0 0 7.79427
-12.843764 10.961525 2.6324615 163 0 0 0 10.9127
-11.090069 10.958513 2.8210456 165 0 0 0 12.08212
-10.546113 10.940649 2.7517853 116 0 0 0 12.46593
-9.868082 10.747063 2.6446791 236 0 0 0 12.85955
-9.3064451 10.817741 2.8214519 135.66667 0 0 0 13.381344
-8.9808598 10.791264 2.548794 8 0 0 0 13.63757
-8.2113094 10.629406 2.7706571 205 0 0 0 14.228695
-7.6126165 10.636862 2.7008841 211 0 0 0 14.82353
-6.3107247 10.521626 2.7385247 44 0 0 0 16.114599
-3.3234098 10.589932 2.5824492 18 0 0 0 19.89142
-18.925499 11.248954 2.8684981 11 0 0 0 8.1935902
-17.341394 11.486259 2.7150793 46 0 0 0 8.9658003
-15.496768 11.385719 2.7521913 196.5 0 0 0 9.7538996
-14.86568 11.489462 2.9225857 5 0 0 0 10.14019
-13.943169 11.327934 2.7973247 9 0 0 0 10.52448
-12.353292 11.073809 2.7926741 224.5 0 0 0 11.30775
16.015991 11.354318 2.6264365 12 0 0 0 39.802792
-18.472277 11.599059 2.8439186 169 0 0 0 8.57479
-16.488163 11.508263 2.6272516 6 0 0 0 9.35777
-12.250296 11.535531 2.62661 15 0 0 0 11.69482
15.529717 11.595359 2.5940881 13 0 0 0 39.415081
8.2370911 12.471342 2.7569203 19 0 0 0 33.940273
9.4488258 12.230731 2.8489401 25 0 0 0 35.109779
9.8921947 12.171154 2.6957183 20 0 0 0 35.49844
12.951557 12.426446 2.8538651 7 0 0 0 37.468601
14.039512 12.198367 2.9544184 12 0 0 0 38.246441
2.1513221 12.979049 2.7524672 52 0 0 0 27.307619
12.501084 12.600988 2.8231814 19 0 0 0 37.078781
-0.26755959 13.224609 2.7613301 63 0 0 0 24.37532
0.21919627 13.168422 2.7507162 54 0 0 0 24.95713
0.54156619 13.129551 2.7454882 48 0 0 0 25.350491
1.6674051 13.024345 2.7463584 45 0 0 0 26.715315
8.2320156 13.153244 2.8606181 15 0 0 0 33.551418
-6.6560621 13.818748 2.7978456 14 0 0 0 17.54657
-6.2851596 13.909898 2.7858212 31 0 0 0 17.93631
-3.5090213 13.561068 2.7395411 38 0 0 0 20.673611
3.7471073 13.90297 2.6560342 45 0 0 0 28.859301
4.2849779 13.839236 2.6727405 53 0 0 0 29.444654
4.8310852 13.779313 2.6936862 36 0 0 0 30.027439
6.3489766 13.63134 2.7734797 32 0 0 0 31.599951
-8.0778084 14.041052 2.7484891 23 0 0 0 16.37356
-7.6121569 14.012232 2.7078171 26 0 0 0 16.76816
-6.066927 14.359189 2.8457158 20 0 0 0 18.32444
-1.8972932 14.49396 2.6835606 43 0 0 0 22.61795
-12.133068 14.621307 2.7370949 10.5 0 0 0 13.63757
-4.1866755 14.713709 2.7997632 33 0 0 0 20.28253
-2.6380291 14.5623 2.7142975 36 0 0 0 21.840019
-2.266609 14.535749 2.6994789 52 0 0 0 22.22616
-2.0005245 -8.8986139 3.017925 35 0 0 0 78.114075
-7.7057838 -8.2406225 3.2625821 178.33333 0 0 0 86.603859
-7.474174 -8.2594843 3.405617 35 0 0 0 86.340034
-7.811533 -7.8230448 3.2417622 132.5 0 0 0 87.130493
-19.235641 -7.4262142 3.2303224 33 0 0 0 93.762161
-16.219601 -7.1963744 3.2240257 31 0 0 0 92.975731
-7.7160578 -7.3575587 3.3915901 162 0 0 0 87.511604
-3.0629539 -7.4028716 3.0470181 54 0 0 0 80.861206
3.2361624 -7.3252401 3.0483537 268 0 0 0 67.952965
3.8443608 -7.2140923 3.1116827 204 0 0 0 66.780846
4.2051945 -7.0364189 3.1208456 210 0 0 0 65.993057
5.4569306 -7.0084424 3.1625144 134 0 0 0 64.034279
58.496799 -7.1823058 3.3701594 13 0 0 0 51.51981
-17.240038 -6.6562819 3.3562839 98 0 0 0 93.762161
-8.3429317 -6.8592715 3.3037629 88 0 0 0 88.676674
-7.9972215 -6.9108 3.2336366 100 0 0 0 88.292709
-7.3870001 -6.7060075 3.1761167 205.5 0 0 0 87.893379
-6.9689283 -6.6490273 3.4235156 103 0 0 0 87.511604
-5.1363697 -6.9383678 3.2819428 30 0 0 0 84.76899
-4.203249 -6.8337288 3.0520885 26 0 0 0 83.396439
4.3916497 -6.9549618 3.1317732 81 0 0 0 65.603485
4.6025796 -6.7278271 3.104691 257.5 0 0 0 65.016266
-17.687796 -6.3344917 3.4115138 63 0 0 0 94.15699
-13.617056 -6.0453258 3.4436994 27 0 0 0 92.975731
-8.1855707 -6.1848216 3.3074188 186 0 0 0 89.333008
-7.670866 -6.3054123 3.2042487 208 0 0 0 88.679565
-7.0708938 -6.4225793 3.3955896 171 0 0 0 87.893379
-5.0764885 -6.1979375 3.0482309 4 0 0 0 85.55484
5.7118487 -6.0142083 3.160598 209 0 0 0 62.468513
-58.000889 -5.6908202 3.3191979 34 0 0 0 98.057686
-10.445592 -5.592535 3.3306553 101 0 0 0 91.808472
-8.2269526 -5.8045931 3.2081673 285.5 0 0 0 89.86779
5.968514 -5.982513 3.2198169 120 0 0 0 62.072979
6.1489782 -5.5861063 3.166796 165 0 0 0 61.295769
13.272678 -5.8860183 3.0060205 74 0 0 0 56.214848
14.438692 -5.5697503 3.2023087 51 0 0 0 55.428009
59.277912 -5.8039155 3.4075015 8 0 0 0 51.133282
-8.5381565 -5.128664 3.0498159 194 0 0 0 91.033997
-8.2298307 -5.4134879 3.1770232 265 0 0 0 90.385986
6.7692699 -5.1617832 3.0368514 221 0 0 0 59.926334
7.3239994 -5.4447908 3.0284617 255 0 0 0 59.731861
8.9516459 -5.0768986 3.1567616 134 0 0 0 57.78056
9.4317322 -5.1972818 3.168921 183 0 0 0 57.582008
10.862045 -5.1410003 3.0852385 137 0 0 0 56.596249
17.183523 -5.2075996 3.2678931 59 0 0 0 54.260601
19.311407 -5.3361325 3.1454334 46 0 0 0 53.875912
6.756989 -4.7685509 3.0509057 116 0 0 0 59.342739
7.2229128 -4.5817637 3.0525115 173 0 0 0 58.554966
9.2161837 -4.6434751 3.1664131 240 0 0 0 56.987862
10.331191 -4.7356429 3.2035007 206.5 0 0 0 56.405548
10.809211 -4.6354265 3.1686122 169 0 0 0 56.014324
12.111048 -4.6717238 3.0113623 49 0 0 0 55.428009
17.919479 -4.9525323 3.3827779 56 0 0 0 53.875912
19.376547 -4.8445764 3.1365182 74 0 0 0 53.484039
-58.050922 -4.2594337 3.3145075 41 0 0 0 98.443375
-8.528924 -4.1734619 3.2602777 59.5 0 0 0 92.385071
-8.4081488 -4.3725853 3.2547488 184.5 0 0 0 92.000565
9.2064362 -4.3591962 3.2516284 274.5 0 0 0 56.596249
10.308698 -4.2711134 3.4217012 236 0 0 0 55.813801
10.921483 -4.2145381 3.2995307 145 0 0 0 55.428009
12.283033 -4.3939815 3.0266206 76 0 0 0 55.047741
17.624435 -4.4076028 3.3072798 102 0 0 0 53.484039
19.608633 -4.3931432 3.1560948 22 0 0 0 53.09494
57.840603 -4.2315655 3.3209801 8 0 0 0 50.748806
7.566555 -3.5834155 3.1967955 196 0 0 0 56.596249
10.349108 -3.9924526 3.4022763 239 0 0 0 55.428009
10.597578 -3.7912071 3.4520943 190 0 0 0 55.047741
17.371349 -3.8930693 3.2423866 117 0 0 0 53.09494
18.30105 -3.6307547 3.3968244 67 0 0 0 52.701649
11.895349 -3.2891195 3.1710961 10 0 0 0 53.875912
12.296404 -3.0760496 3.2561812 86 0 0 0 53.484039
12.939718 -3.2362921 3.09587 57 0 0 0 53.484039
18.517902 -3.2024274 3.4218333 23 0 0 0 52.30822
-58.097584 -2.8305328 3.3115888 35 0 0 0 98.842995
12.899279 -2.8910947 3.3945889 17 0 0 0 53.09494
39.823353 -0.94484425 3.2895265 61 0 0 0 49.963001
39.928619 0.034340728 3.2987151 47 0 0 0 49.572849
40.044651 1.0190394 3.3107896 61 0 0 0 49.180126
32.377682 2.4205894 3.4837654 17 0 0 0 48.400539
28.328848 2.820832 3.061125 28 0 0 0 48.007767
25.152885 3.1359189 3.3556848 37 0 0 0 47.62225
24.869549 3.7241833 3.330591 110 0 0 0 47.223713
25.236916 4.4163322 3.3936787 9 0 0 0 46.842392
25.615149 5.1347761 3.4608524 10 0 0 0 46.445938
24.257967 7.4052176 3.3659801 7 0 0 0 44.883881
17.907583 7.9888892 3.103235 120 0 0 0 42.932259
18.804249 7.8384552 3.2214246 19 0 0 0 43.32983
19.81819 7.6928811 3.3586516 91 0 0 0 43.716568
21.281738 7.6626992 3.0087078 80 0 0 0 44.105
22.563297 7.5009727 3.1594179 105 0 0 0 44.48946
12.495197 8.4129124 3.1444626 156 0 0 0 40.204689
13.284874 8.4742851 3.2866228 17 0 0 0 40.585609
13.665835 8.2500267 3.3282368 192 0 0 0 40.975101
14.262934 8.1368065 3.2189808 153.5 0 0 0 41.369381
15.402952 8.288763 3.2094467 72 0 0 0 41.767166
16.161125 8.1886454 3.3218381 133 0 0 0 42.156353
16.818451 8.0064058 3.4131835 133 0 0 0 42.541721
7.9781823 8.9041939 3.2456832 299.5 0 0 0 36.289341
8.3356247 8.8521671 3.2999387 219 0 0 0 36.685162
8.8856544 8.978898 3.2688811 14 0 0 0 37.078781
9.2322197 8.8788481 3.313704 26 0 0 0 37.468601
9.5498791 8.7405834 3.1888127 258.5 0 0 0 37.860752
10.182337 8.865304 3.3223722 11.5 0 0 0 38.246441
10.743536 8.6738701 3.2272301 117.5 0 0 0 38.837967
11.709311 8.7555075 3.2339177 13.5 0 0 0 39.415081
12.152422 8.6270275 3.2947233 9 0 0 0 39.802792
2.2769558 9.4817963 3.2540188 511.66666 0 0 0 28.468679
3.6599598 9.3863935 3.2395399 298 0 0 0 30.623341
4.2433729 9.4694757 3.3358858 21.25 0 0 0 31.401464
4.7036405 9.2481203 3.3364413 236.5 0 0 0 32.181786
5.1573339 9.0932951 3.3182175 424 0 0 0 32.900867
5.8103065 9.3228951 3.2583628 16 0 0 0 33.551418
6.2638464 9.264554 3.3163486 18 0 0 0 34.133526
6.6028423 9.0279789 3.3170719 284.5 0 0 0 34.726727
7.2061362 9.1943207 3.2217119 14.666667 0 0 0 35.239334
7.6723056 9.1524286 3.1925995 11.666667 0 0 0 35.764862
-23.560257 9.6822128 3.3032031 7 0 0 0 5.8539701
-22.483168 9.8869581 3.1877251 8 0 0 0 6.2392502
-3.6880851 9.9895992 3.1309888 394.5 0 0 0 19.107
-2.3449543 9.9541035 3.2658091 412.5 0 0 0 21.065479
-1.0746635 9.8385563 3.1672893 506.5 0 0 0 23.011351
-0.68287641 9.7932587 3.216224 523.79999 0 0 0 23.627302
-0.2668198 9.9717207 3.2370594 27.666666 0 0 0 24.311407
0.26409593 9.9541693 3.1923215 24.75 0 0 0 25.153812
0.75821352 9.6985693 3.289041 317.39999 0 0 0 25.98089
1.2351509 9.8306904 3.1802578 26.25 0 0 0 26.715315
1.7097708 9.7173996 3.1689022 212.25 0 0 0 27.501209
2.0371282 9.5108662 3.2451713 510.33334 0 0 0 28.083189
2.6998298 9.6425457 3.2179601 30.25 0 0 0 29.055935
3.2098088 9.6088448 3.2563949 15.5 0 0 0 29.832088
4.48457 9.6799164 3.0331092 18 0 0 0 31.599951
-21.59815 10.133313 3.0988505 4 0 0 0 6.6313901
-7.1145492 10.462197 3.2317815 72 0 0 0 15.20532
-6.7119694 10.405268 3.317848 325.5 0 0 0 15.60102
-5.1638565 10.338547 3.2480643 178 0 0 0 17.350349
-4.7398214 10.42664 3.3608112 11 0 0 0 17.93631
-4.4457397 10.450555 3.3341045 14 0 0 0 18.32444
-3.9826102 10.026871 3.1705008 458.5 0 0 0 18.7253
-3.2901514 10.17548 3.1899796 94.666664 0 0 0 19.758894
-2.7918448 10.27076 3.2120514 16.6 0 0 0 20.517178
-2.1124568 10.071299 3.287313 322.5 0 0 0 21.45159
-1.7405415 10.143541 3.2893214 26.75 0 0 0 22.033089
-1.3545425 10.115061 3.2637763 23 0 0 0 22.61795
-0.10412715 10.014786 3.0853343 22 0 0 0 24.56706
-19.826214 10.508831 3.472065 8 0 0 0 7.4053698
-18.897444 10.614177 3.3562481 101 0 0 0 7.79427
-12.820319 10.939631 3.2485027 151.5 0 0 0 10.9127
-11.10469 10.97192 3.2065475 172 0 0 0 12.08212
-10.532252 10.919999 3.4878526 5 0 0 0 12.46593
-9.8674307 10.742735 3.1782985 207 0 0 0 12.85955
-9.2728634 10.863371 3.2891307 90.5 0 0 0 13.4454
-8.2091742 10.621094 3.2596755 128.5 0 0 0 14.228695
-7.6969042 10.750288 3.2121642 9.5 0 0 0 14.82353
-6.2733955 10.554282 3.2923517 30.75 0 0 0 16.17934
-5.7868485 10.601897 3.2408743 16.5 0 0 0 16.76816
-5.183435 10.710393 3.0497131 16 0 0 0 17.54657
-1.8524246 10.840754 3.1075134 17 0 0 0 22.033089
-1.4484813 10.876102 3.1017828 19 0 0 0 22.61795
-18.995712 11.28968 3.4231055 20 0 0 0 8.1935902
-17.351208 11.491567 3.2289374 37 0 0 0 8.9658003
-15.510749 11.394241 3.4653299 200 0 0 0 9.7538996
-14.670485 11.336418 3.3408377 4 0 0 0 10.14019
-14.083439 11.441475 3.2719169 4 0 0 0 10.52448
-12.276733 11.279574 3.2153616 116.5 0 0 0 11.501286
-11.984529 11.280913 3.3777092 5 0 0 0 11.69482
-10.651622 11.049916 3.1545672 7 0 0 0 12.46593
-4.9958191 11.005458 3.0987115 10 0 0 0 17.93631
3.8416824 11.452166 3.1265512 21 0 0 0 29.832088
-18.454264 11.586446 3.3776674 142 0 0 0 8.57479
1.6712279 11.955626 3.1203885 20 0 0 0 26.91065
3.2736785 11.630753 3.1265886 25 0 0 0 29.055935
9.2211905 11.938128 3.1537585 16 0 0 0 35.109779
15.481952 11.559443 3.0654848 9 0 0 0 39.415081
-5.5894547 12.338786 3.1381967 10 0 0 0 17.93631
-5.2757845 12.44914 3.1338599 18 0 0 0 18.32444
-1.591876 12.023483 3.1243205 14 0 0 0 22.61795
-0.25430393 12.079857 3.1175785 28 0 0 0 24.37532
0.33934629 12.057955 3.1144376 36 0 0 0 25.153811
5.3513288 12.295347 3.1371014 9 0 0 0 31.20298
5.7052598 12.271254 3.1657407 22 0 0 0 31.599951
8.201745 12.41824 3.1123641 22 0 0 0 33.940273
-3.7115293 12.995013 3.1390038 13 0 0 0 20.28253
2.1453583 12.959545 3.0700202 49 0 0 0 27.307619
3.8105304 12.895334 3.1441689 17 0 0 0 29.252569
4.2827668 12.740011 3.1435709 13.5 0 0 0 29.832088
8.0282068 12.830417 3.1645391 9 0 0 0 33.551418
-7.518383 13.055127 3.1132467 9 0 0 0 16.37356
-7.2411761 13.318582 3.1342347 10 0 0 0 16.76816
-3.3945084 13.094036 3.1430709 10 0 0 0 20.673611
-2.2452378 13.257215 3.1288896 13 0 0 0 22.033089
-1.7557281 13.33479 3.1312556 16 0 0 0 22.61795
-0.26997179 13.208027 3.0811105 48 0 0 0 24.37532
0.21648782 13.167789 3.0728099 48 0 0 0 24.95713
0.53965527 13.145658 3.0707614 47 0 0 0 25.350491
1.6640077 13.017815 3.0663066 46 0 0 0 26.715315
-6.5616717 13.618299 3.1285663 11 0 0 0 17.54657
-6.2189493 13.759381 3.126478 15 0 0 0 17.93631
-5.877718 13.902736 3.1267817 13 0 0 0 18.32444
3.7519503 13.921432 3.0146356 47 0 0 0 28.859301
4.2878428 13.849171 3.0318036 42.5 0 0 0 29.444654
4.8264947 13.766926 3.050741 43 0 0 0 30.027439
6.3344703 13.600767 3.1371598 24 0 0 0 31.599951
-1.8900394 14.431478 3.0298297 7 0 0 0 22.61795
-58.501247 14.581648 3.3204648 37 0 0 0 3.50963
-4.1499429 14.579329 3.1467361 7 0 0 0 20.28253
-2.6374342 14.555433 3.0764508 32 0 0 0 21.840019
-2.2647641 14.519556 3.0575898 31 0 0 0 22.22616
-7.2495494 -10.860509 3.6650996 25 0 0 0 83.985184
3.9471707 -10.249329 3.8981719 26 0 0 0 68.736198
4.2282109 -10.223743 3.9266407 30 0 0 0 68.343124
-0.474246 -9.6195345 3.656631 14 0 0 0 75.386551
-1.6149801 -9.3097439 3.587894 39 0 0 0 77.339806
60.904015 -9.0015612 3.5166624 6 0 0 0 51.91861
-8.0967684 -8.1071224 3.7856693 112 0 0 0 87.130493
-18.069429 -7.4910407 3.5505071 21 0 0 0 93.372749
-14.952376 -7.0819306 3.8203979 27 0 0 0 92.577477
-8.2404909 -6.7777801 3.7901783 116 0 0 0 88.679565
-7.8965201 -6.8261604 3.9632676 133 0 0 0 88.292709
-7.2558656 -6.590436 3.7235749 150 0 0 0 87.893379
6.8954711 -6.5766516 3.6258759 107 0 0 0 61.67984
-15.238611 -6.3213382 3.8096833 34 0 0 0 93.372749
-12.668366 -6.3862929 3.9815314 72 0 0 0 92.192657
-10.234911 -6.3157759 3.9735532 127 0 0 0 90.83905
-8.7488785 -6.1758404 3.8036802 84 0 0 0 89.86779
-8.1266823 -6.1976891 3.8819249 179 0 0 0 89.267082
7.3153281 -6.1648417 3.6414156 148 0 0 0 60.70401
17.502134 -6.2590599 3.8382013 42 0 0 0 55.047741
-13.637522 -5.6577139 3.7755771 60 0 0 0 93.372749
-10.314425 -5.8524046 3.9184966 179 0 0 0 91.426918
-8.6470127 -5.6386547 3.9210896 97.5 0 0 0 90.450516
-8.1886415 -5.9304328 3.7186224 119 0 0 0 89.666328
7.595499 -5.9366589 3.6695633 30 0 0 0 60.120808
-12.889008 -4.9801159 3.878974 53 0 0 0 93.762161
9.5203276 -4.7984223 3.5339887 183 0 0 0 56.987862
10.422872 -4.6241426 3.7777264 160 0 0 0 56.214848
10.565131 -4.3793793 3.7895052 63 0 0 0 55.813801
13.376814 -4.2359543 3.7720909 46.5 0 0 0 54.458374
28.606354 -4.2217579 3.8093102 15 0 0 0 51.91861
-8.6024437 -3.8246021 3.5793974 135 0 0 0 92.975731
10.251094 -3.9570181 3.6432381 146 0 0 0 55.428009
10.572803 -3.7846634 3.7228627 191 0 0 0 55.047741
10.577072 -3.4950528 3.6939125 233 0 0 0 54.656151
21.737293 -3.2099211 3.9943197 85 0 0 0 51.91861
11.959578 -2.6793032 3.7580197 27 0 0 0 53.09494
