# .PCD v0.7 - Point Cloud Data file format
VERSION 0.7
FIELDS x y z intensity normal_x normal_y normal_z curvature
SIZE 4 4 4 4 4 4 4 4
TYPE F F F F F F F F
COUNT 1 1 1 1 1 1 1 1
WIDTH 890
HEIGHT 1
VIEWPOINT 0 0 0 1 0 0 0
POINTS 890
DATA ascii
11.836041 -4.2574391 -0.84681112 162 0 0 0 55.04026
14.647596 -4.4635463 -0.66366285 100 0 0 0 54.249329
15.250851 -4.2396841 -0.68832725 159 0 0 0 53.86063
16.60844 -4.178545 -0.74853599 118 0 0 0 53.475639
18.149818 -4.0932264 -0.81726944 75 0 0 0 53.081261
-9.8663502 -3.6638713 -0.91939509 131 0 0 0 93.923859
-7.3554544 -3.7004006 -0.91321993 96 0 0 0 92.151779
-4.5350533 -3.5281301 -0.90520197 114 0 0 0 89.035934
-4.3202152 -3.8072364 -0.90756059 153.75 0 0 0 88.053833
-3.2332752 -3.7299633 -0.89636517 101 0 0 0 85.905457
-2.9677579 -3.9786754 -0.90112352 84 0 0 0 84.722145
-2.2738533 -3.6590478 -0.882936 48.166668 0 0 0 83.363159
-1.7668679 -3.9350522 -0.88466817 48 0 0 0 81.215027
1.31512 -3.9272532 -0.85822397 30.75 0 0 0 69.291618
1.7738415 -3.7166636 -0.8561402 30 0 0 0 67.340858
2.4670274 -3.9590149 -0.86109006 91 0 0 0 65.580559
2.7026746 -3.7025886 -0.8476671 62 0 0 0 64.406082
3.7037787 -3.7522762 -0.84978598 191.8 0 0 0 62.062996
4.8766432 -3.7487426 -0.85085195 437.25 0 0 0 59.911266
6.3295155 -3.7173662 -0.84133339 183 0 0 0 57.960625
8.3852768 -3.8669848 -0.84044933 167 0 0 0 56.394207
11.705755 -3.7306314 -0.82801294 118.5 0 0 0 54.448257
-9.9927931 -3.2976742 -0.91941649 54 0 0 0 94.509399
-7.5255709 -3.116312 -0.9033618 177 0 0 0 93.333641
-7.433919 -3.4035907 -0.906793 150 0 0 0 92.739342
-6.0346751 -3.0339968 -0.90942305 90 0 0 0 92.151779
-4.6956787 -3.2127652 -0.89672244 150 0 0 0 90.012115
-3.6971951 -3.257684 -0.89496535 104.16666 0 0 0 88.056984
-3.0407739 -3.1004581 -0.88914001 60 0 0 0 86.892502
-2.7445202 -3.3247879 -0.88294715 57.400002 0 0 0 85.511009
2.2518604 -3.345402 -0.84055907 22.166666 0 0 0 64.994232
2.6891582 -3.2190735 -0.83952194 38 0 0 0 63.368214
3.1782849 -3.2235157 -0.83987606 49 0 0 0 62.062996
3.938036 -3.3550878 -0.83479732 102.5 0 0 0 60.695419
4.0962672 -3.1546979 -0.83541703 104.5 0 0 0 59.910767
4.9960237 -3.370858 -0.83428121 220 0 0 0 58.94286
5.0922298 -3.1685781 -0.83107573 149 0 0 0 58.348824
6.4349861 -3.2649524 -0.82838541 136.66667 0 0 0 56.982708
8.4157705 -3.2702382 -0.82323819 177.33333 0 0 0 55.42474
11.530838 -3.2097228 -0.80733395 96 0 0 0 53.86063
17.325247 -3.462357 -0.77591121 51 0 0 0 52.686249
-22.81739 -2.8092086 -0.92493623 24 0 0 0 97.620049
-7.6234097 -2.7280524 -0.89822656 203.33333 0 0 0 94.119041
-6.0945244 -2.6993482 -0.89735276 189.33333 0 0 0 92.937439
-5.0127406 -2.5174391 -0.88333231 152 0 0 0 92.151779
-4.8704123 -2.9118037 -0.89377916 116 0 0 0 91.000847
-4.097775 -2.5881927 -0.87908572 141 0 0 0 90.6008
-3.9356198 -2.9100449 -0.88799214 114 0 0 0 89.423431
-3.2796059 -2.7491825 -0.87636685 64.5 0 0 0 88.445793
2.8001037 -2.846211 -0.8355692 26.200001 0 0 0 62.062996
3.2178631 -2.7480364 -0.83352137 41 0 0 0 60.695419
3.5757535 -2.688369 -0.83261138 40.333332 0 0 0 59.715515
4.3003979 -2.7572682 -0.82754689 75.599998 0 0 0 58.546272
5.2930732 -2.773612 -0.83006865 135.75 0 0 0 57.178493
6.5833168 -2.7487662 -0.82075238 164 0 0 0 55.811127
8.4960203 -2.8273468 -0.81760943 67 0 0 0 54.64719
8.5222654 -2.6046188 -0.81436789 135 0 0 0 54.249329
11.467206 -2.8898528 -0.79826206 99 0 0 0 53.475639
11.500038 -2.598671 -0.79672503 54 0 0 0 53.081261
17.139822 -2.773046 -0.76400256 34.5 0 0 0 52.106739
-45.565632 -2.2360299 -0.75893694 255 0 0 0 98.786194
-22.883953 -2.2488446 -0.9255597 18 0 0 0 98.015953
-13.986606 -2.0716424 -0.90049076 71 0 0 0 97.227058
-6.1467476 -2.198452 -0.87840861 242 0 0 0 94.119041
-5.0574965 -2.238075 -0.87075859 165.66667 0 0 0 92.937439
-4.2017198 -2.1981375 -0.86028099 87.666664 0 0 0 91.897774
-3.5989599 -2.1513691 -0.85757226 68.333336 0 0 0 90.993622
3.1534839 -2.3763463 -0.82902801 28.5 0 0 0 59.717094
3.7759113 -2.2954311 -0.82464516 80.800003 0 0 0 58.155884
4.4477463 -2.267628 -0.81007689 128.66667 0 0 0 56.982708
4.5139055 -2.0268013 -0.80362427 129 0 0 0 56.199421
5.4471626 -2.2793596 -0.82192421 125.33334 0 0 0 55.811127
6.6809793 -2.225703 -0.81181574 151.33333 0 0 0 54.645596
8.5312977 -2.2667627 -0.8076309 119.5 0 0 0 53.668137
11.470752 -2.296685 -0.79125845 61 0 0 0 52.686249
17.016689 -2.1112411 -0.75599575 41 0 0 0 51.524086
-22.5352 -1.6573569 -0.90931803 27 0 0 0 98.403137
-13.938676 -1.7161856 -0.8944397 114 0 0 0 97.620049
-6.1529236 -1.5404891 -0.85273522 252 0 0 0 95.665955
-5.1166883 -1.827823 -0.85510778 202 0 0 0 94.119041
-4.3530793 -1.7391609 -0.84994936 97.75 0 0 0 93.529831
-3.8148155 -1.6867337 -0.85335016 42 0 0 0 92.937439
3.9272625 -1.7667015 -0.80572224 56.599998 0 0 0 56.201683
4.6385312 -1.7469149 -0.80681258 92 0 0 0 55.230354
5.4808316 -1.8296803 -0.80535364 114 0 0 0 54.64719
5.5259414 -1.7450937 -0.80856925 61.333332 0 0 0 54.383404
6.7298675 -1.7004861 -0.80180341 68.333336 0 0 0 53.472515
8.4450989 -1.6942436 -0.78917891 202 0 0 0 52.686249
8.5064077 -1.9258589 -0.79870534 75 0 0 0 53.081261
11.346745 -1.8396163 -0.77840698 73.5 0 0 0 52.106739
16.806328 -1.6664255 -0.7453984 34 0 0 0 51.127609
-22.300177 -1.0906328 -0.89845961 17 0 0 0 98.786194
-13.90509 -1.1950867 -0.88910341 88 0 0 0 98.209549
-9.8815632 -1.3401184 -0.87076831 102 0 0 0 97.423553
-7.5829911 -1.1259336 -0.84945148 199 0 0 0 97.227058
-5.1713371 -1.2927461 -0.83850014 118 0 0 0 95.665955
-4.5036287 -1.1266012 -0.84171015 72 0 0 0 95.665955
-4.4034352 -1.452485 -0.8402645 94 0 0 0 94.509399
-3.8890383 -1.3885285 -0.84478402 49.333332 0 0 0 94.119041
3.9883296 -1.3374213 -0.7881155 64 0 0 0 54.64719
4.0552115 -1.2218667 -0.79488087 15 0 0 0 54.156464
4.6983128 -1.2559011 -0.79334909 35 0 0 0 53.666718
5.5568295 -1.2620078 -0.79637283 33.666668 0 0 0 53.081051
6.7346244 -1.1791281 -0.79124051 138 0 0 0 52.299908
8.4340611 -1.2634989 -0.78268927 93.666664 0 0 0 51.912521
11.198637 -1.2533183 -0.76426435 87.5 0 0 0 51.325848
16.534769 -1.2295038 -0.7324394 38 0 0 0 50.737019
-22.127974 -0.53829676 -0.89082503 29 0 0 0 99.176178
-13.800505 -0.67509133 -0.88018209 68 0 0 0 98.786194
-9.8545589 -0.84719467 -0.86378264 155.5 0 0 0 98.209549
-7.592319 -0.74933887 -0.84569353 138.33333 0 0 0 98.013039
-6.2021351 -0.76524258 -0.84048772 104.66666 0 0 0 97.621025
-5.2533221 -0.64607155 -0.83319807 68.666664 0 0 0 97.621025
-4.5554829 -0.61835289 -0.83383369 51 0 0 0 97.423553
-3.9850605 -0.79289341 -0.83223063 24.5 0 0 0 96.446503
4.1397176 -0.73071754 -0.7911467 34 0 0 0 52.301014
4.7638564 -0.78013074 -0.7894001 59.75 0 0 0 52.105949
5.5814219 -0.76834846 -0.78917903 92.5 0 0 0 51.716293
6.7898097 -0.67570668 -0.79141617 87 0 0 0 51.129566
8.4019337 -0.73233783 -0.77535248 116 0 0 0 50.932312
11.094201 -0.69006431 -0.75518471 65.5 0 0 0 50.54525
16.236156 -0.80610901 -0.7186693 40 0 0 0 50.353481
-13.686754 -0.33310345 -0.87207043 98 0 0 0 99.176178
-9.7982445 -0.35915866 -0.8563379 104.5 0 0 0 98.981186
-7.5996284 -0.18860435 -0.84304833 137.33333 0 0 0 99.176918
-6.1924 -0.30481836 -0.83401966 136.33333 0 0 0 98.788506
-5.2011037 -0.25407404 -0.81953216 109.66666 0 0 0 98.788506
-4.5184078 -0.22184077 -0.8205924 46.5 0 0 0 98.789658
-4.4974103 -0.331242 -0.81773669 59 0 0 0 98.401077
-3.9410827 -0.26618695 -0.80824131 22 0 0 0 98.496391
4.1353507 -0.20941405 -0.78122264 44.200001 0 0 0 50.350582
4.754046 -0.2412117 -0.78043091 95.800003 0 0 0 50.350582
5.5614772 -0.20956229 -0.78130978 106.75 0 0 0 50.15633
6.7121863 -0.16778068 -0.78002781 101 0 0 0 49.962769
8.3530846 -0.21020722 -0.76964903 163.66667 0 0 0 49.962769
10.891098 -0.0045374669 -0.74127209 68 0 0 0 49.568512
11.037813 -0.27688441 -0.7510888 47 0 0 0 49.966301
16.07674 -0.40181476 -0.71175158 51 0 0 0 49.966301
-21.80533 0.0049167871 -0.87744737 25 0 0 0 99.568382
-14.718912 0.36115763 -0.86348039 97 0 0 0 0
-13.643432 0.0029348626 -0.86919343 46 0 0 0 99.568382
-10.320116 0.37582362 -0.84739113 164.5 0 0 0 0.20135
-9.727169 0.0019839115 -0.84949565 201 0 0 0 99.568382
-8.0281954 0.19095045 -0.84513175 264 0 0 0 0
-7.9550405 0.38167191 -0.83786923 149 0 0 0 0.40270001
-6.5036287 0.15444525 -0.83476663 112 0 0 0 0
-6.3475461 0.25806734 -0.82799977 143.66667 0 0 0 33.585217
-5.386158 0.19581598 -0.82037187 76.5 0 0 0 25.188913
-4.7067733 0.28036121 -0.81872982 33 0 0 0 0.58969748
-4.2134366 0.24695925 -0.81657761 27 0 0 0 17.248964
4.0819573 0.25126472 -0.77295583 43.5 0 0 0 48.593494
4.6724439 0.28645906 -0.76882797 56.25 0 0 0 48.593498
5.474494 0.33763504 -0.77124369 106 0 0 0 48.59692
5.5199952 0.13472143 -0.77585453 76 0 0 0 49.17622
6.6450973 0.32775509 -0.77425385 211.33333 0 0 0 48.79002
8.2686558 0.30221868 -0.76330918 116 0 0 0 48.982155
10.818572 0.26242757 -0.73712885 60 0 0 0 49.17622
15.799334 0.383387 -0.70109344 36 0 0 0 49.17622
-25.518734 0.63144022 -0.90110552 15 0 0 0 0
-14.594433 0.71368217 -0.85671014 75 0 0 0 0.40270001
-10.153799 0.86416924 -0.83584428 182.5 0 0 0 0.97804499
-7.8721862 0.75981325 -0.83212644 237.33333 0 0 0 1.1742333
-6.3687425 0.7684384 -0.8231352 123 0 0 0 1.5672201
-5.3946738 0.7156263 -0.81965065 64.75 0 0 0 1.7627726
-4.6662521 0.72979099 -0.82086772 44.25 0 0 0 2.1533375
-4.0832682 0.78745067 -0.81593245 31 0 0 0 2.7379298
3.9556434 0.86529487 -0.76684862 41 0 0 0 46.19038
4.0227771 0.63742286 -0.77098513 44.666668 0 0 0 47.098846
4.570899 0.74158931 -0.76158756 61.75 0 0 0 47.034233
5.370132 0.73502976 -0.76322991 138.5 0 0 0 47.423561
6.4989357 0.97169489 -0.76594764 61 0 0 0 47.23354
6.5715494 0.73423237 -0.77045238 214 0 0 0 47.810154
8.215929 0.70846796 -0.76180285 167 0 0 0 48.204842
10.790478 0.66196108 -0.73749268 131.5 0 0 0 48.59692
15.814559 0.77378684 -0.70347923 29 0 0 0 48.78809
-59.210072 1.4646293 -0.68853301 7 0 0 0 0
-25.978121 1.2782122 -0.91880411 15 0 0 0 0.40270001
-14.403876 1.2320104 -0.84743166 115 0 0 0 0.97804499
-10.063174 1.2268338 -0.83143073 105 0 0 0 1.56661
-9.9792671 1.4629561 -0.82714397 240 0 0 0 1.9635299
-7.7048564 1.3127142 -0.82233244 192.66667 0 0 0 2.3489134
-6.3012757 1.2266785 -0.82432574 135 0 0 0 2.7353268
-5.2651443 1.2212069 -0.81462926 123 0 0 0 3.3210325
-4.565269 1.1119605 -0.81712198 56.333332 0 0 0 3.5167835
-4.2563524 1.202162 -0.81603479 68 0 0 0 4.1019602
3.8187785 1.2793286 -0.7633341 51.200001 0 0 0 44.498772
4.4165869 1.295593 -0.75781995 79.5 0 0 0 45.085682
4.5419092 1.0300585 -0.76636136 28 0 0 0 46.060329
5.2738338 1.2650409 -0.76470518 150 0 0 0 45.865173
6.4368262 1.291056 -0.76594812 168.33333 0 0 0 46.449123
8.0955 1.2052546 -0.75717139 182.66667 0 0 0 47.230106
10.711702 1.1893666 -0.73652887 166.5 0 0 0 47.810154
15.751424 1.1601406 -0.70263541 71 0 0 0 48.40575
-25.248796 1.8609833 -0.89361078 19 0 0 0 0.78456998
-14.165307 1.7345864 -0.83624649 106 0 0 0 1.56661
-9.9001045 1.8213018 -0.82581365 179.5 0 0 0 2.541605
-7.5780525 1.7683198 -0.81899273 187.5 0 0 0 3.321455
-6.1007519 1.7328176 -0.81489176 213.25 0 0 0 4.1004825
-5.1528764 1.5271403 -0.81016314 231 0 0 0 4.2964802
-4.2054353 1.8117592 -0.79737341 45 0 0 0 6.2372298
-3.8024349 1.6336954 -0.81447059 64 0 0 0 6.2372298
3.431994 1.9236212 -0.74485886 47 0 0 0 41.569046
3.601547 1.6773117 -0.75275254 86 0 0 0 42.742805
4.1937757 1.7598547 -0.74911374 113.8 0 0 0 43.327175
4.9573026 1.9353141 -0.75035363 265 0 0 0 43.71236
5.0973911 1.7027215 -0.75797325 166 0 0 0 44.499386
6.2384276 1.7425679 -0.75603384 290.66666 0 0 0 45.281658
7.8823967 1.7797338 -0.74817497 329.33334 0 0 0 46.059124
10.567822 1.7051866 -0.73234481 194.5 0 0 0 47.036972
15.598257 1.7300665 -0.69949627 62.5 0 0 0 47.810154
-14.079837 2.2478619 -0.83580136 99.5 0 0 0 2.1564801
-9.6870193 2.272192 -0.81630242 226.5 0 0 0 3.321455
-7.4354882 2.1187167 -0.81399232 197.5 0 0 0 4.1019602
-4.8478241 2.0977244 -0.79728431 194 0 0 0 6.2372298
-3.7830958 2.3874741 -0.78132105 81.5 0 0 0 8.7767944
-3.4624519 2.1211977 -0.80137986 86 0 0 0 8.57827
3.2252817 2.2583892 -0.74554664 64.333336 0 0 0 40.008068
3.881938 2.2987547 -0.74255085 156.5 0 0 0 41.178665
4.0364242 2.0619202 -0.74601936 189 0 0 0 42.15686
4.8203855 2.235719 -0.74954307 239.5 0 0 0 42.742805
5.9154038 2.3905184 -0.74478793 360 0 0 0 43.519741
6.0790558 2.1124125 -0.75129998 308 0 0 0 44.303459
7.7251291 2.2544689 -0.7454704 301 0 0 0 45.08728
10.39514 2.2088857 -0.72765076 241 0 0 0 46.253479
15.447713 2.2940116 -0.69697064 48 0 0 0 47.23354
-59.456402 2.9285092 -0.69224072 21 0 0 0 0.40270001
-13.778814 2.7191331 -0.82304567 89 0 0 0 2.7337799
-9.3782616 2.6854706 -0.80014861 291 0 0 0 4.1019602
-4.2610378 2.8464148 -0.77635348 220.75 0 0 0 9.1661844
-3.6047604 2.5900249 -0.77660185 102.33334 0 0 0 9.7504425
-3.3394961 2.8561532 -0.77093548 148.5 0 0 0 11.11215
2.7729187 2.7747681 -0.74072576 102.33334 0 0 0 37.269608
3.3247294 2.783859 -0.73657846 122.5 0 0 0 38.642433
3.6473334 2.6138904 -0.73779553 139.66667 0 0 0 39.81126
4.4031482 2.830013 -0.73745728 195.66667 0 0 0 40.592548
4.6631737 2.6811588 -0.66496211 325 0 0 0 41.374722
5.0581341 2.9016843 -0.60586989 75.5 0 0 0 41.372112
5.6710291 2.7991471 -0.73830843 286 0 0 0 42.35252
7.4709778 2.9030318 -0.7428447 258 0 0 0 43.71236
7.5621395 2.6196771 -0.74155796 321 0 0 0 44.303459
10.229687 2.7080173 -0.72507852 220.5 0 0 0 45.476864
15.541728 2.7008748 -0.70490342 42 0 0 0 46.840401
28.219248 2.7803018 -0.59181309 20 0 0 0 48.003929
-25.144028 3.093442 -0.89458668 22 0 0 0 1.56661
-13.507822 3.0085695 -0.81074834 161 0 0 0 3.1227701
-13.299704 3.3036368 -0.80279928 138 0 0 0 3.5201399
-5.1199846 3.1692326 -0.7762866 242.33333 0 0 0 8.5807133
-4.8848915 3.4487009 -0.77211177 316 0 0 0 9.5555744
-4.0444922 3.0710287 -0.77033085 253 0 0 0 10.14018
-3.8347688 3.2954211 -0.76885992 278.5 0 0 0 11.11215
-3.1080368 3.0747576 -0.76877838 156 0 0 0 12.281725
-2.7590322 3.3158019 -0.76174355 120.33334 0 0 0 13.846208
1.8835453 3.4618399 -0.73704785 83.333336 0 0 0 32.772144
2.258961 3.2281964 -0.74037987 56.833332 0 0 0 34.530853
2.8046379 3.2778683 -0.73855966 140 0 0 0 36.03101
3.1761556 3.1244116 -0.62051749 88.555557 0 0 0 37.37851
3.8365345 3.4535613 -0.72536981 273.5 0 0 0 38.050674
4.0820193 3.1433132 -0.69960177 128 0 0 0 39.266346
5.3392429 3.331425 -0.73403382 219 0 0 0 40.788284
7.2491336 3.2382534 -0.73583651 353.33334 0 0 0 42.938126
10.093849 3.2130361 -0.72634697 223.5 0 0 0 44.694504
15.645598 3.1178308 -0.71377647 42 0 0 0 46.446632
24.832834 3.0655284 -0.52007741 16 0 0 0 47.616379
-25.158905 3.7210903 -0.89847243 27 0 0 0 1.9635299
-13.147783 3.6076722 -0.79885471 127 0 0 0 3.9074399
-12.953582 3.895551 -0.79267538 135 0 0 0 4.2964802
-6.2856193 3.9061663 -0.7824738 269 0 0 0 8.57827
-5.348876 3.5926793 -0.5206368 60 0 0 0 9.1673145
-4.6572123 3.8251443 -0.78090096 208 0 0 0 10.724225
-3.573617 3.5535069 -0.76820993 247 0 0 0 12.281725
-3.2386925 3.818404 -0.76617551 204.2 0 0 0 13.650488
-2.2376251 3.6632206 -0.76296872 92.333336 0 0 0 16.184816
-1.7117298 3.8913345 -0.7603147 95.599998 0 0 0 18.330736
-1.4164714 3.9936345 -0.7604481 84 0 0 0 19.505091
0.80365294 3.9575818 -0.74591947 79 0 0 0 28.086727
1.2659105 3.768724 -0.73844469 83.400002 0 0 0 30.040155
1.6286612 3.6118271 -0.73883659 70.666664 0 0 0 31.600714
2.2448387 3.8720653 -0.72797149 126.8 0 0 0 33.163799
2.6728158 3.6097569 -0.73349953 120 0 0 0 34.920639
3.3413305 3.9574451 -0.68284988 269.33334 0 0 0 35.901073
3.5793839 3.7435441 -0.72654986 180 0 0 0 36.877232
4.4366002 3.5139327 -0.51576692 234 0 0 0 39.038048
4.5015373 3.5676434 -0.66680723 668 0 0 0 39.038048
5.1610756 3.5882773 -0.73279768 385 0 0 0 40.007912
6.9509258 3.74753 -0.7315141 325 0 0 0 41.76598
7.0475373 3.5772657 -0.73221141 334 0 0 0 42.15686
9.8994446 3.6991565 -0.72491813 252.5 0 0 0 43.910759
15.67832 3.7306576 -0.72214901 118.5 0 0 0 45.865368
-59.50478 4.3934455 -0.69418359 44 0 0 0 0.78456998
-24.334909 4.2082353 -0.87184727 15 0 0 0 2.3494301
-14.198421 4.2742896 -0.51206541 247 0 0 0 4.2964802
-6.1205635 4.2297311 -0.78841734 204.33333 0 0 0 9.3621569
-5.780757 4.4223809 -0.77174646 119 0 0 0 10.14018
-4.2785501 4.2481604 -0.69111466 159.875 0 0 0 12.231885
-3.9386609 4.4418201 -0.77343798 311 0 0 0 13.26121
-2.726325 4.1437883 -0.76293308 226.2 0 0 0 15.602557
-2.2392001 4.3841982 -0.76087582 195.75 0 0 0 17.353283
-1.9587389 4.4926624 -0.75968254 109 0 0 0 18.334579
-1.1721098 4.0850992 -0.76579612 36.25 0 0 0 20.476225
-0.75692308 4.117218 -0.75803339 22 0 0 0 22.032413
-0.29356414 4.1154904 -0.75154376 31.799999 0 0 0 23.79068
0.14669277 4.0961909 -0.75075465 20.333334 0 0 0 25.485605
0.51027656 4.0234733 -0.74580866 21 0 0 0 26.923019
1.3184268 4.42243 -0.74319106 158 0 0 0 29.454533
1.7637749 4.1572413 -0.7308163 118 0 0 0 31.210697
2.8960257 4.4491081 -0.74048424 223 0 0 0 33.949631
3.1156092 4.196393 -0.73063523 221.25 0 0 0 34.920639
3.7826519 4.2546029 -0.61071557 518 0 0 0 36.290585
4.8601308 4.0467825 -0.73649639 176 0 0 0 38.643021
9.449111 4.4957471 -0.71767628 235 0 0 0 42.543232
9.6408424 4.1558542 -0.72013688 244.5 0 0 0 43.135571
12.429213 4.4645276 -0.58777499 398 0 0 0 44.109154
12.682564 4.2050881 -0.59480029 65 0 0 0 44.497768
13.463104 4.0972629 -0.62773204 85 0 0 0 44.891239
14.467069 4.0147662 -0.67131001 65 0 0 0 45.283321
-24.005299 4.7574849 -0.86403435 84 0 0 0 2.7337799
-5.7202568 4.7179174 -0.78818512 260 0 0 0 10.725414
-5.4937458 4.8777242 -0.78173536 282 0 0 0 11.30589
-4.2173705 4.7724247 -0.52145022 135.66667 0 0 0 13.259713
-3.7062862 4.6132221 -0.77273607 369 0 0 0 14.04086
-3.2695422 4.8655176 -0.76840025 364.75 0 0 0 15.407352
-1.7251753 4.5509849 -0.75648564 201 0 0 0 19.110657
-1.2627208 4.662921 -0.75532037 101.8 0 0 0 20.671505
-0.74095577 4.7723885 -0.75991631 51 0 0 0 22.422678
-0.26730275 4.8045816 -0.76143879 71.25 0 0 0 23.984928
0.22987056 4.6963382 -0.74804133 38.5 0 0 0 25.647556
0.77985251 4.6474009 -0.7544995 110.75 0 0 0 27.502357
1.0655841 4.5863042 -0.75612903 95 0 0 0 28.478529
2.2987998 4.8749809 -0.74801052 173.75 0 0 0 31.79738
2.6954744 4.6277032 -0.7458666 188.33333 0 0 0 33.160664
3.2429183 4.709291 -0.51545274 347 0 0 0 34.337967
3.7057858 4.8459735 -0.70471781 503 0 0 0 35.111759
9.2747049 4.84235 -0.71756232 230 0 0 0 41.961418
12.481265 4.8337512 -0.59624463 406 0 0 0 43.71236
-23.29003 5.209167 -0.84223449 42 0 0 0 3.1227701
-8.7675581 5.1888947 -0.59298176 57 0 0 0 8.18855
-8.0782671 5.0449643 -0.78592962 281 0 0 0 8.57827
-5.0076571 5.4043331 -0.78756779 253 0 0 0 12.86865
-4.1686516 5.3455868 -0.55930424 134.5 0 0 0 14.23665
-2.7782836 5.1583586 -0.77179074 278 0 0 0 16.962925
-2.2490535 5.3750706 -0.77177662 282 0 0 0 18.526567
0.86362123 5.4758534 -0.75823158 114.33334 0 0 0 27.306877
1.2545053 5.3482232 -0.75440627 214.66667 0 0 0 28.478674
1.6943277 5.1673427 -0.7502408 197.5 0 0 0 29.844685
2.0039387 5.0345087 -0.74960297 166 0 0 0 30.822041
3.360384 5.3325119 -0.62266934 187.33333 0 0 0 33.685169
3.6516464 5.2973118 -0.74328321 348.33334 0 0 0 34.336498
12.520788 5.2074428 -0.60456282 291 0 0 0 43.327122
-59.499989 5.8608565 -0.69602668 31 0 0 0 1.17152
-22.336628 5.5708652 -0.81173086 69 0 0 0 3.5201399
-21.289402 5.864006 -0.77781516 58 0 0 0 3.9074399
-8.8107882 5.5098042 -0.60629576 976 0 0 0 8.57827
-4.7337775 5.6358056 -0.78874034 341.33334 0 0 0 13.650773
-4.2387094 5.8682408 -0.73478377 291.5 0 0 0 14.825022
-1.777071 5.5355039 -0.77399713 266 0 0 0 19.894026
-1.2837896 5.6123905 -0.77046967 199.5 0 0 0 21.253675
-0.71716243 5.6237283 -0.76290715 68.75 0 0 0 22.813105
-0.23042899 5.6628823 -0.76665479 145 0 0 0 24.181284
0.25356293 5.5877361 -0.76038504 107.5 0 0 0 25.551163
0.59481609 5.5343971 -0.75906307 156 0 0 0 26.521931
2.8727567 5.8694711 -0.74999875 161 0 0 0 31.990999
3.2050886 5.635931 -0.74614835 161.5 0 0 0 32.964523
12.562739 5.7795649 -0.61718631 262 0 0 0 42.743626
-4.1605897 6.0745625 -0.61278665 122 0 0 0 15.21902
-3.7857552 6.141973 -0.77838892 354.33334 0 0 0 15.989657
-3.325326 6.4012628 -0.78140086 334.66666 0 0 0 17.156107
1.7786088 6.4268284 -0.7576915 239 0 0 0 29.064705
2.2249482 6.2112203 -0.75295126 208.75 0 0 0 30.235016
2.6051595 6.0621343 -0.75538331 123 0 0 0 31.21652
12.606218 6.3728914 -0.63097352 231 0 0 0 42.15686
-4.0660396 6.8048649 -0.66507196 97 0 0 0 16.184696
-3.3407621 6.8548055 -0.64213145 181 0 0 0 17.547409
-2.7498906 6.6241779 -0.78129143 289.5 0 0 0 18.526567
-2.1712525 6.8332086 -0.78553897 249.66667 0 0 0 19.894022
-1.7445283 6.9354954 -0.78670716 227.5 0 0 0 20.86396
-1.303135 6.9568386 -0.78172618 263.66666 0 0 0 21.837011
-0.78090018 6.9669666 -0.77800196 321.66666 0 0 0 23.00939
-0.26312569 6.9484653 -0.77537632 234.33333 0 0 0 24.181284
0.24761494 6.8897481 -0.77240878 319.33334 0 0 0 25.356096
0.7453205 6.7701354 -0.76652217 249.66667 0 0 0 26.527105
1.2375873 6.6607623 -0.76605296 298 0 0 0 27.695471
1.5556272 6.5536909 -0.76379216 293 0 0 0 28.478529
2.7050884 6.7200584 -0.65164465 147 0 0 0 30.822618
3.4420035 6.9902449 -0.51274014 453 0 0 0 31.98731
4.0801821 6.9339623 -0.73342025 420 0 0 0 33.15826
12.632266 6.7817802 -0.64077759 219 0 0 0 41.76598
-3.8629608 7.2531147 -0.69293332 143 0 0 0 16.960455
-3.2094817 7.2574248 -0.67171806 283.5 0 0 0 18.139694
4.1500735 7.4610553 -0.7788704 244 0 0 0 32.77079
-5.1459613 7.9655094 -0.80040544 203 0 0 0 15.59958
1.2815834 7.8731341 -0.70861262 240 0 0 0 27.306875
1.7754426 7.8255348 -0.71641326 307.5 0 0 0 28.283665
2.2622485 7.865447 -0.65216136 842.59998 0 0 0 29.181507
2.7367864 7.8698854 -0.59525585 495 0 0 0 30.039507
3.2956967 7.8694744 -0.56121695 426.5 0 0 0 31.019279
3.7188852 7.6582322 -0.7206102 302 0 0 0 31.892828
4.5657883 7.7424126 -0.59929901 290 0 0 0 33.15826
-3.611275 8.484951 -0.55963022 659 0 0 0 18.334579
-3.2048321 8.3607607 -0.65374625 509.25 0 0 0 18.913441
-2.7344332 8.3288555 -0.64224166 589 0 0 0 19.6991
-2.2802606 8.2926903 -0.6324864 642 0 0 0 20.475485
-1.7322674 8.238616 -0.62216145 648.66669 0 0 0 21.449198
-1.2046657 8.1966991 -0.61523426 667 0 0 0 22.421436
-0.79350853 8.165184 -0.61208808 535.75 0 0 0 23.204775
-0.32831725 8.1356831 -0.59084851 413 0 0 0 24.103283
0.21468748 8.181447 -0.51745117 2059 0 0 0 25.160231
0.71701342 8.1479807 -0.52063769 2332 0 0 0 26.135374
1.2163084 8.080389 -0.52341568 1617.5 0 0 0 27.11442
1.721418 8.0305519 -0.52975178 1581.3334 0 0 0 28.086372
-4.2637758 8.5327816 -0.57628822 231.5 0 0 0 17.351274
-3.8736324 8.5192795 -0.56691152 497 0 0 0 17.944811
1.2841182 -26.551474 -0.43998456 198 0 0 0 73.788864
1.9383956 -26.558098 -0.44208357 364 0 0 0 73.394577
-2.6235969 -26.456787 -0.43320051 80 0 0 0 76.137321
-1.9688869 -26.443758 -0.43302149 98 0 0 0 75.73925
3.9054422 -26.474817 -0.44849277 259 0 0 0 72.224129
4.6107359 -11.212519 -0.48811972 136 0 0 0 68.317596
-5.0398426 -7.5164399 -0.33972436 293 0 0 0 83.947182
-4.0562515 -7.5533252 -0.32055724 631 0 0 0 82.392799
-9.5295115 -7.4259615 -0.46521875 264 0 0 0 89.035934
-8.7302742 -7.1558166 -0.15678953 210 0 0 0 88.637642
-6.7994046 -7.1281519 -0.13224012 244 0 0 0 86.694336
-6.1444321 -7.2867346 -0.24444519 403 0 0 0 85.708672
-5.0313735 -7.119669 -0.32583669 401 0 0 0 84.334877
-4.6821141 -7.3656974 -0.32648823 251 0 0 0 83.561081
-3.7909887 -7.493104 -0.31342465 574 0 0 0 82.00473
-3.290755 -7.3780975 -0.49793881 135 0 0 0 81.209534
-2.6164579 -7.2532487 -0.28594965 681 0 0 0 80.034882
-2.3799446 -7.3373094 -0.41193673 382.33334 0 0 0 79.519081
-0.64408314 -7.1756139 -0.44411874 135.5 0 0 0 75.938286
-0.37709865 -7.1357298 -0.44069594 98 0 0 0 75.352188
-5.6945863 -6.9218736 -0.11720849 125 0 0 0 85.514793
-5.0470433 -6.7825513 -0.31479028 219 0 0 0 84.722145
-3.0953932 -6.7900715 -0.2735115 280.66666 0 0 0 81.341599
-2.3883641 -6.6151218 -0.42944142 393 0 0 0 80.034882
-1.6426464 -6.6983495 -0.25458467 418.66666 0 0 0 78.347626
-1.1692839 -6.5997529 -0.32775992 121.5 0 0 0 77.312256
-0.98943377 -6.5052309 -0.24098384 97 0 0 0 76.921394
0.30863541 -6.7726183 -0.41792735 76.5 0 0 0 73.787018
0.74069804 -6.9459114 -0.43258607 87 0 0 0 72.811966
1.3954289 -6.7412519 -0.42757857 160.5 0 0 0 71.25119
1.6312749 -6.6405134 -0.42513549 160 0 0 0 70.665276
2.1267102 -6.5388975 -0.42914894 231 0 0 0 69.489983
3.8680019 -6.5167446 -0.48116043 411 0 0 0 65.977844
9.3828678 -6.642787 -0.47868446 297 0 0 0 59.325008
-12.664128 -6.3710036 -0.2070322 88 0 0 0 92.151779
-8.1200399 -6.0125251 -0.38314247 146 0 0 0 89.423431
-6.8689632 -6.2138262 -0.23491085 450.5 0 0 0 87.861526
-5.7546606 -6.177494 -0.3141005 264 0 0 0 86.495522
-4.8979464 -6.2564292 -0.19683215 237.5 0 0 0 85.118866
-3.5627251 -6.2561536 -0.43905717 281 0 0 0 82.777489
-3.089021 -6.4896727 -0.26325426 558 0 0 0 81.605728
-2.6631908 -6.3812547 -0.25211588 475 0 0 0 80.819824
-2.1039159 -6.056284 -0.07564339 109 0 0 0 79.840729
-1.7043242 -6.280241 -0.18244755 180.66667 0 0 0 78.738823
-0.79696602 -6.2651758 -0.30699456 123.5 0 0 0 76.529358
0.29087758 -6.4998193 -0.39951515 326 0 0 0 73.788864
0.9117403 -6.3488245 -0.23802578 88 0 0 0 72.224129
1.0131671 -6.0156069 -0.29973766 210 0 0 0 71.839188
3.2238705 -6.3438325 -0.39300501 318.33334 0 0 0 67.011963
3.6287727 -6.4717174 -0.46991372 346 0 0 0 66.365936
4.1643491 -6.4598227 -0.48927474 322 0 0 0 65.383514
4.6767273 -6.0449333 -0.39502317 172 0 0 0 64.01123
6.6651382 -6.2350206 -0.26021445 348.5 0 0 0 61.478096
7.0672698 -6.4462738 -0.38931301 273 0 0 0 61.284527
7.7945781 -6.1198678 -0.40673247 340 0 0 0 60.10918
15.503613 -6.0006123 -0.31177616 47 0 0 0 55.419632
-16.65654 -5.9578152 -0.26843441 52 0 0 0 94.121399
-14.359248 -5.5367785 -0.22860703 127 0 0 0 93.726326
-13.615366 -5.6371861 -0.21716756 93 0 0 0 93.333641
-12.754911 -5.6510601 -0.20348722 158 0 0 0 92.937965
-11.772253 -5.5647054 -0.18736593 119 0 0 0 92.540718
-7.599659 -5.7750163 -0.12710372 264.5 0 0 0 89.229683
-6.7448707 -5.6656761 -0.32929391 276.5 0 0 0 88.441452
-6.4015856 -5.5122447 -0.10829712 316 0 0 0 88.24527
-5.7112503 -5.5581164 -0.29521644 355 0 0 0 87.280777
-3.3993316 -5.6411867 -0.31899145 303 0 0 0 83.165535
-2.9345064 -5.7929716 -0.23173827 344 0 0 0 82.00473
-2.3197184 -5.9596643 -0.23084874 265 0 0 0 80.435318
-1.2434837 -5.8812938 -0.21583907 210.66667 0 0 0 77.830147
-0.71142691 -5.5626688 -0.40679085 115.5 0 0 0 76.528519
-0.19234766 -5.7564044 -0.37381196 229.5 0 0 0 75.026039
0.18505958 -5.7886095 -0.49466005 351 0 0 0 73.984161
0.73941576 -5.7692685 -0.41043487 329.20001 0 0 0 72.460281
1.7517852 -5.6348095 -0.18590039 118.25 0 0 0 69.683212
2.2260332 -5.8036532 -0.23290892 147.28572 0 0 0 68.651245
2.650382 -5.6794324 -0.39055514 347 0 0 0 67.539856
3.2892675 -5.8718662 -0.25816482 276 0 0 0 66.365936
3.795794 -5.5877533 -0.26192069 343.5 0 0 0 64.99144
4.0197482 -5.763536 -0.2728259 259 0 0 0 64.79641
4.8438706 -5.8044152 -0.34320888 572.25 0 0 0 63.432007
5.646502 -5.6901646 -0.3198418 508 0 0 0 62.064701
6.805727 -5.7683635 -0.3619732 303 0 0 0 60.695419
7.8880734 -5.8858433 -0.40448397 216 0 0 0 59.712353
8.4627323 -5.6878304 -0.42176887 609 0 0 0 58.94286
8.5197163 -5.7232127 -0.17316629 419 0 0 0 58.94286
-16.007389 -5.2864094 -0.25434449 95 0 0 0 94.509399
-5.7882547 -5.4992414 -0.10041361 404 0 0 0 87.470886
-4.7713919 -5.3779163 -0.17331839 331 0 0 0 86.099625
-4.1344862 -5.4134274 -0.24686354 575 0 0 0 84.920502
-3.7052536 -5.3311639 -0.28793263 271.66666 0 0 0 84.20565
-3.2870517 -5.3085175 -0.071328342 381.25 0 0 0 83.362823
-2.8282223 -5.3348632 -0.1795689 370.5 0 0 0 82.292198
-2.091579 -5.3696246 -0.20313956 137 0 0 0 80.435318
-1.6465149 -5.3570356 -0.13028012 179.5 0 0 0 79.264091
-1.2844021 -5.3053379 -0.29382023 193.75 0 0 0 78.284164
-0.80957508 -5.2878957 -0.16706568 108.6 0 0 0 76.920586
-0.12524857 -5.3450098 -0.15971461 121.25 0 0 0 74.862465
0.28185138 -5.2258701 -0.13571852 87 0 0 0 73.633469
0.80783671 -5.1904559 -0.18642908 90.5 0 0 0 72.029907
1.2835855 -5.1681867 -0.15702367 135 0 0 0 70.607132
1.8381433 -5.2225018 -0.34192374 143.66667 0 0 0 69.093842
2.3015776 -5.1852989 -0.24706005 181.25 0 0 0 67.831314
2.6856179 -5.4041395 -0.079700872 63 0 0 0 67.142609
3.1890411 -5.1499166 -0.17017052 229.2 0 0 0 65.66066
3.8354068 -5.2232218 -0.18548836 250 0 0 0 64.409256
4.6844454 -5.1282568 -0.21570587 480 0 0 0 62.71254
6.1550941 -5.0870981 -0.125173 177 0 0 0 60.49852
6.7307868 -5.2871308 -0.13713208 227 0 0 0 60.10918
8.5068893 -5.128355 -0.28993928 210.5 0 0 0 58.155399
10.268548 -5.1935716 -0.20242992 108 0 0 0 56.986073
14.079264 -5.0567546 -0.27856049 91 0 0 0 55.04026
16.376314 -5.4280167 -0.32741517 131 0 0 0 54.64719
19.98807 -5.0215459 -0.40195167 172 0 0 0 53.475639
2.3278182 -4.9970284 -0.2043958 162 0 0 0 67.539856
2.7881508 -4.9849367 -0.074312359 9 0 0 0 66.365936
4.2270598 -4.9439673 -0.20003392 685.66669 0 0 0 63.235851
4.6691828 -4.8276424 -0.1795913 770 0 0 0 62.257622
5.0501719 -4.8481541 -0.10417745 706 0 0 0 61.671661
5.5965919 -4.86481 -0.11337259 544 0 0 0 60.892319
6.3857121 -4.769196 -0.12608071 541 0 0 0 59.712353
6.6441607 -4.7113228 -0.13017447 633 0 0 0 59.325008
7.7596951 -4.9444427 -0.26528138 320.5 0 0 0 58.542248
8.3608646 -4.763514 -0.16255412 214 0 0 0 57.765846
8.9022818 -4.7844191 -0.17311324 262 0 0 0 57.373058
10.401068 -4.7873297 -0.20265669 148 0 0 0 56.394207
11.482879 -4.7777481 -0.22431792 92 0 0 0 55.814327
15.330118 -4.6672487 -0.30314362 72 0 0 0 54.249329
16.208414 -4.5012832 -0.32107326 32 0 0 0 53.86063
21.415762 -4.8228202 -0.43183795 103 0 0 0 53.081261
23.480375 -4.683279 -0.47561732 100 0 0 0 52.686249
24.595385 -4.2793999 -0.49906781 49 0 0 0 52.301071
3.9710808 2.9933591 -0.3265194 250.5 0 0 0 39.417961
4.3002434 2.9774139 -0.34410301 294.20001 0 0 0 40.046547
4.7261543 2.9606297 -0.27017903 314.42856 0 0 0 40.760033
5.0614872 2.9020309 -0.24365221 353 0 0 0 41.372112
3.1980071 3.1323729 -0.22080833 143.80952 0 0 0 37.409687
3.7225165 3.0109072 -0.20805557 197.75 0 0 0 38.888027
4.1397381 3.0386868 -0.21014881 191 0 0 0 39.616348
22.315725 3.3146544 -0.46685332 25 0 0 0 47.23354
-5.5251851 3.8146107 -0.056868095 270 0 0 0 9.3593102
-5.2540121 3.6610062 -0.23817816 303.79999 0 0 0 9.4395237
-4.7240109 3.6934969 -0.26518059 125.83334 0 0 0 10.334834
-4.4220657 3.8480227 -0.3060528 333 0 0 0 11.178876
3.1358883 3.7582612 -0.28047261 231.3 0 0 0 35.822979
3.8607142 3.9301074 -0.49967632 66 0 0 0 37.074993
5.2194023 3.6250901 -0.2676371 366 0 0 0 40.007912
15.575245 3.9132342 -0.32571369 85 0 0 0 45.670406
16.928385 3.8113742 -0.35387194 47 0 0 0 46.060329
18.449921 3.6780496 -0.38562492 35 0 0 0 46.446632
20.312168 3.5307703 -0.42478755 23 0 0 0 46.840401
-28.625189 4.2325697 -0.32230759 19 0 0 0 1.9635299
-14.501103 4.3642974 -0.15633105 125 0 0 0 4.2964802
-4.3138804 4.1929564 -0.24912687 130.36363 0 0 0 12.049595
3.1905718 4.290729 -0.30474254 238.66667 0 0 0 34.916824
12.423981 4.4647946 -0.26348785 501 0 0 0 44.109154
12.654655 4.1980619 -0.26619554 169 0 0 0 44.497768
13.49009 4.1077776 -0.28300601 168 0 0 0 44.891239
14.488263 4.0231471 -0.30342528 96 0 0 0 45.283321
-26.328119 4.5511813 -0.29569721 35 0 0 0 2.3494301
-24.756653 4.9038253 -0.27805802 45 0 0 0 2.7337799
-4.2269964 4.784534 -0.2124083 99.111115 0 0 0 13.259712
3.2494965 4.8455577 -0.23719065 312.16666 0 0 0 34.143799
12.477109 4.8342905 -0.26763278 423 0 0 0 43.71236
-23.431351 5.2377882 -0.26350239 54 0 0 0 3.1227701
-8.7874165 5.4954615 -0.22784887 1192.5 0 0 0 8.57827
-4.1577349 5.3330898 -0.22843613 105.66666 0 0 0 14.23665
3.2989454 5.3261685 -0.25544205 352.66666 0 0 0 33.55294
3.9007952 5.2231998 -0.26978049 425 0 0 0 34.916824
12.501985 5.2018023 -0.27129707 418 0 0 0 43.327122
-22.277853 5.5531468 -0.25111428 100 0 0 0 3.5201399
-21.282541 5.8592863 -0.2407701 98 0 0 0 3.9074399
-8.757452 5.7790232 -0.23161048 1020.5 0 0 0 8.9753199
-4.1019731 5.8351359 -0.24441914 88.333336 0 0 0 15.021909
3.3362842 5.6895919 -0.26996571 286 0 0 0 33.15826
12.552022 5.7770166 -0.27754033 416 0 0 0 42.743626
-4.0518432 6.2414355 -0.25763029 87.666664 0 0 0 15.59958
3.3679023 6.0774336 -0.37061664 310 0 0 0 32.77079
12.607977 6.3759346 -0.28439897 355 0 0 0 42.15686
-4.0219693 6.5450897 -0.26771012 66 0 0 0 15.986011
-3.9829247 6.856998 -0.27876243 72 0 0 0 16.383381
-3.4808807 6.7224417 -0.17446682 201 0 0 0 17.15514
3.4089737 6.5189595 -0.30286834 344 0 0 0 32.387379
12.647338 6.7920008 -0.289359 343 0 0 0 41.76598
-3.9536572 7.2134271 -0.2911385 119.33334 0 0 0 16.76577
3.4572701 7.0189843 -0.22671691 229.5 0 0 0 31.98731
3.917377 7.0473852 -0.137622 289 0 0 0 32.77079
4.1559615 7.0578637 -0.14122096 870 0 0 0 33.15826
2.3423381 7.9843225 -0.23492336 1109.5 0 0 0 29.260719
2.7597551 7.9290662 -0.23975085 846.33331 0 0 0 30.039339
3.3118892 7.9049668 -0.24834792 1044.25 0 0 0 31.019279
3.64323 7.864315 -0.25317696 963 0 0 0 31.59831
-3.6034546 8.4689503 -0.22232172 716.5 0 0 0 18.334579
-3.2369311 8.4519539 -0.22015654 711.75 0 0 0 18.913441
-2.7685869 8.4424 -0.21834946 842.75 0 0 0 19.6991
-2.3073049 8.4019337 -0.21628579 971.25 0 0 0 20.475485
-1.7515024 8.3447943 -0.21446621 1076.8334 0 0 0 21.449198
-1.2193633 8.317112 -0.2143805 1253.75 0 0 0 22.421436
-0.79915202 8.2477732 -0.21350729 1171.25 0 0 0 23.204775
-0.28827342 8.1845655 -0.21403491 809.83331 0 0 0 24.181284
0.21663786 8.2043171 -0.21771696 2467 0 0 0 25.160231
0.72166115 8.184906 -0.22119538 3070.3333 0 0 0 26.135374
1.2171924 8.0794039 -0.223104 1305 0 0 0 27.114418
1.7260309 8.0471258 -0.22831459 1759.3334 0 0 0 28.086374
2.1365871 8.0105686 -0.23280951 1342 0 0 0 28.86869
-4.1382437 8.5451088 -0.22730274 519 0 0 0 17.547409
-3.8845336 8.5465765 -0.22583359 495 0 0 0 17.944811
1.9615053 -26.791716 0.2097978 41 0 0 0 73.394577
-55.370907 -8.220645 0.43214014 19 0 0 0 97.227058
-7.2534938 -7.2436934 0.11079771 160 0 0 0 87.090675
-4.3978839 -7.3135638 0.097401254 126 0 0 0 83.165535
-55.432472 -6.8439813 0.43023089 17 0 0 0 97.620049
-7.708776 -6.6423178 0.11024888 130 0 0 0 88.24527
-7.5602503 -6.1958194 0.35070074 203 0 0 0 88.637642
-6.9704547 -6.0031948 0.33210114 239 0 0 0 88.24527
-5.8427734 -6.434309 0.099252291 177 0 0 0 86.296707
-4.0503907 -6.3718534 0.46240234 763 0 0 0 83.561081
-2.6786537 -6.4237518 0.25662541 366.5 0 0 0 80.819824
-1.4518164 -6.3740282 0.080283612 178 0 0 0 78.089928
-0.77561003 -6.1070728 0.076557696 132 0 0 0 76.528519
-0.025518047 -6.1030893 0.22682117 263 0 0 0 74.565285
0.12776011 -6.2493944 0.3838442 70 0 0 0 74.179451
2.8574674 -6.1121321 0.15614556 271.5 0 0 0 67.535538
-17.048071 -5.6335039 0.1649829 139 0 0 0 94.509399
-13.616015 -5.640286 0.14240319 70 0 0 0 93.333641
-7.60992 -5.9329209 0.10631836 169 0 0 0 89.035934
-7.4360271 -5.5076962 0.33379894 482 0 0 0 89.423431
-6.7947283 -5.569418 0.099981479 193 0 0 0 88.637642
-5.6446285 -5.6315041 0.35591993 513 0 0 0 87.085297
-4.8483963 -5.8910165 0.28117263 256 0 0 0 85.514793
-4.1221123 -5.5392075 0.17225833 354.5 0 0 0 84.722145
-3.1130815 -5.6258307 0.24169269 476 0 0 0 82.585144
-2.6317804 -5.8962574 0.32137942 326.5 0 0 0 81.209534
-2.267401 -5.6188602 0.30147463 265.5 0 0 0 80.627571
-1.7549591 -5.8479261 0.19029789 142.5 0 0 0 79.162666
-1.3448181 -5.8988743 0.22682862 193 0 0 0 78.088364
-0.57155842 -5.5683217 0.072487377 108 0 0 0 76.137321
-0.28630015 -5.6560521 0.26492321 135 0 0 0 75.302704
0.11937612 -5.9233499 0.22090155 109 0 0 0 74.179451
0.67658186 -5.7086329 0.14089189 58 0 0 0 72.61412
1.1611334 -5.6226015 0.21108848 153.5 0 0 0 71.25119
1.5021266 -5.5374975 0.35228494 56 0 0 0 70.26635
2.2616184 -5.8025231 0.27502513 180 0 0 0 68.577568
2.8521001 -5.5615578 0.14708099 105 0 0 0 66.94664
3.9176373 -5.7639904 0.15885048 487 0 0 0 64.99144
4.1982822 -5.7140989 0.16079229 266 0 0 0 64.403824
5.6056123 -5.6442857 0.072467327 360 0 0 0 62.064701
7.4404101 -5.5486779 0.075157113 113 0 0 0 59.712353
38.386127 -5.6975493 0.15351486 18 0 0 0 51.912407
-55.454918 -5.4687419 0.42827058 39 0 0 0 98.015953
-14.960048 -5.3538423 0.15032795 949 0 0 0 94.121399
-14.158504 -5.4622302 0.14538141 108 0 0 0 93.726326
-12.068488 -5.3469124 0.46044376 228 0 0 0 92.937965
-11.801001 -5.4031539 0.12989169 276.5 0 0 0 92.739342
-11.066699 -5.2311301 0.4296585 200 0 0 0 92.540718
-7.1453209 -5.4283409 0.21182701 455.5 0 0 0 89.229683
-5.7901936 -5.3680115 0.19195125 419.5 0 0 0 87.666199
-5.1691651 -5.3255544 0.33429196 685 0 0 0 86.826447
-4.6851082 -5.3080139 0.29861966 549.79999 0 0 0 86.060211
-4.1569624 -5.2024884 0.24772052 462.60001 0 0 0 85.277237
-3.6579573 -5.2174654 0.29185575 354 0 0 0 84.270187
-3.2420838 -5.1478586 0.19802554 447 0 0 0 83.480087
-2.755863 -5.1643152 0.2210677 505.14285 0 0 0 82.336388
-2.2826273 -5.2081881 0.21512616 370.85715 0 0 0 81.102455
-1.747548 -5.2742205 0.29865289 296.27274 0 0 0 79.613449
-1.1647273 -5.1822658 0.29507342 132.42857 0 0 0 78.033371
-0.78685474 -5.3050938 0.27593091 129.45454 0 0 0 76.849533
-0.19294615 -5.1641688 0.1129952 96 0 0 0 75.095467
0.33070543 -5.2223554 0.19823785 94.888885 0 0 0 73.484962
0.73489404 -5.1256857 0.19277953 114.66666 0 0 0 72.225807
1.2443054 -5.2186627 0.10131051 91.75 0 0 0 70.762985
1.7818702 -5.1290665 0.24458861 132.5 0 0 0 69.159668
2.2360487 -5.2013645 0.27823266 142.5 0 0 0 68.025879
2.6530037 -5.0272541 0.2067686 111 0 0 0 66.750671
3.2896581 -5.2508006 0.22730501 198.5 0 0 0 65.580559
4.3569365 -5.0950546 0.19348289 311 0 0 0 63.237053
5.2483797 -5.4185238 0.25935346 362.5 0 0 0 62.257622
5.7241888 -5.2248545 0.16363166 353.5 0 0 0 61.284527
16.463503 -5.4529834 0.09530101 77 0 0 0 54.64719
19.091742 -5.2949953 0.10127804 46 0 0 0 53.86063
-1.528525 -4.9750261 0.45677835 189 0 0 0 79.264091
-1.1980932 -4.9523487 0.32115597 230 0 0 0 78.283203
-0.62915272 -4.9145479 0.35341546 101 0 0 0 76.529083
-0.2076323 -4.9614573 0.37422839 144 0 0 0 75.152267
0.27843118 -4.96455 0.43552232 127 0 0 0 73.594635
0.77501446 -4.9021044 0.28029987 138.75 0 0 0 71.981163
1.2740848 -4.8833013 0.31485507 199.125 0 0 0 70.417694
1.637718 -4.8206902 0.26261112 177.57143 0 0 0 69.265358
2.2596993 -4.846055 0.34838018 217.14285 0 0 0 67.537392
2.8084178 -4.8772607 0.27210915 190.375 0 0 0 66.17189
3.2678964 -4.7826385 0.33260056 266.125 0 0 0 64.944824
3.7185986 -4.8121362 0.26712248 263.83334 0 0 0 64.015831
4.3546505 -4.9256215 0.2274853 356.33334 0 0 0 62.975906
4.7363343 -4.8322315 0.27707693 385.75 0 0 0 62.159363
5.3011289 -4.7996535 0.27520561 624.5 0 0 0 61.217468
5.8568087 -4.7805228 0.21079898 838.25 0 0 0 60.401184
6.1628504 -4.7221699 0.35784447 732.25 0 0 0 59.910767
6.7687221 -4.6722379 0.17217834 401.75 0 0 0 59.133934
7.2522678 -4.746253 0.39338648 514 0 0 0 58.742554
7.7335782 -4.7949886 0.18378419 366.5 0 0 0 58.348824
8.2149782 -4.624382 0.16625066 349.20001 0 0 0 57.686646
9.1104517 -4.6097541 0.329707 337 0 0 0 56.986073
9.6553631 -4.6866241 0.16578034 200.66667 0 0 0 56.721355
10.314334 -4.5935998 0.3593854 188 0 0 0 56.199421
10.682024 -4.5975418 0.22470272 108.5 0 0 0 56.006874
11.714122 -4.7012844 0.080552876 122.5 0 0 0 55.616982
13.310201 -4.7784095 0.084740512 102 0 0 0 55.04026
14.719317 -4.6779165 0.47422913 170.5 0 0 0 54.448257
-55.490215 -4.0999761 0.42665806 30 0 0 0 98.403137
11.507398 -4.4581547 0.38785458 181 0 0 0 55.419632
12.424144 -4.4635205 0.4116202 135 0 0 0 55.04026
14.259637 -4.3392534 0.08527188 57 0 0 0 54.249329
15.493746 -4.3023839 0.49053574 166 0 0 0 53.86063
16.96582 -4.260705 0.09186554 65 0 0 0 53.475639
18.534201 -4.1716495 0.09558627 175 0 0 0 53.081261
21.374775 -4.2598348 0.10333096 47 0 0 0 52.686249
22.253702 -3.8683305 0.10428962 39 0 0 0 52.301071
66.681885 -3.272475 0.22290656 20 0 0 0 50.353481
-55.529743 -2.7346249 0.42531735 26 0 0 0 98.786194
-59.346439 -1.4637446 0.45056546 36 0 0 0 99.176178
-59.417038 -0.0066834372 0.44979176 22 0 0 0 99.568382
31.969255 0.0017153805 0.11902719 84 0 0 0 49.568512
32.101048 0.79087532 0.1173695 37 0 0 0 49.17622
32.183361 1.5850519 0.11568326 38 0 0 0 48.78809
32.208096 2.3809679 0.11396454 48 0 0 0 48.40575
4.3000922 2.981683 0.21128185 367.28571 0 0 0 40.035503
4.713676 2.9421041 0.22866207 357 0 0 0 40.788284
5.064764 2.9041924 0.26251346 500 0 0 0 41.372112
28.315022 2.7949026 0.10243012 14 0 0 0 48.003929
3.196517 3.1261179 0.28739837 175.39999 0 0 0 37.418365
3.801254 3.01459 0.22401047 266.33334 0 0 0 39.033012
5.1511154 3.213208 0.34654805 395.5 0 0 0 40.788284
22.388758 3.3295102 0.085718729 58 0 0 0 47.23354
25.014889 3.0925019 0.092892505 36 0 0 0 47.616379
3.1328812 3.8397028 0.27023914 303.66666 0 0 0 35.640881
3.7610903 3.8306699 0.044480555 177 0 0 0 37.074993
19.475727 3.885412 0.077641875 173 0 0 0 46.446632
20.184431 3.5122283 0.079804294 73 0 0 0 46.840401
-5.717133 4.3770308 0.10943735 303 0 0 0 10.14018
-5.1444678 4.1335387 0.10210047 322 0 0 0 10.52598
-4.8079214 4.1563239 0.098641552 194.5 0 0 0 11.11537
-4.4148259 4.3106914 0.095367253 87 0 0 0 12.08511
3.190625 4.2894378 0.22475219 289.66666 0 0 0 34.916824
3.8129671 4.0785403 0.045458704 897 0 0 0 36.67947
19.816975 4.4631357 0.078089669 123 0 0 0 46.060329
-5.5145736 4.9043269 0.2919246 412 0 0 0 11.30589
-5.1134601 4.7703528 0.27744028 134 0 0 0 11.69188
-4.7303624 4.7416177 0.2660715 240 0 0 0 12.281725
-4.305407 4.8258195 0.19368009 60.400002 0 0 0 13.181801
3.243108 4.7577066 0.30873448 383 0 0 0 34.2603
3.8519278 4.5467663 0.12225262 681.5 0 0 0 35.900761
4.0185761 4.5105906 0.1231171 457 0 0 0 36.291519
-5.2419643 5.2648883 0.47230053 274.5 0 0 0 12.281725
-4.6972513 5.1981421 0.44571799 23.5 0 0 0 13.06493
-4.2634077 5.2826662 0.20015773 75.199997 0 0 0 13.962738
3.303093 5.2203927 0.20512262 310.79999 0 0 0 33.711617
3.9050274 5.0925641 0.36869723 448 0 0 0 35.111759
20.023993 5.0305057 0.078294262 116 0 0 0 45.670406
-9.0003643 5.631855 0.41393441 1041 0 0 0 8.57827
-8.7983913 5.8047128 0.14980255 48 0 0 0 8.9753199
-4.2068648 5.8347607 0.24459767 61 0 0 0 14.824977
3.3434305 5.7005692 0.21811713 344.5 0 0 0 33.15826
4.2205486 5.7844052 0.40834677 883 0 0 0 34.721889
20.240961 5.6178994 0.078615971 102 0 0 0 45.283321
-10.260921 6.4267516 0.16883507 81 0 0 0 8.57827
-8.8040657 6.2855005 0.15195119 536.5 0 0 0 9.5555744
-4.1629577 6.249063 0.28988007 37.75 0 0 0 15.4093
3.3749561 6.0875163 0.22901575 419.66666 0 0 0 32.77079
4.0422158 6.1564083 0.23953001 416 0 0 0 33.949631
20.455339 6.2232914 0.079015553 107 0 0 0 44.891239
-4.1028643 6.6846552 0.25105742 186.5 0 0 0 15.988746
-3.7104824 6.7631555 0.29468104 1092 0 0 0 16.76577
-3.4000711 6.7732635 0.28770891 1368.6666 0 0 0 17.351274
3.4194822 6.5372362 0.15038687 361.5 0 0 0 32.387379
13.035057 6.9995956 0.24875507 151 0 0 0 41.76598
20.732721 6.8692122 0.079659641 93 0 0 0 44.497768
-10.084687 7.028563 0.47390136 120 0 0 0 9.3593102
-9.7484856 7.335568 0.46936345 106.5 0 0 0 9.9460096
-8.8832836 7.2054362 0.44037014 47 0 0 0 10.52598
-4.1161847 7.0967484 0.31253895 26 0 0 0 16.383381
-3.9621031 7.2287483 0.10869353 36 0 0 0 16.76577
3.4540441 7.0099006 0.25533041 331.33334 0 0 0 31.98731
3.7033927 7.0637832 0.45602262 604 0 0 0 32.387379
4.1515927 7.0469937 0.26431522 300 0 0 0 33.15826
19.353636 7.489275 0.076707698 41 0 0 0 43.71236
20.472664 7.3471231 0.079155974 52 0 0 0 44.109154
1.8178331 7.9858742 0.27747732 619.5 0 0 0 28.283665
2.2308607 7.9646807 0.17404178 1033.5 0 0 0 29.064705
2.7539866 7.9113693 0.17316876 727.16669 0 0 0 30.039339
3.2985005 7.8721113 0.17290503 818.75 0 0 0 31.019279
3.6311102 7.8372946 0.17309503 742.5 0 0 0 31.59831
15.479195 7.8234491 0.06902948 94 0 0 0 42.15686
16.261805 7.7209964 0.070420966 85 0 0 0 42.543232
17.182795 7.6442742 0.072218873 65 0 0 0 42.944019
18.231335 7.5773435 0.074344747 55 0 0 0 43.327122
-3.7304397 8.47929 0.22963154 671.5 0 0 0 18.139694
-3.2298522 8.4354725 0.22199693 659.5 0 0 0 18.913441
-2.7520113 8.393321 0.21514861 615.25 0 0 0 19.6991
-2.2926013 8.350028 0.20901889 637.25 0 0 0 20.475485
-1.7419343 8.3003321 0.20223729 605.33331 0 0 0 21.449198
-1.2099895 8.2556477 0.19631648 622.75 0 0 0 22.421436
-0.79570633 8.222146 0.19214369 668.75 0 0 0 23.204775
-0.28709438 8.1766472 0.18756397 753.33331 0 0 0 24.181284
0.21512096 8.1725101 0.082527667 1933.5 0 0 0 25.160231
0.71748167 8.1297836 0.18083851 2225.1667 0 0 0 26.13537
1.1830236 8.0749016 0.14422823 1657.3334 0 0 0 27.050619
1.7204722 8.0238085 0.073553175 1598 0 0 0 28.086372
2.7923405 8.0142784 0.48929271 91 0 0 0 30.04001
3.1286697 8.0081825 0.49371642 95 0 0 0 30.625671
-22.939003 -7.5761614 0.81231922 18 0 0 0 94.509399
-14.942407 -6.6208444 0.96136749 55 0 0 0 92.937965
-1.6706812 -6.5937548 0.75121468 125 0 0 0 78.476471
-14.54375 -6.0218716 0.92702699 67 0 0 0 93.333641
-8.5131922 -6.3091068 0.89928019 349 0 0 0 89.423431
-8.2713823 -6.4496651 0.89052594 457 0 0 0 89.035934
-7.0788612 -6.0990944 0.79698771 587 0 0 0 88.24527
-6.6572514 -6.0256867 0.76717973 701 0 0 0 87.861526
-5.7059994 -6.2840171 0.93255907 13 0 0 0 86.296707
-5.1977434 -6.318121 0.90020013 457 0 0 0 85.510712
-4.6996617 -6.213131 0.8587501 611.66669 0 0 0 84.857269
-3.6232622 -6.1969004 0.96904325 207 0 0 0 82.971512
-2.9383771 -6.1787624 0.5912618 284 0 0 0 81.605728
-0.17246047 -6.0547466 0.524037 86 0 0 0 74.95874
1.184759 -6.0938468 0.53370601 150 0 0 0 71.442207
-15.688506 -5.6116128 0.97883052 115 0 0 0 94.121399
-14.501247 -5.5916443 0.53555673 232 0 0 0 93.726326
-14.402612 -5.5536466 0.90956175 89 0 0 0 93.726326
-13.535491 -5.6042056 0.5070042 208 0 0 0 93.333641
-7.6749029 -5.684957 0.57664877 541 0 0 0 89.423431
-7.2229681 -5.7769747 0.67697954 587.5 0 0 0 88.836792
-6.7347126 -5.5183878 0.52871865 684 0 0 0 88.637642
-6.2805195 -5.6837425 0.5865922 653.66669 0 0 0 87.85923
-5.7091818 -5.8380418 0.70067036 730 0 0 0 86.892502
-5.0437994 -5.5528188 0.64630359 966 0 0 0 86.296707
-4.2249031 -5.980382 0.63134301 547 0 0 0 84.334877
-3.630527 -5.5581689 0.65631264 343.5 0 0 0 83.754135
-3.2966812 -5.7263451 0.76418054 586 0 0 0 82.857941
-2.7636094 -5.6332712 0.85067093 693.5 0 0 0 81.805229
-2.321584 -5.5635219 0.67045814 364 0 0 0 80.819824
-1.8636637 -5.5927415 0.89776665 399.66666 0 0 0 79.648521
-1.1608758 -5.7291894 0.86638069 264 0 0 0 77.701096
-0.37138686 -5.7004747 0.91567647 477.5 0 0 0 75.545715
0.34033722 -5.9398279 0.51436639 103 0 0 0 73.591721
1.000221 -5.9205313 0.51757544 125 0 0 0 71.839188
2.962851 -5.6032071 0.69438994 217 0 0 0 66.750671
4.526341 -5.5589042 0.60406506 237 0 0 0 63.623379
6.808733 -5.7602811 0.95644182 597.5 0 0 0 60.695419
7.4092064 -5.523459 0.9883489 265 0 0 0 59.712353
16.65605 -5.5184608 0.96516854 145 0 0 0 54.64719
-15.070317 -5.3903956 0.55027169 238 0 0 0 94.121399
-4.6799269 -5.4119592 0.61791658 902 0 0 0 85.90255
-4.1898961 -5.3507142 0.58858842 539.33331 0 0 0 85.118599
-3.5055649 -5.2256656 0.54711181 697 0 0 0 83.947182
-3.1243808 -5.1880107 0.52760655 813 0 0 0 83.165535
-2.7472324 -5.2973146 0.57876366 430.39999 0 0 0 82.157097
-2.2305658 -5.2778316 0.68498772 586.5 0 0 0 80.886505
-1.7412966 -5.2104449 0.63338655 299 0 0 0 79.648521
-1.2849573 -5.2271972 0.73366028 314 0 0 0 78.349258
-0.68253857 -5.1775913 0.77623773 377.33334 0 0 0 76.594223
-0.20842522 -5.2238331 0.69841212 308.66666 0 0 0 75.134979
0.28414598 -5.2005463 0.72878754 261.14285 0 0 0 73.620186
0.68798757 -5.2018719 0.77233988 249.33333 0 0 0 72.399849
1.1850709 -5.2664642 0.81330454 450.20001 0 0 0 70.975243
1.7500963 -5.1225519 0.81311715 376 0 0 0 69.252792
2.277066 -5.0921078 0.70692533 335.66666 0 0 0 67.799103
2.7561738 -5.2110543 0.76964855 238 0 0 0 66.753075
3.6975656 -5.2964087 0.78577495 351.5 0 0 0 64.799675
4.3367963 -5.3253226 0.91624933 580 0 0 0 63.623379
4.6369243 -5.1570301 0.92442113 273 0 0 0 62.844906
5.4556818 -5.2298212 0.81676722 668 0 0 0 61.671661
6.474997 -5.3456469 0.69781792 672 0 0 0 60.49852
6.6084328 -5.1878467 0.69768482 751 0 0 0 60.10918
7.0004811 -5.4929862 0.95348072 681 0 0 0 60.10918
7.6135135 -5.3908358 0.76346326 256.5 0 0 0 59.325008
10.650599 -5.3813195 0.97018731 332 0 0 0 56.986073
14.078927 -5.0548882 0.82892698 98 0 0 0 55.04026
-1.0094316 -4.974915 0.69279724 166 0 0 0 77.700256
-0.70118117 -4.907486 0.60442609 167.8 0 0 0 76.764175
-0.024573006 -4.889184 0.54739124 216 0 0 0 74.565285
0.24630204 -4.9085603 0.61037856 155.75 0 0 0 73.69175
