# .PCD v0.7 - Point Cloud Data file format
VERSION 0.7
FIELDS x y z intensity normal_x normal_y normal_z curvature
SIZE 4 4 4 4 4 4 4 4
TYPE F F F F F F F F
COUNT 1 1 1 1 1 1 1 1
WIDTH 920
HEIGHT 1
VIEWPOINT 0 0 0 1 0 0 0
POINTS 920
DATA ascii
6.0975809 -5.1645985 -0.40135765 442.5 0 0 0 60.684124
7.1008663 -5.0273871 -0.33619964 217 0 0 0 59.317059
8.5084009 -5.4106584 -0.39670455 246 0 0 0 58.541519
9.3819761 -5.0326939 -0.42265809 229 0 0 0 57.369701
10.239578 -5.1702476 -0.4588668 522 0 0 0 56.98016
10.571709 -5.0145183 -0.46938723 534 0 0 0 56.58614
15.229231 -5.2408829 -0.26876616 236.5 0 0 0 54.835075
16.498446 -5.0040441 -0.29148912 156 0 0 0 54.242218
-3.7192304 -4.9857302 -0.068569779 399.5 0 0 0 84.720657
-2.7138958 -4.8904581 -0.19378725 297 0 0 0 82.582169
-2.3803201 -4.9845061 -0.19083841 269 0 0 0 81.597389
-1.7918549 -4.9417629 -0.11591683 142 0 0 0 80.034897
-0.63830078 -4.9435883 -0.10743111 162.5 0 0 0 76.524277
-0.23080617 -4.900394 -0.20537287 173 0 0 0 75.221596
0.4099282 -4.8892236 -0.1256495 125.66666 0 0 0 73.138641
0.77658349 -4.8891783 -0.08672417 121.33334 0 0 0 71.963989
1.3760813 -4.9311452 -0.13340192 143 0 0 0 70.142776
1.793238 -4.7339287 -0.081349462 159.75 0 0 0 68.707413
2.7438908 -4.9073 -0.060837008 80 0 0 0 66.361351
3.1363022 -4.9441595 -0.20919518 313.25 0 0 0 65.478119
3.6927314 -4.9014387 -0.22005489 315.5 0 0 0 64.206985
4.259201 -4.8181171 -0.12984221 531.66669 0 0 0 62.967976
4.8371468 -4.7589245 -0.16973196 416 0 0 0 61.864719
5.9094048 -4.7586336 -0.10114582 395.5 0 0 0 60.297703
6.026659 -4.9775071 -0.29693866 541 0 0 0 60.489159
6.7738638 -4.7935553 -0.21610883 243.5 0 0 0 59.320915
7.0115957 -4.9623799 -0.12067436 288 0 0 0 59.317059
8.2569437 -4.6973948 -0.37258336 318 0 0 0 57.760422
8.5478678 -4.8597522 -0.14569859 309 0 0 0 57.760422
9.5790768 -4.5431132 -0.16160864 231 0 0 0 56.58614
10.751493 -4.7774687 -0.33077997 238 0 0 0 56.194618
11.42033 -4.7402787 -0.34690565 236 0 0 0 55.80534
16.79427 -4.6452484 -0.29572064 28 0 0 0 53.858566
17.913645 -4.4825277 -0.31642753 82 0 0 0 53.468727
19.292152 -4.3251214 -0.34228602 122 0 0 0 53.074478
20.494518 -4.0671606 -0.364703 32 0 0 0 52.68829
23.24593 -4.0205584 -0.41762331 33 0 0 0 52.293312
23.241323 -3.4329462 -0.41656196 19 0 0 0 51.902119
23.341253 -2.2809837 -0.4173232 15 0 0 0 51.119301
22.707972 -0.53481621 -0.40499139 33 0 0 0 49.94714
22.375961 0.024181107 -0.39898047 29 0 0 0 49.55619
22.49221 0.57827157 -0.40195718 24 0 0 0 49.173153
22.362026 1.1264908 -0.40034583 32 0 0 0 48.781059
22.3841 1.6810361 -0.40195343 25 0 0 0 48.387833
22.765543 2.2744102 -0.41086709 28 0 0 0 48.001793
19.92812 2.9898448 -0.35775718 24 0 0 0 47.224247
22.360195 2.7917168 -0.40438399 53 0 0 0 47.613167
15.223979 3.4545472 -0.26877582 77 0 0 0 46.052311
16.446688 3.3063209 -0.29162887 38 0 0 0 46.436832
18.094183 3.1738851 -0.32289642 37 0 0 0 46.827499
-9.305481 3.7999363 -0.29008543 123 0 0 0 5.8510222
9.5067091 3.9835205 -0.29075792 265.5 0 0 0 43.319592
10.081978 3.9328203 -0.30724677 191.5 0 0 0 43.705887
10.720464 3.8777759 -0.3258211 165.5 0 0 0 44.10556
11.386209 3.8016734 -0.34525117 174.5 0 0 0 44.487328
12.146813 3.7243409 -0.21158797 185 0 0 0 44.876431
13.056622 3.6515081 -0.22839531 111 0 0 0 45.26963
14.113232 3.5722103 -0.24808896 64 0 0 0 45.666019
-13.779755 4.314127 -0.17543724 150 0 0 0 4.4898
-9.1802235 4.0124702 -0.10900697 24 0 0 0 6.2368202
-8.9476814 4.3065672 -0.22784846 121.75 0 0 0 6.8274798
-1.4173579 4.1573539 -0.35155904 63.5 0 0 0 19.702496
7.7889009 4.3442488 -0.24596038 750.5 0 0 0 41.566868
8.0918064 4.1252956 -0.25128418 472 0 0 0 42.150379
8.6883383 4.0693359 -0.30814785 354.66666 0 0 0 42.675262
9.0079985 4.0416059 -0.15544912 473 0 0 0 42.937881
-31.721075 4.6470046 -0.44216475 16 0 0 0 1.94942
-18.502195 4.5852952 -0.24523811 143 0 0 0 3.5176499
-18.12739 4.9647069 -0.24135463 177 0 0 0 3.9026
-13.487854 4.7720685 -0.17371786 735 0 0 0 5.0710802
-8.8607559 4.8097739 -0.23243918 269.5 0 0 0 7.6048498
-1.3631095 4.792532 -0.22393766 128 0 0 0 20.48526
7.8294306 4.7535849 -0.25324661 836 0 0 0 40.982552
-29.456844 5.0535579 -0.40923253 32 0 0 0 2.34377
-27.740379 5.4599566 -0.38481188 66 0 0 0 2.73961
-13.465342 5.1369014 -0.17554939 791 0 0 0 5.4636102
-8.788394 5.3411222 -0.23881568 225.25 0 0 0 8.38834
7.8834605 5.195879 -0.26192147 772.25 0 0 0 40.394623
-26.365164 5.8616686 -0.36577207 55 0 0 0 3.1201501
-8.7263021 5.7497253 -0.24421275 177.5 0 0 0 8.9784098
7.9415302 5.8145156 -0.27414924 681.5 0 0 0 39.609425
-8.6923237 6.0374823 -0.37628356 71 0 0 0 9.3648996
7.9783664 6.3050771 -0.28414634 585.5 0 0 0 39.02552
-0.10157356 6.9758706 -0.081510894 25 0 0 0 24.579741
7.9832525 6.9735332 -0.29705939 482 0 0 0 38.240559
8.0269718 6.6704226 -0.29240206 519 0 0 0 38.642681
3.3240712 7.470964 -0.21255857 1157.25 0 0 0 31.406824
3.7354224 7.3874869 -0.21675545 690.25 0 0 0 32.182724
4.1793613 7.337924 -0.22295433 669.25 0 0 0 32.964745
4.6767664 7.3381147 -0.23198733 716.25 0 0 0 33.740574
5.1649928 7.2801681 -0.24005641 659 0 0 0 34.52887
5.6858745 7.2252073 -0.24949668 471 0 0 0 35.306877
6.2530198 7.1817617 -0.26065165 391 0 0 0 36.090076
6.8412442 7.1115966 -0.27242461 474 0 0 0 36.877308
7.3117914 7.0565634 -0.28239352 499 0 0 0 37.465599
7.6462193 7.0211697 -0.28959286 554 0 0 0 37.855659
1.7501605 7.6099896 -0.31968406 1727.1428 0 0 0 28.366392
2.2194567 7.5588017 -0.27277425 1266.125 0 0 0 29.304462
2.678407 7.5267344 -0.26354006 1276 0 0 0 30.192989
3.0088711 7.5018911 -0.20881198 1281.5 0 0 0 30.81477
-4.7500963 8.1892929 -0.22690907 698.5 0 0 0 16.376499
-4.3572578 8.1841736 -0.22209822 618.25 0 0 0 16.967064
-7.0560222 -35.417492 0.30298135 35 0 0 0 77.700157
13.552777 -32.760994 0.28619543 176 0 0 0 68.315376
4.2828379 -28.999243 0.24990126 19 0 0 0 72.225372
16.70083 -8.4111071 0.14417265 116 0 0 0 56.98016
5.6128516 -6.5474515 0.30989158 186 0 0 0 63.235409
-5.4950123 -6.0453205 0.30018544 258 0 0 0 86.290642
-3.5116537 -6.1638031 0.43919066 203 0 0 0 82.779808
-3.3710208 -6.2687206 0.44059533 286 0 0 0 82.384529
2.2846243 -6.0098042 0.40158513 90 0 0 0 68.710152
4.920383 -6.0370369 0.089132078 268 0 0 0 63.624554
5.6575422 -6.2791433 0.09265139 202 0 0 0 62.834259
-12.78007 -5.6615591 0.48493424 132 0 0 0 92.924759
-6.4593425 -5.8437715 0.1003595 286 0 0 0 87.854797
-2.2295942 -5.7147274 0.15758118 375.5 0 0 0 80.427246
-1.9201767 -5.7412877 0.30656672 263.5 0 0 0 79.647636
-1.3923743 -5.7584558 0.15403816 84.25 0 0 0 78.278419
-0.64242691 -5.5477419 0.14774343 94.5 0 0 0 76.329948
-0.30541325 -5.6879873 0.30501023 107 0 0 0 75.348526
0.53115427 -5.6995788 0.36222953 52 0 0 0 73.00959
2.1721931 -5.9301729 0.16275612 57.5 0 0 0 68.903236
2.7569652 -5.7150598 0.082245603 78 0 0 0 67.339264
3.4814928 -5.8654938 0.084602989 144 0 0 0 65.965034
5.8029609 -5.5581169 0.48730719 275 0 0 0 61.669807
6.4748664 -5.6151285 0.30599481 149 0 0 0 60.879089
7.5424485 -5.9104171 0.096685454 205 0 0 0 60.106247
11.715729 -5.5492554 0.11143477 231 0 0 0 56.58614
29.988512 -5.9427834 0.1965995 28 0 0 0 52.68829
34.479584 -5.9548206 0.21801402 73 0 0 0 52.293312
38.511883 -5.6794443 0.23672733 25 0 0 0 51.902119
-19.394917 -5.3694487 0.17897822 120 0 0 0 95.280289
-17.290428 -5.246562 0.16462828 164 0 0 0 94.891342
-15.638739 -5.1673608 0.15348557 255 0 0 0 94.500626
-14.896641 -5.3307261 0.1490708 192 0 0 0 94.114571
-13.750508 -5.3042474 0.14154358 109 0 0 0 93.723198
-12.832353 -5.3148994 0.13567579 236 0 0 0 93.321503
-12.242357 -5.4257441 0.13229051 317 0 0 0 92.924759
-7.131176 -5.1470375 0.20959465 177.5 0 0 0 89.62104
-6.7037163 -5.2215152 0.24159788 339.33334 0 0 0 89.031029
-6.3849931 -5.1436739 0.29749888 304.66666 0 0 0 88.769203
-5.7720046 -5.1355152 0.22146358 331.33334 0 0 0 87.983124
-5.2942228 -5.1509352 0.090864897 248.5 0 0 0 87.270325
-4.7010808 -5.084795 0.26013464 322.33334 0 0 0 86.424889
-4.3414426 -5.271863 0.0871934 226 0 0 0 85.507309
-3.825268 -5.2700977 0.16716281 436.5 0 0 0 84.526703
-3.1472363 -5.3659844 0.16003537 342.5 0 0 0 82.969452
-2.6238489 -5.1708264 0.36567914 280 0 0 0 81.988922
-2.2081308 -5.1003871 0.21533765 299.16666 0 0 0 81.012695
-1.7068349 -5.304317 0.21768074 139.5 0 0 0 79.451279
-1.218781 -5.0266161 0.33048236 101 0 0 0 78.278419
-0.73820329 -5.084012 0.11788237 78.333336 0 0 0 76.783852
-0.19778122 -5.206717 0.20425147 126.16666 0 0 0 75.089104
0.24257128 -5.1146073 0.30890647 92.5 0 0 0 73.722557
0.74351835 -5.223022 0.3025797 214.28572 0 0 0 72.226494
1.2843424 -5.2541146 0.26150495 312.25 0 0 0 70.660889
1.7279611 -5.2254519 0.18172136 173 0 0 0 69.391907
2.2666531 -5.1906242 0.21942399 127.5 0 0 0 67.926643
2.7390082 -5.2676287 0.22686446 170.25 0 0 0 66.84996
3.2565439 -5.3917274 0.28957954 149.66667 0 0 0 65.834808
3.9897394 -5.15838 0.40444836 394 0 0 0 64.013725
4.8002448 -5.2495828 0.3190279 351.66666 0 0 0 62.707813
5.1633377 -5.4607944 0.27448419 237 0 0 0 62.444019
6.0986853 -5.0337782 0.28505796 297 0 0 0 60.489159
9.675005 -5.1841006 0.1013746 231 0 0 0 57.369701
13.027189 -5.0303378 0.46475807 80 0 0 0 55.410221
15.727047 -5.1933174 0.12787162 97 0 0 0 54.644688
44.470772 -5.444521 0.26495773 16 0 0 0 51.516098
-5.6672764 -4.8767581 0.45974627 562 0 0 0 88.243042
-5.3094497 -4.8764167 0.38589802 481.33334 0 0 0 87.724297
-4.812129 -4.9151068 0.29922804 423 0 0 0 86.885376
-4.1227121 -4.9032531 0.2736451 448.20001 0 0 0 85.665939
-3.7995682 -4.9287581 0.33984551 373 0 0 0 84.983818
-3.1486855 -4.7545743 0.23966034 515.14288 0 0 0 83.82946
-2.7814138 -4.8738856 0.30465707 454 0 0 0 82.773819
-2.3068759 -4.8327031 0.30755627 356.125 0 0 0 81.598404
-1.7199923 -4.8911934 0.17616293 172.8 0 0 0 79.879921
-1.3599324 -4.8320742 0.31929496 129 0 0 0 78.863106
-0.76985437 -4.8617063 0.29448205 108 0 0 0 76.985031
-0.22606093 -4.8575053 0.31283578 118.83334 0 0 0 75.221825
0.27501217 -4.9491072 0.19592622 62 0 0 0 73.592636
0.78695637 -4.8019266 0.228047 187.28572 0 0 0 71.888557
1.2294506 -4.8191066 0.28721499 283.42856 0 0 0 70.494804
1.7479712 -4.7816854 0.36946189 207.16667 0 0 0 68.902458
2.1097317 -4.709887 0.33055109 194.39999 0 0 0 67.769585
2.6780992 -4.7927976 0.26510203 304.60001 0 0 0 66.362305
3.2270186 -4.713892 0.21664676 294.77777 0 0 0 64.925323
3.6250758 -4.6451139 0.19418247 415.20001 0 0 0 63.935356
4.1639385 -4.7096601 0.23538679 336 0 0 0 62.967976
4.8089728 -4.7050767 0.28205162 483.79999 0 0 0 61.824333
5.2269974 -4.7206397 0.18784055 310 0 0 0 61.194794
5.7479482 -4.6669197 0.33176744 328.33334 0 0 0 60.361523
6.2967134 -4.6946988 0.28262115 447.39999 0 0 0 59.708263
6.7282791 -4.5971704 0.15517385 339.33334 0 0 0 59.062908
7.2840528 -4.6324148 0.198349 241.5 0 0 0 58.541519
7.7337294 -4.6534276 0.20138656 334.5 0 0 0 58.147121
8.4553499 -4.8051157 0.09474311 146 0 0 0 57.760422
8.5896187 -4.744112 0.34084672 189.5 0 0 0 57.565063
9.1276026 -4.6080365 0.35279694 187 0 0 0 56.98016
9.6407385 -4.571568 0.36594543 136 0 0 0 56.58614
10.397655 -4.6170354 0.10211379 151 0 0 0 56.194618
10.525742 -4.6755471 0.39133823 94 0 0 0 56.194618
13.19633 -4.7232037 0.11485992 86 0 0 0 55.025459
15.201436 -4.6082373 0.12360361 57 0 0 0 54.242218
16.662123 -4.6052489 0.13034366 52 0 0 0 53.858566
48.927048 -4.7725682 0.28524747 16 0 0 0 51.119301
6.3507986 -4.4965715 0.47130334 340 0 0 0 59.317059
6.6391554 -4.4583216 0.48291776 699 0 0 0 58.935833
10.636044 -4.4130392 0.24599265 149 0 0 0 55.80534
11.357622 -4.3856416 0.10546497 65 0 0 0 55.410221
11.885974 -4.2575769 0.423556 157 0 0 0 55.025459
12.962468 -4.2847476 0.45417595 328 0 0 0 54.644688
14.347295 -4.352303 0.49420479 245 0 0 0 54.242218
17.857439 -4.4647818 0.13551356 44 0 0 0 53.468727
18.789839 -4.208849 0.13920392 60 0 0 0 53.074478
-60.210453 -2.9656768 0.45800123 37 0 0 0 98.789406
53.63131 -2.5802505 0.30462781 71 0 0 0 50.342361
-60.258633 -1.486702 0.45740917 36 0 0 0 99.170944
27.261818 -0.63804907 0.17352736 107 0 0 0 49.94714
-64.097382 -0.0075349468 0.48353612 25 0 0 0 99.562973
27.31292 0.033061292 0.17301817 122 0 0 0 49.55619
27.435495 0.70855498 0.17298457 73 0 0 0 49.173153
27.495378 1.3878101 0.17275372 49 0 0 0 48.781059
-63.973339 1.5630887 0.48282844 13 0 0 0 0
27.542418 2.070749 0.17258045 48 0 0 0 48.387833
22.302258 2.7885025 0.14715149 28 0 0 0 47.613167
25.241047 2.5248253 0.16127886 15 0 0 0 48.001793
15.191074 3.4498401 0.11370938 110 0 0 0 46.052311
16.512875 3.32249 0.11979931 80 0 0 0 46.436832
18.143248 3.1856744 0.12741792 51 0 0 0 46.827499
19.987616 3.0022843 0.13612086 45 0 0 0 47.224247
-1.4694998 3.8233757 0.37244269 67 0 0 0 19.112009
13.352278 3.7360129 0.10551426 19 0 0 0 45.26963
14.822237 3.7516937 0.30384514 227 0 0 0 45.666019
-1.4433769 4.0620565 0.38998777 93 0 0 0 19.509581
13.805301 4.2315688 0.10821302 77 0 0 0 44.876431
-9.5156898 4.7237306 0.13782702 109 0 0 0 7.0184898
-9.0603542 4.7740312 0.13410173 100 0 0 0 7.4054298
-8.8496094 4.9411111 0.13289426 515 0 0 0 7.8042698
-1.3895257 4.65413 0.43454039 31 0 0 0 20.288731
12.658868 4.5766644 0.10365247 100 0 0 0 44.10556
13.620046 4.5454078 0.1078468 85 0 0 0 44.487328
-9.0433493 5.3470335 0.39539817 126 0 0 0 8.19244
0.69117296 5.3131757 0.33966547 97 0 0 0 26.924101
12.657436 5.2953134 0.10502804 58 0 0 0 43.319592
13.491734 5.2551785 0.10852152 78 0 0 0 43.705887
-13.594632 5.5679274 0.17578915 21 0 0 0 5.85183
-8.9547491 5.6951962 0.31172666 16 0 0 0 8.7156296
12.421471 5.7459269 0.10505374 83 0 0 0 42.740917
-18.824064 6.1561093 0.22358774 63 0 0 0 4.6855102
-13.705265 6.4116764 0.17927276 18 0 0 0 6.6364698
-10.235665 6.0567002 0.14859596 41 0 0 0 8.19244
0.21844496 6.4642711 0.40288869 181 0 0 0 25.359921
11.994612 6.4743757 0.10520076 104 0 0 0 41.762569
12.285013 6.2442222 0.10572872 113 0 0 0 42.150379
-14.835879 6.5073161 0.18935984 40 0 0 0 6.2368202
7.9947948 6.9849362 0.22608368 411.5 0 0 0 38.240559
8.3657608 6.9504914 0.22998311 360 0 0 0 38.642681
11.230546 6.7998137 0.1032422 85 0 0 0 40.982552
11.553487 6.6106334 0.10388511 107 0 0 0 41.371166
2.7836888 7.4683051 0.28689948 554.66669 0 0 0 30.426065
3.2458489 7.4451509 0.16880077 780 0 0 0 31.288416
3.7321064 7.3822846 0.19064091 696.75 0 0 0 32.182724
4.1797042 7.3396902 0.19299251 673 0 0 0 32.964745
4.6584582 7.3110614 0.1959317 552.5 0 0 0 33.740574
5.1590319 7.2730045 0.19939418 464.25 0 0 0 34.52887
5.6728621 7.2104321 0.20341609 511.75 0 0 0 35.306877
6.2381811 7.1661596 0.20831339 415.75 0 0 0 36.090076
6.8301854 7.1012664 0.21389237 472.5 0 0 0 36.877308
7.2991886 7.045887 0.21861212 564.5 0 0 0 37.465599
7.6378312 7.0149374 0.22201583 472 0 0 0 37.855659
10.342443 7.3618069 0.10196445 106 0 0 0 39.808208
10.713905 7.2335129 0.10279592 88 0 0 0 40.198929
11.006721 7.0415154 0.10319414 111 0 0 0 40.590313
1.7977685 7.5743027 0.18598485 1201 0 0 0 28.476294
2.287452 7.5336084 0.18649291 951.25 0 0 0 29.452299
2.6925974 7.5124063 0.087998271 1324.5 0 0 0 30.231714
9.922493 7.8270421 0.26066926 253 0 0 0 39.02552
10.259936 7.6892467 0.26522079 230 0 0 0 39.410641
10.897236 7.7501297 0.4401122 275 0 0 0 39.808208
11.410062 7.6964478 0.45147961 290 0 0 0 40.198929
11.940175 7.6307168 0.4633328 332 0 0 0 40.590313
12.527761 7.5759101 0.47707134 290 0 0 0 40.982552
13.167456 7.5238729 0.49245551 219 0 0 0 41.371166
-4.7398114 8.1702003 0.23436019 508 0 0 0 16.376499
-4.331162 8.1330252 0.2287719 498.5 0 0 0 16.967064
-34.028713 9.3338728 0.36702746 8 0 0 0 3.9026
-31.992052 9.6218405 0.34937707 13 0 0 0 4.2940898
5.4638352 -6.6970229 0.73845744 283 0 0 0 63.624554
-19.388288 -6.4030795 0.69083804 15 0 0 0 94.500626
-14.966005 -6.1961331 0.95207989 101 0 0 0 93.321503
-1.701741 -6.0661817 0.55091304 361 0 0 0 78.861298
-1.3153509 -6.0973892 0.5459336 204 0 0 0 77.89312
2.2936535 -6.0253544 0.87849212 327 0 0 0 68.710152
3.9362416 -6.2681975 0.63931048 238 0 0 0 65.574348
-19.204407 -5.8238769 0.67937076 35 0 0 0 94.891342
-14.558792 -5.6132984 0.5367617 199 0 0 0 93.723198
-13.494621 -5.5866165 0.50490463 212 0 0 0 93.321503
-8.0532093 -5.6655746 0.83829302 17 0 0 0 89.819229
-7.5055642 -5.5594773 0.79710621 330 0 0 0 89.422852
-6.8816557 -5.926661 0.99641865 345 0 0 0 88.243042
-3.7934422 -5.6537285 0.92342633 447 0 0 0 83.938156
-2.7048166 -5.6787238 0.75287038 440.33334 0 0 0 81.599083
-2.1312413 -5.6696033 0.53090531 267.5 0 0 0 80.229637
-1.8714176 -5.5971417 0.51825136 113 0 0 0 79.647636
-1.1495206 -5.662118 0.78997511 126 0 0 0 77.700157
-0.88738984 -5.8123779 0.51683778 39 0 0 0 76.910873
-0.31249315 -5.8174739 0.65388149 99 0 0 0 75.347954
0.25850222 -5.7729049 0.69348568 128.66667 0 0 0 73.787041
0.9488945 -5.6340075 0.9240132 312 0 0 0 71.836243
1.2302722 -5.6098514 0.78669596 472 0 0 0 71.050995
1.6689326 -5.8519959 0.83142042 410.5 0 0 0 70.072418
2.1750758 -5.6193657 0.93567425 264 0 0 0 68.609306
2.8291752 -5.6865306 0.55485958 52 0 0 0 67.140625
3.1596959 -5.6367297 0.56350231 162 0 0 0 66.361351
3.9185548 -5.6089406 0.9287014 381 0 0 0 64.794922
-21.414953 -5.3628402 0.74326968 56 0 0 0 95.663902
-19.213007 -5.3154459 0.67486638 52 0 0 0 95.280289
-15.374002 -5.4985962 0.55981439 189 0 0 0 94.114571
-7.5137544 -5.2834721 0.55622602 468 0 0 0 89.819229
-6.719471 -5.147222 0.58637547 533.33331 0 0 0 89.162842
-6.1515818 -5.0393319 0.68402356 578 0 0 0 88.63739
-5.7211194 -5.1738548 0.78959125 629.33331 0 0 0 87.853706
-5.3050222 -5.421011 0.8382374 624.5 0 0 0 86.885368
-4.6968699 -5.2933273 0.78456855 575 0 0 0 86.096069
-4.1447577 -5.1336393 0.70300657 465.39999 0 0 0 85.351517
-3.7509558 -5.3039603 0.88256782 912 0 0 0 84.328194
-3.1690454 -5.1141019 0.82014334 681.5 0 0 0 83.356812
-2.7720644 -5.1493535 0.79844445 791 0 0 0 82.384422
-2.2830114 -5.0966477 0.76431823 494 0 0 0 81.207382
-1.6950914 -5.2838178 0.86176759 363.5 0 0 0 79.451279
-1.0383739 -5.1017075 0.84379685 312 0 0 0 77.700157
-0.69026357 -5.1655273 0.7664994 265 0 0 0 76.600769
-0.40061119 -5.0834188 0.82773995 281 0 0 0 75.736488
0.42006096 -5.2107739 0.7850666 278.5 0 0 0 73.203163
0.80514753 -5.1924343 0.72494709 243 0 0 0 72.030807
1.4856623 -5.4822383 0.50090116 628 0 0 0 70.264877
1.7243941 -5.1996746 0.65025359 372.25 0 0 0 69.390335
2.4208355 -5.1933231 0.92711127 306 0 0 0 67.532333
2.7742133 -5.2493038 0.81163359 371.375 0 0 0 66.754295
3.1089098 -5.0528798 0.71326828 390.66666 0 0 0 65.704582
3.8437984 -5.2272787 0.80261147 576 0 0 0 64.400238
4.2096443 -5.0409451 0.81243539 458 0 0 0 63.429981
4.7306232 -5.2551913 0.8722434 723 0 0 0 62.834259
5.2511559 -5.1564493 0.72353625 355 0 0 0 61.864719
6.0773344 -5.0134807 0.86638904 375 0 0 0 60.489159
6.7845855 -5.0541139 0.92670012 450 0 0 0 59.706001
7.2927542 -5.1565104 0.97568363 525 0 0 0 59.317059
9.3246994 -5.1452541 0.89402533 290.5 0 0 0 57.565063
-5.3108292 -4.9202013 0.62615573 547 0 0 0 87.659042
-4.8642721 -4.9698839 0.60302955 768 0 0 0 86.885368
-4.4943972 -4.9427543 0.58077741 461 0 0 0 86.290642
-3.6253295 -4.8643179 0.56761009 558.25 0 0 0 84.722931
-3.1877491 -4.7927933 0.58985507 712.40002 0 0 0 83.862709
-2.784013 -4.8768764 0.6304059 650.66669 0 0 0 82.774483
-2.2185736 -4.8737211 0.63636893 476 0 0 0 81.307037
-1.7409805 -4.7996025 0.63915986 339 0 0 0 80.035637
-1.28195 -4.8702097 0.68085206 212.5 0 0 0 78.591133
-0.82352823 -4.8354425 0.63653225 185.66667 0 0 0 77.173706
-0.22889572 -4.7249694 0.64626485 224.5 0 0 0 75.253654
0.23181379 -4.8480339 0.63127613 186.33333 0 0 0 73.722511
0.74752051 -4.8811378 0.63098335 241.71428 0 0 0 72.056923
1.1866808 -4.8635306 0.56766707 247 0 0 0 70.66143
1.7651017 -4.8317385 0.58237052 291.75 0 0 0 68.902649
2.2505584 -4.887773 0.66042715 301.20001 0 0 0 67.6129
2.8040562 -4.9094853 0.63525784 367 0 0 0 66.229103
3.2711995 -4.7761154 0.60301673 418.5 0 0 0 64.926392
3.7254131 -4.8170218 0.68481523 517.33331 0 0 0 64.013725
4.1722841 -4.7820096 0.64612931 606.79999 0 0 0 63.07473
4.6026964 -4.7537556 0.65591753 866 0 0 0 62.251823
5.2345104 -4.7757788 0.69961435 625.25 0 0 0 61.27372
5.6846018 -4.8121881 0.73201859 535.5 0 0 0 60.684124
6.2768593 -4.8386378 0.74286813 452 0 0 0 59.972828
6.6663599 -4.7164578 0.69660759 209 0 0 0 59.317059
7.1015759 -4.5984015 0.64982402 406.33334 0 0 0 58.672958
7.6344185 -4.5933528 0.64542174 299 0 0 0 58.147121
8.2412977 -4.6853123 0.56368804 275 0 0 0 57.760422
8.5287895 -4.5738239 0.57420206 324 0 0 0 57.369701
9.0690823 -4.5782995 0.6003148 176 0 0 0 56.98016
9.7999916 -4.7937517 0.77757156 245 0 0 0 56.78315
10.284745 -4.568572 0.65966463 439 0 0 0 56.194618
11.018169 -4.5716162 0.69629538 415 0 0 0 55.80534
11.584274 -4.4745049 0.72268081 410 0 0 0 55.410221
12.173652 -4.3599548 0.75029773 410 0 0 0 55.025459
13.603407 -4.4956441 0.82629395 215 0 0 0 54.644688
14.69181 -4.4561887 0.88189232 264 0 0 0 54.242218
15.681963 -4.3373036 0.7306329 172.5 0 0 0 53.858566
16.418924 -4.1081033 0.9667058 173 0 0 0 53.468727
16.720047 -4.1836605 0.56075418 71 0 0 0 53.468727
17.454325 -3.9130199 0.57977164 144 0 0 0 53.074478
19.826384 -3.9339821 0.64913237 82 0 0 0 52.68829
29.889944 -0.70498288 0.93402928 81 0 0 0 49.94714
29.946898 0.030627264 0.93469507 90 0 0 0 49.55619
30.02973 0.76973546 0.93672568 85 0 0 0 49.173153
30.091305 1.5128053 0.93869662 64 0 0 0 48.781059
29.059942 2.1792204 0.90863132 19 0 0 0 48.387833
22.315931 2.7862599 0.70987558 64 0 0 0 47.613167
-64.160645 3.0412583 0.63488877 24 0 0 0 0.38760999
15.182716 3.445034 0.69450641 167 0 0 0 46.052311
16.51796 3.3204041 0.74835509 129.5 0 0 0 46.436832
18.102509 3.1752565 0.58726043 73 0 0 0 46.827499
20.037849 3.006191 0.64341873 67 0 0 0 47.224247
14.822583 3.750241 0.87061465 418 0 0 0 45.666019
15.149105 4.2322507 0.70191967 131 0 0 0 45.26963
-64.3377 4.6323743 0.63776642 17 0 0 0 0.78083998
15.280251 4.677537 0.71157467 125 0 0 0 44.876431
0.68973172 5.3089514 0.7335757 156 0 0 0 26.924101
15.45496 5.1504688 0.72462356 161 0 0 0 44.487328
15.692625 5.6624146 0.74155402 95.5 0 0 0 44.10556
-64.325768 6.2195849 0.6391567 22 0 0 0 1.17265
15.857927 6.1672878 0.7551266 157 0 0 0 43.705887
16.084244 6.7155366 0.55887252 162 0 0 0 43.319592
13.846283 7.4632649 0.50901169 194 0 0 0 41.762569
14.547657 7.38273 0.52617502 173 0 0 0 42.150379
15.342578 7.3145084 0.54629713 143 0 0 0 42.543953
15.723948 7.4949393 0.98631936 107 0 0 0 42.543953
16.181866 7.2290068 0.56771433 168 0 0 0 42.937881
-64.319229 7.8144326 0.64085072 37 0 0 0 1.55892
8.2761726 7.9757605 0.66823733 378 0 0 0 37.465599
8.6441746 7.9267392 0.68064731 463 0 0 0 37.855659
9.2385883 7.8578615 0.70194209 328 0 0 0 38.44162
9.9009123 7.807951 0.72756326 216 0 0 0 39.02552
10.430483 7.8138289 0.75027674 193 0 0 0 39.410641
11.324229 7.841763 0.79018718 228.5 0 0 0 40.003571
12.239182 7.8199883 0.8304261 175 0 0 0 40.590313
12.629747 7.6367278 0.84292865 299 0 0 0 40.982552
13.151471 7.5143781 0.86373383 249 0 0 0 41.371166
14.14027 7.6203451 0.91319209 110 0 0 0 41.762569
14.993757 7.6074004 0.95367062 37 0 0 0 42.150379
2.8161302 8.4723263 0.53587288 620 0 0 0 29.844404
3.276974 8.4397268 0.54190159 530 0 0 0 30.620049
3.752193 8.4073839 0.66453803 518.5 0 0 0 31.406824
4.2333589 8.3488903 0.67378104 602.25 0 0 0 32.182724
4.8219094 8.3615618 0.65408164 282.33334 0 0 0 33.029995
5.3206925 8.3299656 0.7086674 296.75 0 0 0 33.740574
5.8253531 8.2675219 0.68109798 384.66666 0 0 0 34.463085
6.2778621 8.3115234 0.78624099 201 0 0 0 34.980305
6.7914352 8.1893387 0.7573806 431.5 0 0 0 35.700001
7.2609158 8.1222687 0.77357435 426.5 0 0 0 36.28656
7.7436595 8.1051931 0.7478326 265 0 0 0 36.812885
8.2526398 8.1519184 0.96391487 218 0 0 0 37.268082
0.75194424 8.6588173 0.52697533 266 0 0 0 26.139648
1.8589243 8.7253275 0.75988132 255.66667 0 0 0 28.09256
2.2327697 8.6664133 0.72978288 418.71429 0 0 0 28.751835
2.6410818 8.6489525 0.87784243 767.25 0 0 0 29.452299
3.2388165 8.6530418 0.7827394 204 0 0 0 30.426065
4.7416039 8.546381 0.8228603 79 0 0 0 32.769001
-5.0440903 9.2290344 0.77203846 677.5 0 0 0 16.770121
-4.7382693 9.1939545 0.7593807 584.5 0 0 0 17.164009
-2.922498 9.2794437 0.83379227 39 0 0 0 19.895411
-5.5018773 9.5155029 0.66972733 118 0 0 0 16.376499
-5.4955683 9.5019083 0.94038105 71 0 0 0 16.376499
-23.080505 10.833905 0.90761435 22 0 0 0 6.6364698
-20.629356 10.940775 0.83346403 16 0 0 0 7.4054298
-25.578823 11.255507 0.99165326 82 0 0 0 6.2368202
-22.216835 11.09834 0.88453996 34 0 0 0 7.0184898
-88.514938 12.965687 0.86928546 13 0 0 0 1.94942
-68.521584 13.495107 0.68745792 25 0 0 0 2.73961
15.875284 -35.861778 1.2903584 71 0 0 0 67.924034
12.238339 -34.266064 1.2032621 26 0 0 0 69.096321
-18.712416 -7.2156563 1.1701577 47 0 0 0 93.723198
-8.1672173 -7.2141538 1.456327 237 0 0 0 88.04892
-18.697323 -6.6877723 1.1587261 67 0 0 0 94.114571
-8.6791573 -6.5986738 1.4566824 168.5 0 0 0 89.227844
-8.436409 -6.9180374 1.4577303 243 0 0 0 88.63739
-2.5478861 -6.5549917 1.4731899 391 0 0 0 80.422157
-1.7438288 -6.881144 1.487617 416.5 0 0 0 78.473694
-14.975293 -6.2030225 1.3558093 79 0 0 0 93.321503
-9.0023766 -6.3367863 1.4702522 170 0 0 0 89.819229
-4.7372108 -6.0526371 1.2277836 242.66667 0 0 0 85.113129
6.7541437 -6.3013391 1.4664683 225.5 0 0 0 61.471397
-21.301477 -5.893393 1.2849565 38 0 0 0 95.280289
-17.448566 -5.7622252 1.0746801 56 0 0 0 94.500626
-8.4074059 -5.9151716 1.1228244 52 0 0 0 89.819229
-3.0551989 -5.6827021 1.036319 967 0 0 0 82.384529
-1.8601278 -5.8067398 1.2818342 226.66667 0 0 0 79.453362
0.94980645 -5.6343193 1.2756963 497.75 0 0 0 71.836243
1.9449167 -5.9781713 1.0132116 288 0 0 0 69.488762
3.7687547 -5.6105824 1.209286 540.5 0 0 0 65.090805
4.1575737 -5.6474061 1.3850851 399.5 0 0 0 64.400238
5.8552656 -5.7423086 1.1034541 538 0 0 0 61.864719
6.8207855 -5.7161193 1.3408536 149.33333 0 0 0 60.619137
9.3209934 -5.599596 1.3114326 311 0 0 0 58.147121
11.475434 -5.7842412 1.3822643 143 0 0 0 56.98016
11.799831 -5.5877275 1.0851703 206 0 0 0 56.58614
12.04542 -5.7032137 1.4314247 236 0 0 0 56.58614
-17.772516 -5.3894801 1.0855753 129 0 0 0 94.891342
-0.15820909 -5.3828917 1.0054106 135 0 0 0 74.964149
3.2725854 -5.3618641 1.0120327 445.5 0 0 0 65.769691
5.1781087 -5.4709983 1.0171822 311 0 0 0 62.444019
7.7519288 -5.198195 1.0173481 720 0 0 0 58.935833
16.882912 -4.6649566 1.4367012 54 0 0 0 53.858566
17.694513 -3.9664135 1.0321084 102 0 0 0 53.074478
22.291025 2.7831852 1.2601765 44 0 0 0 47.613167
25.196707 2.5160837 1.4154516 13 0 0 0 48.001793
15.185687 3.4483724 1.2748421 177 0 0 0 46.052311
16.514339 3.3225911 1.3756031 118 0 0 0 46.436832
18.109455 3.1780412 1.2682331 96.5 0 0 0 46.827499
20.019243 3.003402 1.1395453 75 0 0 0 47.224247
-0.096764281 3.9365156 1.1287743 88 0 0 0 24.579741
14.810956 3.7499676 1.2515248 352 0 0 0 45.666019
15.125211 4.2282643 1.2852167 4 0 0 0 45.26963
15.459912 5.1548166 1.3319541 86 0 0 0 44.487328
15.84492 6.1650424 1.3877947 104 0 0 0 43.705887
16.150644 6.7458091 1.4274713 5 0 0 0 43.319592
16.176033 7.2275906 1.2233332 167 0 0 0 42.937881
10.021547 7.9042921 1.2102144 397.5 0 0 0 39.02552
11.31027 7.8340945 1.3005354 173.75 0 0 0 40.003571
12.260647 7.8361454 1.1951667 75 0 0 0 40.590313
12.623047 7.6352654 1.2109011 308 0 0 0 40.982552
13.137208 7.5088997 1.2406945 264 0 0 0 41.371166
14.167525 7.6377225 1.3167175 110 0 0 0 41.762569
14.964198 7.5953765 1.370824 95 0 0 0 42.150379
15.7535 7.5119476 1.4237651 127 0 0 0 42.543953
3.7558727 8.4169273 1.2314397 583.66669 0 0 0 31.406824
4.2322721 8.3478422 1.2490582 783.16669 0 0 0 32.182728
4.9935875 8.4992743 1.3119513 255 0 0 0 33.160488
5.3706698 8.4090633 1.204041 291.25 0 0 0 33.740574
5.8266582 8.4147472 1.1072797 418 0 0 0 34.331512
6.324122 8.371417 1.2200783 55.333332 0 0 0 34.980305
6.8457422 8.2561188 1.2892576 576 0 0 0 35.700001
7.2993708 8.1662149 1.3150039 460.5 0 0 0 36.28656
7.7229714 8.2196407 1.3522458 135 0 0 0 36.684048
8.2519951 8.1507921 1.2463715 469.5 0 0 0 37.268082
8.894949 8.1563768 1.1471416 204.5 0 0 0 37.855659
9.29422 8.1079159 1.1714184 174 0 0 0 38.240559
9.7130814 8.0583401 1.1972563 318.5 0 0 0 38.642681
10.693933 8.0117044 1.264559 29 0 0 0 39.410641
-0.10338244 8.8535824 1.1892916 33 0 0 0 24.579741
0.33615589 8.9386015 1.2005278 282 0 0 0 25.359921
0.76801997 8.8479872 1.1919259 738 0 0 0 26.139648
1.8742236 8.7980547 1.2050666 686 0 0 0 28.09256
2.2448521 8.7538366 1.284646 477.33334 0 0 0 28.732422
2.5984004 8.6390619 1.2813696 758.66669 0 0 0 29.386162
3.2414415 8.6594629 1.1218152 348.5 0 0 0 30.426065
4.7248325 8.5168238 1.1770253 306 0 0 0 32.769001
5.0058894 8.5175142 1.0713667 87 0 0 0 33.160488
-5.0416756 9.2234039 1.2836399 696 0 0 0 16.770121
-4.7385764 9.1934357 1.2632508 733 0 0 0 17.164009
-32.16328 9.6804161 1.1864704 18 0 0 0 4.2940898
-30.433613 9.977169 1.1327614 7 0 0 0 4.6855102
-29.068298 10.322885 1.0920421 31 0 0 0 5.0710802
-16.602762 10.423942 1.1815999 193 0 0 0 8.58424
-15.51428 10.274199 1.1227744 29 0 0 0 8.9784098
-19.147083 10.7604 1.3205903 4 0 0 0 7.8042698
-18.178658 10.807829 1.2726007 5 0 0 0 8.19244
-28.884197 11.060824 1.0944699 6 0 0 0 5.4636102
-22.296753 11.139383 1.4949284 4 0 0 0 7.0184898
-28.419819 11.688068 1.0871788 30 0 0 0 5.85183
55.287502 -9.5550861 1.7275586 14 0 0 0 52.293312
9.9116087 -9.0027342 1.7743824 122 0 0 0 61.272991
19.741505 -8.7480965 1.7663959 54 0 0 0 56.194618
55.374596 -8.1741352 1.7216214 7 0 0 0 51.902119
-7.5949492 -7.5859532 1.9656422 206 0 0 0 87.077377
11.919131 -7.5599804 1.5163293 110 0 0 0 58.541519
20.072981 -7.7376199 1.7582017 38 0 0 0 55.410221
-7.0166073 -7.0070043 1.573341 165 0 0 0 87.077377
-5.5126591 -7.0475011 1.8640021 154 0 0 0 85.113129
-5.3646555 -7.2156377 1.8731104 264 0 0 0 84.725204
-4.777689 -7.1315575 1.9995323 343 0 0 0 83.938156
-4.1898923 -7.3714433 1.9757888 15 0 0 0 82.779808
-3.7407379 -7.1820126 1.8887023 163.5 0 0 0 82.186722
-2.5342429 -7.0327301 1.9295995 134 0 0 0 80.037117
-1.0639911 -7.0282345 1.6633703 365 0 0 0 76.910873
0.67955679 -7.1499519 1.8579278 252 0 0 0 73.00959
1.0433054 -7.2040448 1.7041683 233 0 0 0 72.225372
1.7436529 -7.0664711 1.7043653 315 0 0 0 70.668419
17.693792 -7.3272562 1.5705949 52 0 0 0 55.80534
-26.37952 -6.6063671 1.5725973 42 0 0 0 95.663902
-16.959839 -6.5429134 1.9572222 80 0 0 0 93.723198
-7.2917099 -6.7649813 1.5779876 319.5 0 0 0 87.659042
-5.6922793 -6.9211488 1.8667203 299 0 0 0 85.508896
-5.0741701 -6.8260574 1.9812881 226 0 0 0 84.725204
-4.8774667 -6.9081945 1.9701918 324 0 0 0 84.328194
-3.65959 -6.8183928 1.9956448 362 0 0 0 82.384529
-3.2671206 -6.8725333 1.9635645 391 0 0 0 81.599083
-2.7695761 -6.8824453 1.9151926 247.5 0 0 0 80.619766
-1.6966833 -6.693068 1.6579928 268.5 0 0 0 78.472229
-1.2434261 -6.7692361 1.7556648 311 0 0 0 77.416306
-0.51757514 -6.7074084 1.7414236 204 0 0 0 75.736488
-0.3500835 -6.6534348 1.7251707 311 0 0 0 75.347954
0.9485153 -6.5685124 1.7198117 270 0 0 0 72.225372
1.8945384 -6.9426904 1.6856995 135 0 0 0 70.264877
2.2113879 -6.7702069 1.786056 200.33333 0 0 0 69.48835
2.8302531 -6.898757 1.9287931 42 0 0 0 68.315376
6.960145 -6.6517491 1.7655504 93 0 0 0 61.669807
-19.391842 -6.4079623 1.6985655 44 0 0 0 94.500626
-17.168262 -6.1439648 1.96299 75 0 0 0 94.114571
-16.963924 -6.0708241 1.502781 100 0 0 0 94.114571
-14.930588 -6.1844797 1.7439878 58 0 0 0 93.321503
-8.7784138 -6.1789045 1.964855 168 0 0 0 89.819229
-8.4038343 -6.228343 1.6571023 257 0 0 0 89.422852
-7.640913 -6.1086402 1.672852 274.5 0 0 0 88.835114
-7.2486596 -6.3480363 1.6875299 291.66666 0 0 0 88.113625
-6.7703562 -6.4369097 1.7147368 457 0 0 0 87.46328
-5.6644349 -6.2391257 1.9628384 133 0 0 0 86.290642
-5.3866653 -6.3886023 1.9470036 177 0 0 0 85.705193
-4.9264641 -6.2978282 1.8643508 213 0 0 0 85.113129
-2.6787367 -6.4245534 1.628237 190 0 0 0 80.817375
-2.3596516 -6.3027177 1.5756316 224.5 0 0 0 80.229637
-1.7885427 -6.192843 1.7762307 177.33333 0 0 0 78.993889
-1.4056278 -6.1667089 1.794963 27 0 0 0 78.086082
-0.71239531 -6.2429304 1.7844374 320.5 0 0 0 76.329948
-0.21180543 -6.2935681 1.8195438 337 0 0 0 75.037331
0.20363986 -6.2158566 1.7676635 302.5 0 0 0 73.982193
0.82450235 -6.2797451 1.7191567 226.5 0 0 0 72.421249
1.3055589 -6.2934132 1.6672013 298 0 0 0 71.244797
1.6793386 -6.166708 1.658555 242.66667 0 0 0 70.27108
3.1870177 -6.0155778 1.9336426 51 0 0 0 66.757248
6.3217797 -6.3490605 1.8672402 353 0 0 0 62.059631
6.7054234 -6.2011905 1.8248757 199.66667 0 0 0 61.405262
7.0278134 -6.0844302 1.9349381 111 0 0 0 60.879089
-17.205828 -5.6853209 1.9507753 112 0 0 0 94.500626
-8.274312 -5.8235388 1.6038843 381 0 0 0 89.819229
-5.3082352 -5.5651841 1.9823313 330 0 0 0 86.693359
-4.6339364 -5.9224749 1.9393883 190 0 0 0 85.113129
-1.9097646 -5.7270627 1.6387618 226.75 0 0 0 79.647873
-1.252834 -5.7052608 1.7566637 206 0 0 0 77.953278
-0.74733424 -5.8827596 1.8316269 262 0 0 0 76.52359
-0.25718868 -5.6924419 1.8313789 215.33333 0 0 0 75.219704
0.30516899 -5.7849998 1.8155761 203 0 0 0 73.657173
0.65464681 -5.7688384 1.7398787 176.2 0 0 0 72.696426
1.326634 -5.8106651 1.7923275 270.66666 0 0 0 70.924309
1.6598806 -5.6624746 1.7376063 209.60001 0 0 0 69.955688
2.1916945 -5.6846199 1.7342738 241.33333 0 0 0 68.642059
2.7824516 -5.7572498 1.8960792 233.5 0 0 0 67.339264
3.7095871 -5.8022552 1.7815069 162.66667 0 0 0 65.446045
4.3152885 -5.5662184 1.7369069 372.5 0 0 0 64.013725
6.8443961 -5.7837658 1.645756 377.5 0 0 0 60.684124
9.324832 -5.5999956 1.8511279 258 0 0 0 58.147121
11.481332 -5.7842712 1.6997783 196 0 0 0 56.98016
12.225073 -5.7849517 1.7854122 139 0 0 0 56.58614
-17.883358 -5.4264917 1.5570538 94 0 0 0 94.891342
-17.200827 -5.2192922 1.9351964 125 0 0 0 94.891342
-3.3951139 -5.337781 1.6368004 213 0 0 0 83.55452
-2.618957 -5.1698518 1.7288904 263.39999 0 0 0 81.989731
-2.2662911 -5.2604246 1.6968696 194.5 0 0 0 81.009773
-1.6824706 -5.2494087 1.8370763 175 0 0 0 79.453354
-1.2639703 -5.1334343 1.7664565 144.33333 0 0 0 78.344078
-0.68461162 -5.3577476 1.869238 210.16667 0 0 0 76.52359
-0.41021362 -5.2626419 1.893627 174 0 0 0 75.736488
0.71850294 -5.1962004 1.676994 166 0 0 0 72.304245
1.3158269 -5.3618832 1.8462559 213 0 0 0 70.65612
1.6942133 -5.2116008 1.8705921 143.57143 0 0 0 69.488403
2.2779109 -5.2640443 1.8697532 205.33333 0 0 0 67.99157
3.4165401 -5.4388738 1.9850007 194 0 0 0 65.574348
3.641295 -5.4934969 1.6281641 336 0 0 0 65.18943
4.3025784 -5.2774401 1.9340175 245 0 0 0 63.624554
6.3982291 -5.1427732 1.7136564 347.5 0 0 0 60.297703
6.6236992 -5.3213673 1.9807429 274 0 0 0 60.297703
-18.503326 -4.6369133 1.5881747 137 0 0 0 95.663902
-17.72995 -4.9083052 1.7564259 131 0 0 0 95.280289
-4.2018213 -4.7367587 1.6377258 534 0 0 0 86.096069
-3.7345684 -4.6906295 1.6016369 347 0 0 0 85.247665
-3.1891735 -4.7188296 1.7153867 326.42856 0 0 0 83.995926
-2.7507286 -4.7604599 1.7309904 309.75 0 0 0 82.872658
-2.1965861 -4.6651545 1.7482713 297.60001 0 0 0 81.521111
-1.7676603 -4.6903944 1.6970662 215.90909 0 0 0 80.248787
-1.1274083 -4.9270716 1.7507935 156.5 0 0 0 78.086082
-0.88227224 -4.7324576 1.7670593 201.66667 0 0 0 77.435379
0.42467228 -4.5681958 1.7642136 77 0 0 0 73.00959
0.73655111 -4.7374835 1.7241733 127 0 0 0 72.029335
1.1818024 -4.7439752 1.798839 126.83334 0 0 0 70.597282
1.7660052 -4.7820196 1.9336786 134.39999 0 0 0 68.864151
2.2411535 -4.6488342 1.9840318 44.5 0 0 0 67.339264
6.3038669 -4.693779 1.8320531 374.33334 0 0 0 59.706005
6.6961007 -4.6522837 1.6344386 233.66667 0 0 0 59.189983
7.5193725 -4.7759528 1.8546221 246 0 0 0 58.541519
16.896481 -4.6683092 1.8645689 59 0 0 0 53.858566
19.958441 -4.9878063 1.6792461 28 0 0 0 53.468727
-4.2231255 -4.1096067 1.816798 205.75 0 0 0 87.272202
-3.7591133 -4.3149686 1.7466114 293.125 0 0 0 85.95015
-3.2519913 -4.4102583 1.7191699 274.20001 0 0 0 84.64357
-2.890516 -4.4190826 1.7616178 164 0 0 0 83.746338
-1.7577142 -4.3456259 1.7107615 138.5 0 0 0 80.621895
-1.4602545 -4.3626652 1.7075443 206.5 0 0 0 79.647636
0.86473161 -4.4769354 1.7550672 153 0 0 0 71.441948
6.3420382 -4.3676424 1.8933616 318.5 0 0 0 59.126446
7.823463 -4.4434624 1.8722486 235 0 0 0 57.760422
-4.2571335 -3.8484087 1.9111648 209.33333 0 0 0 87.853706
4.3664975 -3.427238 1.99668 106 0 0 0 60.106247
8.8540163 -3.1698012 1.9531277 5 0 0 0 55.025459
9.1831293 -2.784564 1.9914877 102 0 0 0 54.242218
61.976051 -2.9924333 1.8961333 17 0 0 0 50.342361
29.879133 -0.70444298 1.6664408 135 0 0 0 49.94714
29.944035 0.030867329 1.6687371 141 0 0 0 49.55619
30.025789 0.7698366 1.672984 122 0 0 0 49.173153
30.096266 1.5132118 1.6776398 142 0 0 0 48.781059
28.856812 2.1641772 1.6120793 27 0 0 0 48.387833
22.3239 2.7912529 1.8232526 60 0 0 0 47.613167
15.204668 3.4525728 1.656202 152 0 0 0 46.052311
16.535549 3.3267698 1.7881066 109 0 0 0 46.436832
18.089178 3.1760736 1.9431995 108 0 0 0 46.827499
20.014194 3.0062149 1.6443139 73 0 0 0 47.224247
14.809277 3.7507648 1.8119274 401 0 0 0 45.666019
15.306627 4.2785358 1.6872426 6 0 0 0 45.26963
15.463116 4.735724 1.7160118 6 0 0 0 44.876431
15.433487 5.1458616 1.7259984 79 0 0 0 44.487328
15.931357 5.7506356 1.7951272 9 0 0 0 44.10556
15.838881 6.1624427 1.8011609 98 0 0 0 43.705887
16.286051 6.8017564 1.8688133 12 0 0 0 43.319592
14.651657 7.4372597 1.7432607 8 0 0 0 42.150379
16.190237 7.2350841 1.8775946 136 0 0 0 42.937881
10.024692 7.9084969 1.8394332 364 0 0 0 39.02552
11.334347 7.8533468 1.8112855 147 0 0 0 40.003571
12.610278 7.6284361 1.7503618 293 0 0 0 40.982552
13.154579 7.5196609 1.7982295 230 0 0 0 41.371166
14.232036 7.6718817 1.7162309 16 0 0 0 41.762569
15.745909 7.5079765 1.8478457 167 0 0 0 42.543953
3.7532349 8.4092245 1.7996135 622.75 0 0 0 31.406826
4.2313333 8.3444061 1.8273607 771.75 0 0 0 32.182724
5.4637041 8.3265181 1.6948838 556.5 0 0 0 33.93541
6.4094257 8.3425922 1.6565365 6 0 0 0 35.107342
6.8461871 8.2566071 1.8207839 486.25 0 0 0 35.700001
7.2721586 8.1361217 1.8510658 340 0 0 0 36.28656
7.7806063 8.2807064 1.7843674 6 0 0 0 36.684048
8.3982925 8.0956593 1.6853836 444.5 0 0 0 37.465599
9.700695 8.0498629 1.816747 350 0 0 0 38.642681
12.637795 8.0763645 1.7805974 20.5 0 0 0 40.590313
0.87548459 8.8064222 1.8424226 796.5 0 0 0 26.333519
1.1924101 8.7132244 1.8307996 997 0 0 0 26.924101
2.323072 8.7542896 1.7723175 275.5 0 0 0 28.86095
2.5105109 8.6032953 1.7536451 794 0 0 0 29.253889
-5.0360193 9.2136765 1.7978988 685.5 0 0 0 16.770121
-4.7348051 9.1868477 1.7697836 746.5 0 0 0 17.164009
-3.2727852 9.2026157 1.793422 361.5 0 0 0 19.310795
3.6636066 9.0865459 1.6711581 23 0 0 0 30.81477
-30.547895 10.015587 1.9209104 8 0 0 0 4.6855102
-29.031464 10.310629 1.8419591 47 0 0 0 5.0710802
-16.60976 10.425277 1.6675696 193 0 0 0 8.58424
-15.460423 10.235373 1.5778911 46 0 0 0 8.9784098
-23.070425 10.83007 1.5282879 32 0 0 0 6.6364698
-18.121868 10.77059 1.7908032 5 0 0 0 8.19244
-28.911875 11.072387 1.8504778 4 0 0 0 5.4636102
-25.576134 11.255268 1.672745 82 0 0 0 6.2368202
8.3365459 11.384723 1.8573676 12 0 0 0 34.726231
-28.406803 11.68368 1.8357534 22 0 0 0 5.85183
4.2908335 11.822237 1.9773629 48 0 0 0 30.231714
8.0138044 11.530197 1.8489927 32 0 0 0 34.331512
2.8266351 12.343781 1.9932868 31 0 0 0 28.283966
16.626421 -8.890399 2.0088551 29 0 0 0 57.369701
-4.5168304 -7.5136647 2.0416625 254 0 0 0 83.159103
-16.042015 -7.1142821 2.3221526 71 0 0 0 92.924759
-9.0083628 -7.0257068 2.3697546 163 0 0 0 89.032837
-8.6830521 -7.3009686 2.3538303 172.5 0 0 0 88.440216
-7.8064895 -7.1880722 2.3774202 182 0 0 0 87.724297
-4.643259 -7.3120823 2.0174699 215 0 0 0 83.55452
-4.3361683 -7.4171281 2.2122035 211 0 0 0 82.969452
-1.4322852 -7.0982666 2.0505388 178 0 0 0 77.700157
-0.37479356 -7.1747336 2.3898492 99 0 0 0 75.347954
0.14958203 -7.0475817 2.3461025 153 0 0 0 74.175911
-8.8181353 -6.5359039 2.0084031 233 0 0 0 89.422852
-8.3487911 -6.5128241 2.4574506 252 0 0 0 89.032837
-7.8664947 -6.7815399 2.4112637 209 0 0 0 88.243042
-4.6551237 -6.7685428 2.1162033 229 0 0 0 84.133179
-2.8259082 -6.5507383 2.0196495 242 0 0 0 81.014153
-2.0650396 -6.7493973 2.1721127 90 0 0 0 79.259079
-1.8185179 -6.8299809 2.1754372 312.5 0 0 0 78.666031
-1.2557709 -6.6395569 2.1658795 169.5 0 0 0 77.501572
-0.10160848 -6.5505161 2.3430943 189.5 0 0 0 74.766586
2.7173102 -6.6252837 2.3854403 76 0 0 0 68.315376
-16.392242 -6.3271008 2.3246751 102 0 0 0 93.723198
-14.94183 -6.192174 2.1427174 52 0 0 0 93.321503
-8.6932135 -6.1199722 2.336822 177 0 0 0 89.819229
-8.4767818 -6.2847905 2.4490526 99 0 0 0 89.422852
-7.764349 -6.3682537 2.3322806 167 0 0 0 88.63739
-6.2460961 -6.2379661 2.0544484 72 0 0 0 87.077377
-1.6760004 -6.2899628 2.3259864 199 0 0 0 78.666031
-0.021459645 -6.3062701 2.411011 282 0 0 0 74.569031
0.25453657 -6.2773347 2.3094554 239.2 0 0 0 73.865097
3.0200131 -6.0550871 2.2564039 323 0 0 0 67.140625
3.6281037 -6.0985942 2.1013601 236.5 0 0 0 65.965034
11.448702 -6.1248045 2.3610256 188 0 0 0 57.369701
-17.388237 -5.7489643 2.4211874 100 0 0 0 94.500626
-16.73728 -5.9929361 2.3514731 119 0 0 0 94.114571
-8.930459 -5.9642 2.2291932 181 0 0 0 90.206871
-7.8396325 -5.8095088 2.0285876 436 0 0 0 89.422852
-6.7288022 -5.7988739 2.3921564 263 0 0 0 88.243042
-6.2536836 -5.7558465 2.2559221 274.33334 0 0 0 87.724297
-5.8647537 -5.8561273 2.1337481 372 0 0 0 87.077377
-5.3314457 -5.5896215 2.1822691 131 0 0 0 86.693359
-4.2306013 -5.6870952 2.3541698 165 0 0 0 84.725204
-3.8913701 -5.51019 2.4069023 161 0 0 0 84.328194
-2.7255585 -5.611196 2.3823617 184.33333 0 0 0 81.730949
-1.326875 -5.8318481 2.2866564 113.5 0 0 0 78.085457
-0.86279052 -5.6803451 2.1979675 23 0 0 0 76.910873
-0.22900936 -5.6128988 2.0820999 192 0 0 0 75.156052
0.41809598 -5.9776845 2.2934 213 0 0 0 73.396736
0.52295315 -5.5521441 2.0004699 102 0 0 0 73.00959
3.2848818 -5.7651596 2.1727757 230.25 0 0 0 66.26358
4.3428087 -5.5996065 2.0984383 114.5 0 0 0 64.013725
6.850019 -5.7361717 2.3736763 182.33333 0 0 0 60.619137
9.3029118 -5.5863051 2.2490036 264 0 0 0 58.147121
11.538395 -5.8124976 2.0285089 5 0 0 0 56.98016
12.32418 -5.707912 2.2426484 167.66667 0 0 0 56.455631
19.270544 -5.8369279 2.135987 46 0 0 0 54.242218
-17.806421 -5.4064913 2.4594793 72 0 0 0 94.891342
-5.4591637 -5.4500046 2.17922 256 0 0 0 87.077377
-3.2043655 -5.3822789 2.2990899 277.60001 0 0 0 83.086472
-2.9096251 -5.417522 2.197325 222 0 0 0 82.384529
2.8688049 -5.4211855 2.0492015 272 0 0 0 66.757248
3.4336958 -5.4675841 2.1551569 220 0 0 0 65.574348
3.6500006 -5.219914 2.2442989 114 0 0 0 64.796875
4.468091 -5.4762502 2.180095 251 0 0 0 63.624554
4.5552273 -5.2261195 2.3126619 184.33333 0 0 0 63.101696
5.0146551 -5.2934546 2.2476728 29 0 0 0 62.444019
6.4934778 -5.0858607 2.1270509 315 0 0 0 60.106247
6.8901806 -5.3942099 2.4718657 121 0 0 0 60.106247
7.0295281 -5.2291546 2.4746473 222 0 0 0 59.706001
9.4372244 -5.049758 2.4810288 121 0 0 0 57.369701
10.680283 -5.0552845 2.4434574 109 0 0 0 56.58614
11.356857 -5.036335 2.2597704 46 0 0 0 56.194618
20.568741 -5.1396341 2.2452288 40 0 0 0 53.468727
-12.890503 -4.6149044 2.4956496 95 0 0 0 94.114571
-11.854742 -4.5748057 2.3185916 50 0 0 0 93.723198
2.1465905 -4.9039545 2.0560374 111 0 0 0 67.924034
3.843293 -4.9578896 2.2496362 106 0 0 0 64.013725
4.0583239 -4.5063124 2.1765125 70 0 0 0 62.834259
4.635653 -4.8980012 2.2495177 97 0 0 0 62.444019
9.3225756 -4.699573 2.1645732 48 0 0 0 56.98016
16.886063 -4.6618648 2.2950702 46 0 0 0 53.858566
20.242882 -4.5321436 2.1970272 24 0 0 0 53.074478
4.4757304 -4.0791545 2.1737442 102 0 0 0 61.272991
4.7710032 -4.3468437 2.1555638 117.5 0 0 0 61.274448
5.188005 -4.0679193 2.0364327 217 0 0 0 60.106247
8.6860523 -4.2425771 2.2450576 263.5 0 0 0 56.78315
9.2877016 -4.1216998 2.1073861 201 0 0 0 56.194618
-4.4175019 -3.620537 2.0412893 39 0 0 0 88.63739
8.0390291 -3.5674958 2.4824271 265 0 0 0 56.194618
8.8286505 -3.7883596 2.2310622 186.5 0 0 0 55.999977
-68.022263 -3.338485 2.2128084 23 0 0 0 98.789406
4.8061223 -3.4009769 2.1150434 66 0 0 0 59.317059
8.7111235 -3.2387862 2.1593153 241 0 0 0 55.217842
9.054637 -3.4954751 2.0145156 300 0 0 0 55.410221
8.3029175 -2.5165002 2.4486341 145 0 0 0 54.242218
8.9441528 -2.8312817 2.1788247 296 0 0 0 54.443451
9.3170938 -2.5738814 2.2429214 117 0 0 0 53.858566
-67.975342 -1.6651512 2.2087409 18 0 0 0 99.170944
29.856674 -0.69840109 2.4098463 116 0 0 0 49.94714
-64.078262 0.0036481535 2.0829768 38 0 0 0 99.562973
29.951269 0.036354363 2.4159219 96 0 0 0 49.55619
30.007841 0.77483362 2.4204705 101 0 0 0 49.173153
-64.007957 1.5751098 2.0813735 25 0 0 0 0
30.079052 1.5177835 2.427654 112 0 0 0 48.781059
29.076107 2.1857612 2.3510897 20 0 0 0 48.387833
19.964254 2.9987421 2.1317794 71 0 0 0 47.224247
22.333021 2.7924066 2.3717537 63 0 0 0 47.613167
-64.18129 3.0540097 2.2360818 38 0 0 0 0.38760999
15.191519 3.4522755 2.2321243 125 0 0 0 46.052311
16.524502 3.3275056 2.2025847 122 0 0 0 46.436832
18.081781 3.1780021 2.3950098 101 0 0 0 46.827499
30.256363 3.0241201 2.4493754 8 0 0 0 48.001793
14.812524 3.7528 2.379987 340 0 0 0 45.666019
15.346312 4.2922487 2.28052 16 0 0 0 45.26963
-64.257179 4.6384964 2.2422915 40 0 0 0 0.78083998
15.499531 4.7496085 2.1197371 5 0 0 0 44.876431
15.450467 5.1542964 2.1295233 62 0 0 0 44.487328
15.829642 5.7170181 2.1989844 7 0 0 0 44.10556
-64.289803 6.2281761 2.2482641 34 0 0 0 1.17265
15.855355 6.171741 2.2225323 74 0 0 0 43.705887
16.312477 6.8157721 2.3076677 7 0 0 0 43.319592
16.173504 7.2306914 2.3125088 128 0 0 0 42.937881
-64.301796 7.8245478 2.2547741 26 0 0 0 1.55892
10.024164 7.9072604 2.314539 338 0 0 0 39.02552
11.270714 7.8774185 2.2606499 98.666664 0 0 0 39.93845
12.595741 7.6205363 2.2952657 309 0 0 0 40.982552
13.147144 7.5163245 2.3596289 223 0 0 0 41.371166
14.154985 7.6333742 2.1037955 7 0 0 0 41.762569
15.724672 7.5009031 2.2749858 157 0 0 0 42.543953
3.7458978 8.393961 2.2479286 601 0 0 0 31.406826
4.2269821 8.3374815 2.2849894 643 0 0 0 32.182724
5.4704494 8.3363705 2.1886156 544 0 0 0 33.93541
5.8499336 8.4496527 2.3801577 5 0 0 0 34.331512
6.8486028 8.2593307 2.350724 401.75 0 0 0 35.700001
7.2714477 8.1342697 2.2553115 273 0 0 0 36.28656
8.3973484 8.0934763 2.2630277 389 0 0 0 37.465599
9.7111826 8.05762 2.2883229 276 0 0 0 38.642681
12.599038 8.0525808 2.3307357 24 0 0 0 40.590313
-0.10196936 8.8678093 2.2803438 19 0 0 0 24.579741
0.82162404 8.821228 2.3330154 496.5 0 0 0 26.237219
1.2747825 8.7696218 2.3515489 468.33334 0 0 0 27.051298
2.323019 8.7557306 2.2166729 267 0 0 0 28.86095
2.5982888 8.635253 2.2442715 516.66669 0 0 0 29.386162
3.0117769 8.6951199 2.3637018 17 0 0 0 30.038099
3.5361977 8.7779388 2.3121972 20.5 0 0 0 30.81477
-36.473145 9.0601711 2.2406266 7 0 0 0 3.5176499
-5.1400266 9.2248487 2.2814796 353 0 0 0 16.638914
-4.625967 9.2530632 2.2777953 468.5 0 0 0 17.355545
-3.8606255 9.3804665 2.3570056 8.5 0 0 0 18.533905
-3.2706494 9.1948509 2.2684784 411.5 0 0 0 19.310795
-2.9127319 9.2511396 2.491297 23 0 0 0 19.895411
3.6453424 9.04004 2.0227294 24 0 0 0 30.81477
-4.3948045 9.666008 2.4660301 21 0 0 0 17.937929
-16.63031 10.439171 2.1440601 181 0 0 0 8.58424
-15.470106 10.241261 2.253916 43 0 0 0 8.9784098
-23.110918 10.84519 2.1636269 29 0 0 0 6.6364698
-19.201788 10.788788 2.4022615 56 0 0 0 7.8042698
-18.06813 10.739418 2.2936366 8 0 0 0 8.19244
-25.598598 11.260841 2.3675663 72 0 0 0 6.2368202
-22.243284 11.108686 2.1075788 9 0 0 0 7.0184898
8.3383961 11.386062 2.2074635 9 0 0 0 34.726231
12.890785 11.219723 2.2353904 4 0 0 0 38.240559
4.2902689 11.818156 2.2881179 59.5 0 0 0 30.231714
6.4861722 11.633456 2.2532156 40.5 0 0 0 32.769001
6.8429251 11.590767 2.2758651 44 0 0 0 33.160488
7.1869721 11.514547 2.294312 35.5 0 0 0 33.545738
8.0061016 11.518006 2.1948068 19 0 0 0 34.331512
4.0227032 12.491536 2.3870552 39 0 0 0 29.650709
2.7448292 12.688625 2.3638105 58 0 0 0 28.09256
3.0664473 12.658443 2.3709517 66 0 0 0 28.47537
4.0288229 12.512747 2.0655379 42 0 0 0 29.650709
-68.604454 13.525134 2.4309604 29 0 0 0 2.73961
-3.7389078 13.758121 2.2503552 25 0 0 0 20.48526
-8.0761538 -8.4764071 2.7147262 133 0 0 0 86.693359
5.0767217 -7.6317711 2.814853 18 0 0 0 65.18943
-17.567219 -6.780829 2.9545081 42 0 0 0 93.723198
-8.3434029 -6.6749425 2.7416441 111.5 0 0 0 88.835114
-1.8765433 -6.7209134 2.6615582 97 0 0 0 78.861298
-0.61622548 -6.9238496 2.6534739 338.5 0 0 0 75.937088
-0.34395486 -6.5861125 2.5193799 212 0 0 0 75.347954
