# .PCD v0.7 - Point Cloud Data file format
VERSION 0.7
FIELDS x y z intensity normal_x normal_y normal_z curvature
SIZE 4 4 4 4 4 4 4 4
TYPE F F F F F F F F
COUNT 1 1 1 1 1 1 1 1
WIDTH 909
HEIGHT 1
VIEWPOINT 0 0 0 1 0 0 0
POINTS 909
DATA ascii
1.9520658 3.4517145 -0.73557889 103 0 0 0 32.96608
2.136287 3.2839267 -0.7274974 121.33334 0 0 0 33.937336
2.8350139 3.348439 -0.70897901 172 0 0 0 35.893974
3.0888436 3.0630288 -0.7032975 153 0 0 0 37.267944
3.7636783 3.2900116 -0.69200736 244.60001 0 0 0 38.246223
4.8962321 3.2160301 -0.67041081 265 0 0 0 40.391388
6.2466493 3.2592907 -0.63787544 282 0 0 0 41.959717
8.787508 3.2738504 -0.62574315 252 0 0 0 43.910728
12.512062 3.1317582 -0.55477196 63 0 0 0 45.668713
13.436735 3.0128708 -0.59425867 116 0 0 0 46.050808
-17.096218 3.831188 -0.62899661 105 0 0 0 3.1208899
-15.042057 3.7549813 -0.92984152 99 0 0 0 3.51121
-8.578229 3.5193291 -0.65618902 281 0 0 0 5.8502598
-8.1292782 3.5666695 -0.62680125 283 0 0 0 6.2448201
-7.7106781 3.6050196 -0.8073554 311.5 0 0 0 6.6297002
-7.1940956 3.6845083 -0.76586479 377.25 0 0 0 7.2167249
-6.7078619 3.7494674 -0.7270962 297 0 0 0 7.7980299
-6.2731748 3.8087351 -0.69323528 289.5 0 0 0 8.3872242
-5.7323194 3.8703701 -0.65230072 304.75 0 0 0 9.1643753
-5.1932611 3.8413377 -0.70715004 301.85715 0 0 0 9.8640165
-4.8154936 3.976568 -0.66403419 389 0 0 0 10.729919
-3.7013845 3.7047074 -0.80543888 139.25 0 0 0 12.283077
-3.352061 3.8830862 -0.79025519 139 0 0 0 13.45225
-2.6209528 3.6010187 -0.79385835 137.33333 0 0 0 14.825283
-2.254426 3.8325629 -0.79629767 81 0 0 0 16.382229
-1.9659113 3.9843326 -0.79783553 77 0 0 0 17.5502
1.3128821 3.8515198 -0.7520861 89.800003 0 0 0 30.034201
1.690047 3.5885069 -0.73462278 73 0 0 0 31.795132
2.3162475 3.8529184 -0.72456807 129.5 0 0 0 33.353813
2.5684934 3.6300035 -0.71737283 161.5 0 0 0 34.525497
3.3428383 3.8419974 -0.70389688 335.5 0 0 0 36.090866
3.5525753 3.6048143 -0.69981593 259 0 0 0 37.074379
4.4752307 3.9038363 -0.67857856 288 0 0 0 38.249001
4.6325817 3.6537876 -0.67454439 294.66666 0 0 0 39.028133
5.950593 3.8973141 -0.64341843 311.5 0 0 0 40.394981
6.0494194 3.6487517 -0.63905913 307 0 0 0 40.972439
8.6303177 3.7100139 -0.62680459 240 0 0 0 43.134422
-17.127338 4.2800465 -0.6344735 119 0 0 0 3.51121
-15.013111 4.1394787 -0.93463176 100 0 0 0 3.90575
-14.615244 4.4155617 -0.91600734 96 0 0 0 4.3007202
-4.5194807 4.015666 -0.71636051 292 0 0 0 11.3126
-4.2352829 4.0454731 -0.69386315 344.25 0 0 0 11.893775
-3.8073261 4.102314 -0.66323537 379.16666 0 0 0 12.865497
-3.2186255 4.1439834 -0.67270088 387.54544 0 0 0 14.289093
-2.7608089 4.2269258 -0.66023028 383.55554 0 0 0 15.606731
-2.2611346 4.2887907 -0.62778682 247.14285 0 0 0 17.104374
-1.7363821 4.2743821 -0.68720222 151.13333 0 0 0 18.69594
-1.2395587 4.3287511 -0.71207249 125.46154 0 0 0 20.405771
-0.79875392 4.4036865 -0.71227592 98.181816 0 0 0 21.983997
-0.28389513 4.3028612 -0.78739059 92.400002 0 0 0 23.794559
0.24596301 4.2973056 -0.78972888 72.599998 0 0 0 25.749161
0.75055087 4.1206141 -0.77109635 77.599998 0 0 0 27.701569
1.0498744 4.031281 -0.76827145 103 0 0 0 28.86128
1.7282051 4.3252773 -0.7487241 123.8 0 0 0 30.818188
2.0557218 4.0772057 -0.73480356 138 0 0 0 32.181557
2.8982944 4.3079176 -0.71617419 205.5 0 0 0 34.131454
3.0837579 4.1267443 -0.71113563 225.5 0 0 0 34.914238
4.1989856 4.2529273 -0.68273288 328 0 0 0 37.071747
5.8291464 4.2440858 -0.65211558 324.5 0 0 0 39.610538
8.4380789 4.2629485 -0.63080293 237 0 0 0 42.155975
-17.512447 4.8343806 -0.65444767 87 0 0 0 3.90575
-0.55523437 4.5127282 -0.64294845 100 0 0 0 22.882875
-0.23879158 4.5411229 -0.66353476 155.75 0 0 0 23.989681
0.21394782 4.6065459 -0.61968642 101.08334 0 0 0 25.552923
0.74374539 4.6662421 -0.63878846 170.33333 0 0 0 27.31175
1.2531364 4.6729388 -0.66828978 222.60001 0 0 0 28.942795
1.7195213 4.7903109 -0.6333639 247.5 0 0 0 30.230621
2.2713909 4.8405271 -0.6785118 276.28571 0 0 0 31.712175
2.743902 4.7903671 -0.66121215 260.85715 0 0 0 32.992619
3.1872861 4.9846525 -0.59882629 388 0 0 0 33.741547
3.8886425 4.8059306 -0.70560819 315.66666 0 0 0 35.500378
5.684515 4.7025943 -0.66737986 319.33334 0 0 0 38.638489
8.268693 4.8379836 -0.63911062 244 0 0 0 41.171692
-17.463505 5.2832575 -0.6579321 49 0 0 0 4.3007202
-16.522757 5.4409108 -0.62618524 64 0 0 0 4.6777401
-15.484396 5.0960102 -0.98123103 51 0 0 0 4.6777401
3.4798818 5.0196905 -0.61962903 405 0 0 0 34.328918
3.7593467 5.0528812 -0.61390835 466 0 0 0 34.850185
4.2594843 5.120935 -0.59743309 471.5 0 0 0 35.697365
4.7722621 5.1879873 -0.63470769 427.5 0 0 0 36.484367
5.3681006 5.1541362 -0.67263871 342.66666 0 0 0 37.463337
5.6657224 5.3028054 -0.50980645 412 0 0 0 37.657814
6.1868515 5.3739119 -0.54044884 333 0 0 0 38.249001
6.7744126 5.451931 -0.57578915 297.5 0 0 0 38.833233
8.1703415 5.3381224 -0.65115398 125.5 0 0 0 40.394981
7.4207387 5.5321527 -0.61516446 292 0 0 0 39.417927
7.8445759 5.5505829 -0.64020211 501 0 0 0 39.80315
-4.4489517 -29.857645 -0.47816691 21 0 0 0 76.92617
-5.9566903 -26.453686 -0.42630118 26 0 0 0 78.095505
8.8182077 -22.954479 -0.39499903 38 0 0 0 68.715149
9.3820934 -22.739975 -0.39669043 8 0 0 0 68.334236
9.9763498 -22.592056 -0.3999922 8 0 0 0 67.938812
-0.020620853 -19.669527 -0.29977137 289 0 0 0 74.587074
0.9296627 -19.372673 -0.29563105 431 0 0 0 73.799767
1.3980496 -19.261971 -0.29456136 374 0 0 0 73.409264
1.8606862 -19.13102 -0.29337505 64 0 0 0 73.012192
2.3185036 -18.994944 -0.29233614 372 0 0 0 72.625343
3.6985109 -18.727926 -0.29305658 235 0 0 0 71.45948
-6.3748569 -8.1676273 -0.2705642 464 0 0 0 85.133148
-2.9155233 -8.1232538 -0.32236055 520 0 0 0 80.050064
-17.037304 -7.5616298 -0.304838 32 0 0 0 92.939476
-8.3215141 -7.5442629 -0.43727386 171 0 0 0 87.864395
-3.012619 -7.7905846 -0.2089752 241 0 0 0 80.439423
-1.7044609 -7.5389223 -0.47353399 146 0 0 0 78.095505
-7.1334352 -7.1346889 -0.38820368 296 0 0 0 87.097115
-3.1638589 -7.3666744 -0.29721785 733 0 0 0 81.031906
-1.1003294 -7.3294487 -0.45257628 93 0 0 0 76.92617
-0.7244274 -7.2113147 -0.44184628 58 0 0 0 76.149635
1.205858 -7.063592 -0.17543301 149 0 0 0 71.844688
-13.864828 -6.5661178 -0.24365854 281 0 0 0 92.55397
-5.3414569 -6.5076199 -0.31656137 493 0 0 0 85.521042
1.542704 -6.960021 -0.087820992 16 0 0 0 71.069458
-12.516881 -6.3085585 -0.21882425 87 0 0 0 92.161507
-6.9669528 -6.3190293 -0.1304056 325 0 0 0 87.864395
-4.9239435 -6.3078513 -0.49451715 477 0 0 0 85.133148
3.4025509 -6.0583673 -0.42975894 53 0 0 0 66.37101
-10.730382 -5.7430463 -0.18459843 162 0 0 0 91.773972
-10.117023 -5.7385154 -0.17429905 189 0 0 0 91.394676
-5.1628151 -5.9850621 -0.29522216 244 0 0 0 85.915962
-6.0998344 -5.2647581 -0.30351922 221 0 0 0 88.262993
-5.872683 -5.3253336 -0.4916749 322 0 0 0 87.864395
-5.2844267 -5.2880445 -0.09554746 219 0 0 0 87.097115
-4.7652326 -5.2590566 -0.2593329 264 0 0 0 86.314888
-4.3948436 -5.2267237 -0.24653064 190.5 0 0 0 85.718506
-3.6563952 -5.1215992 -0.18817283 498.75 0 0 0 84.446449
-3.1164556 -5.494081 -0.38136518 556 0 0 0 82.792419
-2.7376444 -5.2352495 -0.35423151 260.79999 0 0 0 82.241142
-2.3021173 -5.0662103 -0.37668613 379.33334 0 0 0 81.356499
14.461345 -5.2006426 -0.27541155 6 0 0 0 55.03746
15.069077 -5.003963 -0.2867133 6 0 0 0 54.646061
-4.8814254 -4.6499119 -0.24735743 281 0 0 0 87.485298
-3.2016084 -4.7887759 -0.20353824 253 0 0 0 83.956787
-2.8207257 -4.6948533 -0.23792283 310.66666 0 0 0 83.176842
-2.2482312 -4.8410311 -0.31217307 259 0 0 0 81.48661
-1.7665908 -4.8378005 -0.35373563 290.60001 0 0 0 80.12886
-1.2534627 -4.6044164 -0.27901459 106.83334 0 0 0 78.782036
-0.86519003 -4.5884361 -0.32902104 94.833336 0 0 0 77.513397
16.623867 -4.625566 -0.31665382 186 0 0 0 53.864471
-5.0988092 -4.4029727 -0.083214223 126 0 0 0 88.262993
-4.2743845 -4.2809553 -0.14549305 348.5 0 0 0 87.094025
-3.7744918 -4.376266 -0.48992342 305 0 0 0 85.915962
-3.3602037 -4.2558508 -0.25740421 310 0 0 0 85.226013
-2.6618097 -4.3184414 -0.23554881 199.5 0 0 0 83.369057
-2.3395367 -4.2438736 -0.10614143 74 0 0 0 82.595688
-1.4724368 -4.0979137 -0.038544394 67 0 0 0 80.050064
-0.58937413 -4.3834834 -0.28891954 61.166668 0 0 0 76.671883
-0.13516621 -4.271914 -0.30632469 59.666668 0 0 0 75.042244
0.28408167 -4.2171545 -0.30258778 56.315788 0 0 0 73.449432
0.75998265 -4.1591058 -0.31489402 64.384613 0 0 0 71.640205
1.3014839 -4.0628438 -0.26842079 47 0 0 0 69.583092
1.5885081 -4.059535 -0.23367286 85.800003 0 0 0 68.562782
-3.7002981 -3.8896549 -0.0580757 253 0 0 0 86.702759
-2.2058167 -3.5752883 -0.036488727 269 0 0 0 83.369057
-1.8134373 -3.9438186 -0.19681217 96.5 0 0 0 81.421143
-0.40142825 -3.9647131 -0.42281875 25 0 0 0 76.149635
1.2929826 -3.8616898 -0.43631706 99.666664 0 0 0 69.372047
1.7947147 -3.8842261 -0.33007649 56.615383 0 0 0 67.606247
2.2322199 -3.6812081 -0.41996029 56.714287 0 0 0 65.81324
2.697578 -3.6492865 -0.27398828 71.14286 0 0 0 64.357933
3.2692308 -3.6851511 -0.31414473 224.25 0 0 0 62.947056
3.6792717 -3.6236477 -0.31525534 351.83334 0 0 0 61.87077
4.2884798 -3.549104 -0.30046248 217 0 0 0 60.503021
7.2272477 -3.5872841 -0.19149239 333.66666 0 0 0 56.847691
21.664547 -3.7843516 -0.41769108 138 0 0 0 52.30674
2.0515912 -3.4680057 -0.33472708 34 0 0 0 65.975716
2.7181273 -3.3113806 -0.34152815 91.111115 0 0 0 63.54512
3.1739848 -3.1747525 -0.31260774 159.2 0 0 0 61.987133
3.7207177 -3.3025615 -0.28093946 110.4 0 0 0 61.045815
4.0548759 -3.1950538 -0.44639954 309 0 0 0 60.113201
4.628345 -3.4627473 -0.36090374 650 0 0 0 59.720833
7.7506166 -3.4606667 -0.34354669 230 0 0 0 56.207592
8.2187052 -3.2704246 -0.28804031 284.66666 0 0 0 55.552395
8.8137655 -3.1769636 -0.38467717 265 0 0 0 55.03746
9.2109623 -3.0657005 -0.40045714 260 0 0 0 54.646061
3.4315815 -2.9165177 -0.49592382 95 0 0 0 60.697937
3.743242 -2.9445374 -0.2403084 46.5 0 0 0 60.113731
4.2022862 -2.7837934 -0.35378301 288.55554 0 0 0 58.812393
4.777256 -2.7070656 -0.25393298 289.33334 0 0 0 57.702023
9.4505892 -2.8867643 -0.16672456 145 0 0 0 54.258167
9.6384182 -2.9460754 -0.4176884 251 0 0 0 54.258167
10.257593 -2.5903769 -0.44146541 92 0 0 0 53.472099
10.573667 -2.6676023 -0.18879011 419 0 0 0 53.472099
3.7606151 -2.4066701 -0.16284443 131.33333 0 0 0 58.554188
4.4757104 -2.2760446 -0.31246886 384 0 0 0 56.977242
4.6739736 -2.2583382 -0.27236718 251.2 0 0 0 56.667767
5.233562 -2.3923886 -0.35975766 459.33334 0 0 0 56.334595
10.614773 -2.4039915 -0.45575887 297 0 0 0 53.085701
11.199018 -2.2475972 -0.48061216 348 0 0 0 52.687714
11.738831 -2.353096 -0.21190999 369 0 0 0 52.687714
13.281825 -1.9875849 -0.24315903 182 0 0 0 51.911968
14.089052 -1.7547994 -0.25967464 317 0 0 0 51.516079
15.134186 -1.5075105 -0.28123537 152 0 0 0 51.126202
16.173094 -1.2097467 -0.30280745 106 0 0 0 50.74086
-26.472872 -0.66270459 -0.46361816 4 0 0 0 99.184784
16.738592 -0.83850265 -0.31475234 41 0 0 0 50.347794
-26.389709 -0.012715995 -0.46250686 30 0 0 0 99.570114
17.94396 -0.45662367 -0.34016466 133 0 0 0 49.95359
19.667776 -0.016481645 -0.37643397 83 0 0 0 49.567352
-17.643538 0.4419508 -0.20422962 119 0 0 0 0
20.49432 0.48694313 -0.39435518 35 0 0 0 49.179073
-17.439093 0.86293101 -0.20159128 228 0 0 0 0.39190999
-17.456993 1.2915056 -0.20214604 250 0 0 0 0.78820997
-16.831455 1.6586442 -0.19419596 77 0 0 0 1.1744601
21.3022 1.5564872 -0.41339639 18 0 0 0 48.395241
-17.565081 2.1655953 -0.20485024 197 0 0 0 1.56552
21.464035 2.1000173 -0.4182407 15 0 0 0 48.004471
-17.634676 2.6127365 -0.2067294 170 0 0 0 1.951
-16.96875 2.9383664 -0.1987471 177 0 0 0 2.34394
10.25356 2.8396101 -0.32173026 126 0 0 0 45.268673
21.662544 2.6586425 -0.42410135 18 0 0 0 47.620441
-9.5704765 3.3970695 -0.3509194 347 0 0 0 5.07479
-9.0559244 3.4630423 -0.33379906 392 0 0 0 5.4593601
-8.5219421 3.4967344 -0.3157579 365 0 0 0 5.8502598
10.133772 3.2147684 -0.3215791 705.75 0 0 0 44.689964
12.663361 3.1716647 -0.24179961 206 0 0 0 45.668713
22.000723 3.2510395 -0.43318889 15 0 0 0 47.231899
-17.723173 3.7440021 -0.21123162 122.5 0 0 0 2.9291749
-8.0093164 3.514153 -0.29843175 225 0 0 0 6.2448201
-7.6749096 3.5907602 -0.39164224 412.5 0 0 0 6.6297002
-7.2273841 3.6679008 -0.40548778 413 0 0 0 7.1518302
-6.732615 3.6935253 -0.32127333 416 0 0 0 7.6691566
-6.2154651 3.7759728 -0.33318129 470.25 0 0 0 8.3872242
-5.6798859 3.8370588 -0.31315529 601.25 0 0 0 9.1643753
-5.2058048 3.8950241 -0.29613 580.5 0 0 0 9.9476099
-4.7798276 3.949553 -0.28201577 491.75 0 0 0 10.729919
-4.2586155 3.9721031 -0.1932946 549 0 0 0 11.70005
10.097912 3.7605865 -0.32616466 522 0 0 0 43.910728
22.099993 3.8231711 -0.43751848 98 0 0 0 46.834881
-17.103733 4.2716002 -0.20518069 81 0 0 0 3.51121
-4.5207129 4.0203118 -0.42163745 513.5 0 0 0 11.3126
-4.2353387 4.0492196 -0.40820402 607.25 0 0 0 11.893775
-3.7812643 4.0777493 -0.32051447 620.11108 0 0 0 12.865498
-3.2611704 4.1460547 -0.3156544 624 0 0 0 14.182621
-2.7467475 4.2258492 -0.25339466 444.53845 0 0 0 15.635381
-2.2754722 4.2949519 -0.21518199 370.4375 0 0 0 17.063185
-1.7309252 4.3594189 -0.24104083 268.95239 0 0 0 18.814001
-1.2405709 4.4203992 -0.27040333 210.39999 0 0 0 20.481256
-0.83599079 4.4770546 -0.26998729 169.375 0 0 0 21.891174
9.9928694 4.4388828 -0.4656125 541 0 0 0 42.93882
10.044696 4.2674274 -0.28574964 473.33334 0 0 0 43.199619
-0.56625122 4.5123501 -0.2711305 174.22223 0 0 0 22.839144
-0.23779592 4.5487394 -0.27324626 227.10001 0 0 0 23.989681
0.21582495 4.6050148 -0.22266687 215.375 0 0 0 25.552925
0.74786931 4.6752558 -0.23198585 203.85001 0 0 0 27.311752
1.2485062 4.7351975 -0.24289052 261.08334 0 0 0 28.864328
1.7247943 4.7976732 -0.25607798 369.75 0 0 0 30.230625
2.2439129 4.8644896 -0.27221572 376 0 0 0 31.601562
2.7187243 4.9208126 -0.26914346 435.45456 0 0 0 32.73391
3.1862288 4.9795036 -0.23282576 518.33331 0 0 0 33.741547
9.9690504 4.7266889 -0.33461434 454.5 0 0 0 42.550018
22.690405 4.5023746 -0.45260191 36 0 0 0 46.440434
-18.59737 5.1330485 -0.22817247 46 0 0 0 3.90575
-17.249399 5.2155852 -0.21141048 175 0 0 0 4.3007202
-16.531935 5.4415751 -0.20358133 23 0 0 0 4.6777401
3.4800837 5.0166793 -0.24203967 697.66669 0 0 0 34.328918
3.7988245 5.0593753 -0.25246212 637.33331 0 0 0 34.914238
4.2552381 5.1149473 -0.26766562 700.33331 0 0 0 35.697369
4.7696805 5.1844206 -0.2858949 619.16669 0 0 0 36.484364
5.3160076 5.2559485 -0.26846531 519 0 0 0 37.229237
5.8227172 5.3175507 -0.22788072 512.5 0 0 0 37.854118
6.1795354 5.3676233 -0.23818117 533 0 0 0 38.249001
6.7551432 5.4364629 -0.2544117 443 0 0 0 38.833233
9.9355583 5.1696658 -0.33980295 379.75 0 0 0 41.958954
-15.464863 5.510365 -0.19069472 40 0 0 0 5.07479
-14.608198 5.6089025 -0.18078424 118 0 0 0 5.4593601
-13.936456 5.7436724 -0.17354074 151 0 0 0 5.8502598
-13.243397 5.8384509 -0.16593985 45 0 0 0 6.2448201
-12.558885 5.9049845 -0.15840542 86 0 0 0 6.6297002
-11.992723 5.9988065 -0.15261753 68 0 0 0 7.0220399
7.4189119 5.5309172 -0.2740632 386 0 0 0 39.417927
7.887795 5.5811195 -0.28775096 352 0 0 0 39.80315
8.4215708 5.6504307 -0.30372682 302 0 0 0 40.204479
9.0063457 5.7239885 -0.32172853 256 0 0 0 40.585487
9.757225 5.7032275 -0.34287828 299.5 0 0 0 41.171692
-11.351272 6.0265307 -0.14558721 363 0 0 0 7.4114099
-10.843756 6.0991249 -0.14059262 315 0 0 0 7.7980299
-10.352516 6.158309 -0.13579798 258 0 0 0 8.1966295
-9.7310085 6.2780094 -0.13041502 383.5 0 0 0 8.7720547
-9.6232367 6.7223239 -0.13386863 391 0 0 0 9.3624601
-9.6594152 7.1062627 -0.13845034 381 0 0 0 9.7512598
-9.2232342 7.3172083 -0.13677785 315 0 0 0 10.34026
-8.6354008 7.3816795 -0.13226943 254 0 0 0 10.92328
-7.6690459 7.2273984 -0.1222353 177.66667 0 0 0 11.70005
-7.1885734 7.4684515 -0.12161725 207 0 0 0 12.48151
-6.8637319 7.4869938 -0.11949372 229 0 0 0 12.86325
-6.2303829 7.3107748 -0.11267402 354 0 0 0 13.45225
-5.701046 7.3875685 -0.1104565 273 0 0 0 14.23378
-5.1290083 7.3627357 -0.10689417 264.5 0 0 0 15.022855
-8.7243929 -34.784649 0.3002339 175 0 0 0 78.485191
-5.9971261 -30.087181 0.26244321 4 0 0 0 77.713882
-6.4866395 -28.835575 0.25392878 46 0 0 0 78.095505
16.327702 -28.892847 0.25242573 20 0 0 0 66.37101
13.608782 -21.54966 0.19809228 34 0 0 0 65.589767
4.2459559 -21.464954 0.19334964 133 0 0 0 71.45948
-0.01671082 -19.729843 0.18092796 72 0 0 0 74.587074
0.46476677 -19.643064 0.18008325 137 0 0 0 74.194519
0.93593246 -19.420717 0.1782832 137 0 0 0 73.799767
1.4058689 -19.314829 0.1773853 40 0 0 0 73.409264
-79.802773 -13.895843 0.49787822 20 0 0 0 96.850914
-80.319916 -11.963923 0.49629828 14 0 0 0 97.240509
50.876186 -11.465394 0.24569246 32 0 0 0 53.085701
-81.170296 -8.0458288 0.49322999 15 0 0 0 98.013847
-2.9186759 -8.1414642 0.098877393 529 0 0 0 80.050064
-3.0202003 -7.8165894 0.096785501 883 0 0 0 80.439423
-3.1497188 -7.3414221 0.093732096 375 0 0 0 81.031906
1.2043843 -7.0471287 0.35227478 361 0 0 0 71.844688
-13.797067 -6.5369763 0.13059379 182 0 0 0 92.55397
-13.078898 -6.5915499 0.49287468 123 0 0 0 92.161507
1.5440879 -6.9609909 0.26207834 493.5 0 0 0 71.069458
-11.889838 -5.9953423 0.11918262 198 0 0 0 92.161507
-10.79445 -5.7797017 0.11306365 236 0 0 0 91.773972
-4.6517816 -5.6716099 0.086849473 301 0 0 0 85.521042
5.8045101 -5.8380003 0.080997042 777 0 0 0 62.063553
-4.0910592 -5.2429533 0.41042218 311 0 0 0 85.133148
-3.7374682 -5.1688643 0.15862304 293.5 0 0 0 84.542145
-3.2083261 -5.063961 0.2277009 129 0 0 0 83.563362
-2.9097824 -5.1338048 0.078044288 287 0 0 0 82.792419
-4.7257318 -4.730947 0.081479214 457 0 0 0 87.097115
-4.1515636 -4.6951609 0.31332356 154.5 0 0 0 86.115425
-3.6899338 -4.730721 0.077805467 290 0 0 0 85.133148
-3.2725863 -4.8962269 0.36796048 113 0 0 0 83.956787
-2.5279799 -4.7255869 0.074283846 238 0 0 0 82.398949
-2.3392725 -4.7800512 0.2104677 136.5 0 0 0 81.811005
-1.8578695 -4.8014202 0.20128864 321 0 0 0 80.439423
-1.1788392 -4.6673403 0.30946159 88.375 0 0 0 78.48735
-0.92866874 -4.6269269 0.4198035 34 0 0 0 77.713882
-4.6331716 -4.276125 0.18284674 301.66666 0 0 0 87.738029
-4.1515636 -4.0861073 0.31557217 484.33334 0 0 0 87.226509
-3.6673052 -4.0502396 0.4787609 496 0 0 0 86.314888
-2.7326748 -4.1986551 0.33793175 194.66667 0 0 0 83.761864
-2.2600949 -4.2691989 0.33164051 113 0 0 0 82.321159
-1.8081069 -4.3451519 0.36195648 94 0 0 0 80.832695
-1.35453 -4.326808 0.23414178 99.333336 0 0 0 79.402832
-0.57576144 -4.1745372 0.42878133 18.5 0 0 0 76.735458
-0.012235973 -4.0427995 0.46208856 14 0 0 0 74.587074
0.08656083 -4.049727 0.36482352 17 0 0 0 74.194519
0.89069921 -4.0423269 0.37129292 39 0 0 0 71.069458
-4.256237 -3.9571831 0.22007507 318.5 0 0 0 87.67485
-3.6973376 -3.924998 0.2331522 247.8 0 0 0 86.625183
-3.2394867 -3.8496399 0.30416864 286.625 0 0 0 85.719879
-2.7440557 -3.7649136 0.27809516 152.16667 0 0 0 84.60688
-2.2204792 -3.6144853 0.22938952 156.28572 0 0 0 83.34288
-1.8023291 -3.661607 0.30324212 108.375 0 0 0 81.860886
-1.3323572 -3.85184 0.31723267 62.5 0 0 0 79.85833
1.4185998 -3.8720427 0.31763113 47.25 0 0 0 68.91433
1.7415487 -3.8381348 0.32184708 63.5 0 0 0 67.743011
2.3942513 -3.6207027 0.38412341 27 0 0 0 65.199646
2.9008574 -3.7515452 0.41550723 21 0 0 0 64.021057
3.143908 -3.5876977 0.24049257 98.5 0 0 0 63.047081
3.6210318 -3.6510839 0.44575477 39 0 0 0 62.063553
4.6131792 -3.5362577 0.17249808 97.75 0 0 0 59.917015
22.581926 -3.9396937 0.12397856 29 0 0 0 52.30674
-1.9791697 -3.4909778 0.3616702 185 0 0 0 82.792419
2.4020975 -3.2756038 0.40993148 40.5 0 0 0 64.415718
2.5928662 -3.1151187 0.35777521 52 0 0 0 63.442032
3.1453214 -3.2576349 0.23203853 43 0 0 0 62.25893
3.8779716 -3.4571605 0.19283634 212 0 0 0 61.083488
4.1812606 -3.4584131 0.46680582 71 0 0 0 60.50663
4.9451323 -3.1556685 0.062967516 180 0 0 0 58.554192
5.3493891 -3.0535045 0.21752267 330 0 0 0 57.766151
7.7156625 -3.4424279 0.28335035 170 0 0 0 56.207592
8.2492599 -3.2017744 0.072608098 261 0 0 0 55.424728
8.7970114 -3.1681776 0.30806139 148 0 0 0 55.03746
9.1676674 -3.0485578 0.31655797 75 0 0 0 54.646061
2.9686177 -2.7184083 0.35568452 49 0 0 0 61.27774
3.155427 -2.7489815 0.36812711 229 0 0 0 60.88924
3.8333666 -2.5858936 0.11646786 128 0 0 0 58.943161
4.1942735 -2.9168708 0.33961767 140.60001 0 0 0 59.177544
5.378334 -2.563664 0.27881426 270 0 0 0 56.588593
5.5602212 -2.7353485 0.21523871 246.5 0 0 0 56.782917
9.4379292 -2.8815236 0.19859686 169 0 0 0 54.258167
10.529306 -2.6550019 0.21353297 456.5 0 0 0 53.472099
3.4324336 -2.1638675 0.24074619 127.28571 0 0 0 58.440495
3.6946151 -2.0710633 0.2779516 156.66667 0 0 0 57.636181
4.1602259 -2.2129204 0.20223534 111.25 0 0 0 57.277031
4.7369213 -2.2607818 0.18818901 177 0 0 0 56.592415
5.4509144 -2.2769475 0.13380311 225.5 0 0 0 55.807728
11.726801 -2.3491802 0.23060906 348 0 0 0 52.687714
15.913922 -2.3794703 0.49829841 423 0 0 0 51.911968
16.060274 -2.3987637 0.096581861 170 0 0 0 51.911968
3.8206291 -1.9808106 0.44411126 187 0 0 0 57.110394
4.3985887 -1.9684858 0.35396656 325 0 0 0 56.207592
4.6772594 -1.9554881 0.37099391 446.5 0 0 0 55.807728
5.0691257 -1.973649 0.26018375 379.5 0 0 0 55.424728
14.069906 -1.750777 0.26505551 315 0 0 0 51.516079
15.116685 -1.5028552 0.090950623 231 0 0 0 51.126202
16.158714 -1.2056029 0.094068259 155 0 0 0 50.74086
17.550219 -0.87572718 0.098453976 213 0 0 0 50.347794
18.634563 -0.47067621 0.1016584 144 0 0 0 49.95359
20.791891 -0.013570754 0.1089508 142 0 0 0 49.567352
-17.65115 0.4392603 0.22420515 93 0 0 0 0
-16.720699 0.82435578 0.21428342 385 0 0 0 0.39190999
23.031796 0.55138814 0.1164836 88 0 0 0 49.179073
-16.777651 1.2381704 0.21524251 309 0 0 0 0.78820997
25.760574 1.2507677 0.12576817 70 0 0 0 48.79195
-16.820284 1.6549039 0.21609697 175 0 0 0 1.1744601
-16.879251 2.0778217 0.21719617 198 0 0 0 1.56552
32.760757 2.3983645 0.15036316 15 0 0 0 48.395241
-16.948576 2.7203953 0.21875635 164.5 0 0 0 2.14747
10.211702 2.8296294 0.20196477 173.5 0 0 0 45.268673
-17.037123 3.3781352 0.22066498 106 0 0 0 2.7374599
10.126402 3.2139893 0.20233896 758.25 0 0 0 44.689964
12.645387 3.1680679 0.24116348 124.5 0 0 0 45.668713
-17.065611 3.819231 0.22167933 133 0 0 0 3.1208899
10.094648 3.7608819 0.20442802 575 0 0 0 43.910728
16.13018 3.6204803 0.090180755 17 0 0 0 46.050808
37.046696 3.6287372 0.1651732 14 0 0 0 48.004471
-17.113605 4.2715688 0.222985 78 0 0 0 3.51121
-2.6925414 4.2405977 0.2594707 686.5 0 0 0 15.79921
-2.3056245 4.2913327 0.25123328 504.625 0 0 0 16.965733
-1.7588971 4.3593721 0.24147344 391.70001 0 0 0 18.721037
-1.2394187 4.4223833 0.23457262 286.4375 0 0 0 20.481258
-0.84889382 4.4788589 0.23169029 250.91667 0 0 0 21.842554
9.9859762 4.4368286 0.34412214 695 0 0 0 42.93882
10.040624 4.2672162 0.16099781 511 0 0 0 43.199619
-0.57128727 4.5170612 0.23031753 287.5 0 0 0 22.817278
-0.236379 4.5578251 0.22975841 340.5625 0 0 0 23.989683
0.21695486 4.6072893 0.23042621 330.9375 0 0 0 25.552927
0.74889052 4.6751719 0.23410138 264.10001 0 0 0 27.311752
1.251407 4.7423568 0.23982811 320.91666 0 0 0 28.864334
1.7254971 4.7972026 0.24671113 455.125 0 0 0 30.230625
2.2448323 4.8644667 0.25642964 493.16666 0 0 0 31.601564
2.7356024 4.9234576 0.26704094 559.41669 0 0 0 32.769333
3.1704242 4.9736533 0.24556233 607 0 0 0 33.714054
9.9555492 4.7216482 0.20879523 552 0 0 0 42.550018
-19.494762 5.3793578 0.25068828 14 0 0 0 3.90575
-16.379429 5.3886943 0.21733513 65 0 0 0 4.6777401
3.4822104 5.0190778 0.20975043 746.66669 0 0 0 34.328918
3.8016005 5.0625167 0.21582274 848.66669 0 0 0 34.914238
4.2553544 5.1147428 0.22452624 957.33331 0 0 0 35.697369
4.7677531 5.1821589 0.23519166 830.66669 0 0 0 36.484364
5.1923456 5.2390671 0.24416339 23 0 0 0 37.074379
5.7812638 5.3440027 0.21067095 38.5 0 0 0 37.755966
6.2158747 5.3992419 0.26817638 42.5 0 0 0 38.249001
6.750052 5.4345188 0.064627767 76 0 0 0 38.833233
9.9230242 5.1643915 0.21153389 482.75 0 0 0 41.958954
41.518681 5.0987821 0.180718 31 0 0 0 47.620441
-19.82222 5.9955335 0.25543535 35 0 0 0 4.3007202
-15.4774 5.5126472 0.20801115 96 0 0 0 5.07479
-14.629006 5.6148639 0.19925259 133 0 0 0 5.4593601
-13.883179 5.7195778 0.19163813 171 0 0 0 5.8502598
-13.149551 5.7948923 0.18412572 150 0 0 0 6.2448201
-12.521205 5.8853498 0.17779878 208 0 0 0 6.6297002
-11.901029 5.9508672 0.17153351 192 0 0 0 7.0220399
7.2273645 5.5271878 0.17790636 159.5 0 0 0 39.2239
7.8887396 5.5840106 0.06765262 294 0 0 0 39.80315
8.260253 5.6913905 0.19344492 159 0 0 0 40.003815
8.9824753 5.7113681 0.070649922 264 0 0 0 40.585487
9.2640314 5.8865161 0.34660944 27 0 0 0 40.585487
9.7596874 5.7058811 0.21388866 420 0 0 0 41.171692
-11.339187 6.0184488 0.16591977 204 0 0 0 7.4114099
-10.846619 6.0992074 0.16109948 240 0 0 0 7.7980299
-10.369055 6.1667604 0.15643336 206 0 0 0 8.1966295
-9.7228241 6.2714062 0.15022695 406.5 0 0 0 8.7720547
9.2634974 6.2114663 0.35196739 26 0 0 0 40.204479
37.09663 6.4193001 0.16462763 34 0 0 0 46.834881
-9.606389 6.7090378 0.15057215 498 0 0 0 9.3624601
-10.978175 7.2868276 0.49310431 219 0 0 0 8.9662895
-10.259048 7.1732764 0.46910518 210 0 0 0 9.3624601
-9.7448177 7.1702023 0.30459523 407 0 0 0 9.7512598
-9.2173138 7.3131638 0.29464522 482.25 0 0 0 10.34026
-8.6366081 7.3833342 0.28408644 410.5 0 0 0 10.92328
-8.279459 7.4340086 0.27798858 534.5 0 0 0 11.3126
-7.9312344 7.4775839 0.27202654 495 0 0 0 11.69814
9.9812746 7.4270344 0.38957131 25 0 0 0 39.417927
35.903362 7.1256747 0.16046549 22 0 0 0 46.440434
-7.600729 7.5235205 0.26650742 531 0 0 0 12.08941
-7.2700248 7.5549502 0.26096469 600.5 0 0 0 12.48151
-6.8169928 7.6209631 0.25385737 648.5 0 0 0 13.057489
-6.2365761 7.6953783 0.2450048 792.25 0 0 0 13.845095
-5.6893792 7.7649264 0.23707704 868.75 0 0 0 14.627034
-5.2996798 7.8185816 0.23172356 825.5 0 0 0 15.22178
9.6385937 7.93888 0.39150304 20 0 0 0 38.636593
9.500968 8.2264967 0.39416546 20 0 0 0 38.249001
9.3985939 8.9835224 0.40743819 20 0 0 0 37.461514
9.4613447 9.4987726 0.41958094 19 0 0 0 37.074379
-15.424357 -7.3041048 0.56754196 122 0 0 0 92.55397
1.2048604 -7.0397348 0.70325816 136.5 0 0 0 71.844688
1.5535109 -6.9966054 0.79214197 40 0 0 0 71.069458
-6.0823116 -5.7967987 0.92028522 509 0 0 0 87.485298
5.7799616 -5.8110662 0.88948989 42 0 0 0 62.063553
-5.4817448 -5.2248111 0.6492492 236 0 0 0 87.485298
-3.834095 -5.3075218 0.88698322 505.5 0 0 0 84.542145
-3.4673815 -5.191658 0.92439437 708 0 0 0 83.956787
-3.7927127 -4.6261306 0.81291908 64 0 0 0 85.521042
-1.5052669 -4.5393195 0.54064798 154 0 0 0 79.665329
-4.8554015 -4.4064674 0.56669742 640 0 0 0 87.864395
-4.1419082 -4.2155461 0.61049277 402 0 0 0 86.96566
-3.8534625 -4.259881 0.68632978 410 0 0 0 86.311195
-3.3053904 -4.1313257 0.59328294 500.5 0 0 0 85.327095
-2.7943752 -4.1783218 0.6058569 338.66666 0 0 0 83.95697
-2.0187454 -4.0072827 0.72966301 32 0 0 0 82.00444
-1.6973727 -4.0878677 0.5027824 132 0 0 0 80.837837
-0.69837934 -4.2706223 0.6484431 40.75 0 0 0 77.124428
-0.14486118 -4.1289482 0.60747832 30.666666 0 0 0 75.107933
0.087531179 -4.051857 0.56240261 11 0 0 0 74.194519
-2.9589489 -3.9913168 0.55937421 220 0 0 0 84.733528
-2.2097788 -3.7901237 0.60622448 174.25 0 0 0 82.982368
-1.7228156 -3.6729758 0.59618032 116.83334 0 0 0 81.551788
-1.1969957 -3.8468769 0.6091941 74.5 0 0 0 79.371849
1.3222711 -3.7474408 0.55086464 46 0 0 0 69.11351
2.217452 -3.538183 0.57501966 16 0 0 0 65.589767
2.6909494 -3.6633093 0.51036942 22 0 0 0 64.412109
3.0729322 -3.5928693 0.64476532 151 0 0 0 63.247646
2.7750149 -3.3315744 0.59465575 78.5 0 0 0 63.433788
5.1018419 -3.2540262 0.51449472 74 0 0 0 58.554192
3.1036932 -2.5711384 0.85179383 156 0 0 0 60.50663
4.3754725 -2.944983 0.97289401 282 0 0 0 58.943161
15.892574 -2.7773919 0.50037837 466 0 0 0 52.30674
3.3454013 -2.2172809 0.64969677 126.22222 0 0 0 58.812759
3.6791079 -2.0423675 0.57376933 188.5 0 0 0 57.571419
4.3752007 -2.132452 0.61884207 183 0 0 0 56.71814
4.8957281 -2.1155767 0.58509505 320 0 0 0 56.00766
15.845623 -2.3689566 0.88902265 8 0 0 0 51.911968
17.541967 -0.8781727 0.53755206 181 0 0 0 50.347794
18.710894 -0.47567791 0.56986773 128 0 0 0 49.95359
21.070389 -0.017252639 0.63666755 71 0 0 0 49.567352
-17.461411 0.86450094 0.65604591 158 0 0 0 0.39190999
-17.510122 1.2960258 0.65882677 286 0 0 0 0.78820997
25.869247 1.2516066 0.77344304 38 0 0 0 48.79195
-17.558025 1.731473 0.66190332 57 0 0 0 1.1744601
-17.607878 2.1716771 0.66539317 324 0 0 0 1.56552
-17.659439 2.6173079 0.66928738 382 0 0 0 1.951
-18.287342 3.1693177 0.69455528 63 0 0 0 2.34394
12.778374 3.1998 0.73113263 450 0 0 0 45.668713
-17.761572 3.7534251 0.6796751 353 0 0 0 2.9291749
12.707693 3.686192 0.73416507 536 0 0 0 45.074799
16.207069 3.634414 0.70995587 56.5 0 0 0 46.050808
-2.6879423 4.235076 0.74748808 783.5 0 0 0 15.79921
-2.2833545 4.2879238 0.7205925 609.88232 0 0 0 17.02282
-1.7346779 4.3562045 0.75090492 530.6087 0 0 0 18.789288
-1.2371982 4.4194922 0.73916453 476.29999 0 0 0 20.481258
-0.8394919 4.4762259 0.7553578 354.39999 0 0 0 21.868195
12.65764 4.1838841 0.73933887 414 0 0 0 44.499008
-0.5806489 4.5103865 0.69797015 383.5 0 0 0 22.778818
-0.23484226 4.5500455 0.73240674 416.64999 0 0 0 23.989685
0.21824615 4.6073952 0.74044091 430.10001 0 0 0 25.552929
0.74018484 4.6767764 0.74872178 328.95834 0 0 0 27.279318
1.2513283 4.7385817 0.7224412 371.41666 0 0 0 28.86434
1.7266077 4.7973566 0.74956363 459.875 0 0 0 30.230618
2.2432044 4.8593373 0.78434283 565.41669 0 0 0 31.601562
2.7359684 4.9229479 0.75319588 629.44446 0 0 0 32.769333
3.1857498 4.9771085 0.78799433 679.16669 0 0 0 33.741547
12.583084 4.6819763 0.74443114 417.5 0 0 0 43.910728
3.4449172 5.0169458 0.69165909 756.40002 0 0 0 34.249931
3.785296 5.0589795 0.72813791 874 0 0 0 34.886787
4.2588558 5.1185002 0.71873599 937.66669 0 0 0 35.697369
4.771863 5.1862655 0.7580654 822.16669 0 0 0 36.484364
5.271029 5.2507496 0.7517907 360 0 0 0 37.171162
5.7302079 5.3184495 0.77176285 256 0 0 0 37.723248
6.2046456 5.3889513 0.77634251 170.5 0 0 0 38.249001
6.7857952 5.4609532 0.82062399 212.25 0 0 0 38.833233
12.538312 5.1995049 0.75229579 355 0 0 0 43.330021
-22.960554 5.7456141 0.87696326 167 0 0 0 3.51121
-21.65465 5.9836731 0.83335936 101 0 0 0 3.90575
7.3310156 5.5338297 0.69402152 107 0 0 0 39.320911
7.9295282 5.6101694 0.67065382 141 0 0 0 39.80315
8.4236612 5.6508727 0.57208496 276 0 0 0 40.204479
8.5029402 5.705297 0.83280128 107 0 0 0 40.204479
9.0096674 5.726027 0.7331773 166.5 0 0 0 40.585487
9.6454391 5.7996025 0.77080512 314 0 0 0 40.972439
10.359898 5.8848014 0.81390154 228.5 0 0 0 41.370941
11.191697 5.9947171 0.70644838 216 0 0 0 41.761311
12.461863 5.7164807 0.75977516 367 0 0 0 42.744419
-20.136421 6.0958266 0.78168619 242 0 0 0 4.3007202
-18.826689 6.2036495 0.73755789 129 0 0 0 4.6777401
-18.053036 6.4408092 0.71353501 40 0 0 0 5.07479
12.156908 6.1294107 0.75490266 151 0 0 0 42.156601
-17.082758 6.5678048 0.68195504 106 0 0 0 5.4593601
-15.912652 6.5661626 0.64246851 206 0 0 0 5.8502598
-15.409172 6.8027158 0.62858731 36 0 0 0 6.2448201
-14.21993 6.6948514 0.77918929 248.5 0 0 0 6.6297002
-13.888518 6.9577365 0.76939547 165 0 0 0 7.0220399
-13.103832 6.9678855 0.73512411 158.5 0 0 0 7.4114099
-12.636921 7.1197214 0.71890885 149.5 0 0 0 7.7980299
-12.079819 7.1984444 0.69728279 142 0 0 0 8.1966295
-11.241963 7.2012095 0.7156952 224.33333 0 0 0 8.7073097
-10.563158 7.3891153 0.79573798 70 0 0 0 9.3624601
-9.794735 7.3962555 0.75765276 258 0 0 0 9.9476099
-8.7472286 7.4815283 0.8523187 456 0 0 0 10.92328
-9.2709045 7.5487576 0.7373597 54 0 0 0 10.53656
-8.2618628 7.6055198 0.83102584 452.75 0 0 0 11.50537
-7.7976294 7.7236176 0.81157446 67 0 0 0 12.08941
-7.2620645 7.7342162 0.78401148 314.5 0 0 0 12.67238
-6.6936073 7.8659263 0.76230788 440.75 0 0 0 13.45225
-6.2500296 7.9145174 0.74363536 304 0 0 0 14.03742
-5.6841397 7.7609773 0.7092315 927.75 0 0 0 14.627035
-5.3020182 7.8256483 0.69601822 1046 0 0 0 15.22178
9.7120152 7.9981141 0.70284778 17 0 0 0 38.636593
9.411396 8.9945803 0.72721875 21 0 0 0 37.461514
-2.4824941 -33.348324 1.1176925 22 0 0 0 75.756401
-0.024737371 -32.217514 1.0773954 14 0 0 0 74.587074
17.071926 -28.559155 1.0812607 10 0 0 0 65.975716
-19.783379 -9.3669271 1.2531798 65 0 0 0 92.55397
-17.061899 -8.5974255 1.0992779 35 0 0 0 92.161507
-16.211819 -8.1728249 1.4982958 39 0 0 0 92.161507
-2.3132381 -7.6105552 1.4652243 188 0 0 0 79.277237
-3.405555 -7.1975164 1.2692685 340 0 0 0 81.617561
3.4312012 -6.8573427 1.4091613 25 0 0 0 67.151779
-6.0911827 -5.8072257 1.2324678 701.5 0 0 0 87.485298
-3.8872247 -5.522758 1.3306116 458 0 0 0 84.350761
-6.0131192 -5.4579983 1.4912271 16 0 0 0 87.864395
-4.1003795 -5.2586336 1.3955559 779 0 0 0 85.133148
-3.9377742 -5.3819432 1.1910084 624.75 0 0 0 84.637833
-3.3390689 -5.2178602 1.2062944 518.59998 0 0 0 83.642044
-3.9321969 -3.9383347 1.0329834 73 0 0 0 87.097115
3.8597634 -3.2219131 1.2769722 239 0 0 0 60.580006
4.2026954 -3.0841143 1.3510982 281.66666 0 0 0 59.591816
4.2918763 -2.9633086 1.2190555 339.5 0 0 0 59.138477
39.362316 0.93566859 1.1594468 50 0 0 0 49.179073
12.770355 3.1998839 1.2193615 466 0 0 0 45.668713
12.705771 3.6876602 1.2251199 579.25 0 0 0 45.074799
16.2218 3.640384 1.3285112 55 0 0 0 46.050808
50.644142 3.6975813 1.4829726 26 0 0 0 48.395241
-2.6852667 4.2331176 1.2358469 888 0 0 0 15.79921
-2.2852204 4.2853837 1.2306819 663.11108 0 0 0 17.009111
-1.764997 4.3520083 1.2598373 552.57141 0 0 0 18.683668
-1.2364794 4.4212923 1.2450854 552.9375 0 0 0 20.48126
-0.82824141 4.4748874 1.2214326 446.07693 0 0 0 21.902397
12.653527 4.1845369 1.2338047 426 0 0 0 44.499008
34.348404 4.2127967 1.0198309 32 0 0 0 47.620441
-0.56021827 4.5122647 1.2569019 455.14285 0 0 0 22.845392
-0.23373814 4.5506787 1.2360352 451.125 0 0 0 23.989685
0.21961267 4.6109104 1.251633 408.1875 0 0 0 25.552927
0.76301068 4.6782293 1.2706292 389.09525 0 0 0 27.34882
1.2427261 4.7384415 1.228159 414.53845 0 0 0 28.835018
1.7276359 4.7971258 1.2528878 499.125 0 0 0 30.230625
2.2301829 4.8607955 1.2718594 571.70001 0 0 0 31.562931
2.7381086 4.9249778 1.2411953 633.91669 0 0 0 32.769333
3.1907978 4.9836383 1.2282752 764.16669 0 0 0 33.741547
12.581541 4.6833491 1.2426434 476.75 0 0 0 43.910728
3.4889662 5.0265794 1.2685548 836.33331 0 0 0 34.328918
3.8146451 5.0595026 1.2670203 913 0 0 0 34.941689
4.2639079 5.1235652 1.2137443 896.16669 0 0 0 35.697369
4.7675147 5.1808124 1.2796823 830.16669 0 0 0 36.484364
5.3378258 5.250782 1.1726973 313.5 0 0 0 37.267944
5.7810469 5.3436522 1.1835122 188.75 0 0 0 37.755966
6.2210455 5.403717 1.1846228 194 0 0 0 38.249001
6.7659206 5.4461236 1.1382766 411 0 0 0 38.833233
12.530375 5.1981707 1.2553066 347 0 0 0 43.330021
-22.966425 5.7479553 1.4543089 167 0 0 0 3.51121
7.2759852 5.5170417 1.3448395 88 0 0 0 39.288574
7.9239659 5.6071634 1.1477646 93 0 0 0 39.80315
8.4590282 5.6754384 1.0767263 246 0 0 0 40.204479
9.0808687 5.772119 1.2688442 123 0 0 0 40.585487
9.6431885 5.7994394 1.3238437 339 0 0 0 40.972439
10.381634 5.8974667 1.2551932 286 0 0 0 41.370941
11.184827 5.9927521 1.1769543 218 0 0 0 41.761311
12.45747 5.7164769 1.2683098 405 0 0 0 42.744419
40.035057 5.9109826 1.1862317 29 0 0 0 47.231899
-21.735884 6.0071282 1.3860065 60 0 0 0 3.90575
-20.133678 6.0958948 1.2941461 237 0 0 0 4.3007202
-18.801622 6.1962571 1.2188361 142 0 0 0 4.6777401
-17.680332 6.3079872 1.1565411 27 0 0 0 5.07479
9.1444759 6.134232 1.4324442 20 0 0 0 40.204479
12.125896 6.1156874 1.2571255 168.5 0 0 0 42.156601
-17.067209 6.5627594 1.1266429 77 0 0 0 5.4593601
-15.898428 6.5601034 1.2736139 189 0 0 0 5.8502598
-15.37358 6.7879066 1.0363008 131 0 0 0 6.2448201
-14.206758 6.687108 1.3580097 211 0 0 0 6.6297002
-12.999707 6.9107928 1.2735034 129 0 0 0 7.4114099
-14.094744 7.0603528 1.3626486 8 0 0 0 7.0220399
-12.647142 7.1242909 1.255263 14 0 0 0 7.7980299
-11.20368 7.2405047 1.3150887 177.75 0 0 0 8.7720547
-10.554152 7.3812404 1.1136699 168 0 0 0 9.3624601
-9.8035679 7.4022369 1.2104105 319.75 0 0 0 9.9476099
-8.7410135 7.4767675 1.271717 474 0 0 0 10.92328
-9.259882 7.5383072 1.0318358 376 0 0 0 10.53656
-8.2658777 7.610096 1.2416512 304 0 0 0 11.50537
-7.8077579 7.7345338 1.2137568 7 0 0 0 12.08941
-7.2645998 7.7371702 1.3015487 374.25 0 0 0 12.67238
-6.687458 7.8588557 1.2646234 353.75 0 0 0 13.45225
-6.2402625 7.9023843 1.2329333 296.5 0 0 0 14.03742
-5.6874886 7.7662044 1.1789298 850.5 0 0 0 14.627035
-5.299737 7.8228054 1.1563857 955 0 0 0 15.22178
39.580158 7.8469987 1.1816641 68 0 0 0 46.440434
44.613445 7.7102947 1.3224058 49 0 0 0 46.834881
-6.734509 -33.766273 1.9921174 50 0 0 0 77.713882
4.8231783 -32.714478 1.9108847 41 0 0 0 72.24427
12.460153 -30.17392 1.873715 16 0 0 0 68.334236
60.85511 -16.899664 1.8752856 19 0 0 0 53.864471
-4.5596652 -9.0580139 1.8579336 5654 0 0 0 82.00444
-4.3895097 -9.2791519 1.8804778 5482 0 0 0 81.617561
-4.6168261 -8.6379757 1.7953494 2136 0 0 0 82.398949
-16.459232 -7.7973127 1.50219 38 0 0 0 92.55397
1.3027774 -7.5807276 1.7942708 34 0 0 0 71.844688
-14.026108 -6.6453347 1.6624192 76 0 0 0 92.55397
-13.873518 -6.9946847 1.6647284 103 0 0 0 92.161507
-13.200061 -6.2570457 1.925874 172 0 0 0 92.55397
-6.1227608 -5.7668409 1.8015419 492.5 0 0 0 87.580078
-3.8928375 -5.7308311 1.7903799 259.66666 0 0 0 84.088112
-10.056723 -5.0738254 1.7722924 87 0 0 0 92.161507
-4.1208062 -5.2355204 1.6892941 284.79999 0 0 0 85.208382
-3.9241145 -5.434885 1.6491054 312 0 0 0 84.542145
-3.1979892 -5.1963081 1.8022716 289.25 0 0 0 83.369057
-4.240593 -4.9239664 1.9192109 403 0 0 0 85.915962
-6.67415 -4.01122 1.8112111 240 0 0 0 91.008545
-7.1106949 -3.7371874 1.8020643 294 0 0 0 91.90316
-6.7031293 -3.808255 1.9194487 302.66666 0 0 0 91.392395
-6.4677191 -3.6745801 1.9140427 419 0 0 0 91.394676
3.5828218 -3.6975133 1.7157973 216.25 0 0 0 62.260162
4.4733167 -3.5103152 1.7474329 167 0 0 0 60.113201
-7.0570946 -3.2787144 1.93615 253 0 0 0 92.682472
-6.9282389 -3.2886567 1.8786114 249 0 0 0 92.550491
3.3741245 -3.3953118 1.7717804 30 0 0 0 62.063553
3.7848542 -3.2509143 1.7611043 118.6 0 0 0 60.816437
4.2216077 -3.0931053 1.6972431 149 0 0 0 59.592991
4.9389834 -3.1458116 1.6532753 297 0 0 0 58.554192
5.2696819 -3.1744595 1.8862253 181 0 0 0 58.16032
-7.1526508 -2.8720005 1.9811523 361.5 0 0 0 93.533432
3.7460041 -2.7480166 1.7391367 136.33333 0 0 0 59.591816
4.4446735 -2.9888849 1.515569 310 0 0 0 58.943161
4.6381974 -2.9537249 1.8254714 170.33333 0 0 0 58.554188
12.783145 3.2051668 1.7055998 382 0 0 0 45.668713
12.701908 3.6886632 1.7116827 477.5 0 0 0 45.074799
16.143955 3.6227615 1.7247684 53 0 0 0 46.050808
-2.6864851 4.2367005 1.7262266 638.125 0 0 0 15.79921
-2.3178566 4.2848983 1.7025651 514.5 0 0 0 16.90996
-1.7560897 4.362 1.6777176 418.13333 0 0 0 18.721039
-1.2362419 4.4245772 1.6394881 449.25 0 0 0 20.48126
-0.84538579 4.4792933 1.6271107 377.88889 0 0 0 21.842558
12.644139 4.1834536 1.7231239 450 0 0 0 44.499008
-31.957718 4.7519026 1.9771595 21 0 0 0 1.951
-0.56720203 4.5115047 1.6233674 376.33334 0 0 0 22.817278
-0.23283805 4.5538964 1.6287222 393.41666 0 0 0 23.989685
0.22048987 4.6101718 1.6488146 346.75 0 0 0 25.552925
0.75265092 4.678721 1.6929717 268.53333 0 0 0 27.31175
1.2658603 4.7429347 1.708028 337.72726 0 0 0 28.898987
1.7300038 4.8018208 1.7578993 361.5 0 0 0 30.230625
2.2618029 4.8671041 1.7318596 497.72726 0 0 0 31.636686
2.7241483 4.9270506 1.7542276 506.5 0 0 0 32.729984
3.1915946 4.983377 1.7395519 644.375 0 0 0 33.741547
12.583481 4.6860504 1.7371552 386 0 0 0 43.910728
-29.091345 5.0546737 1.8088472 61 0 0 0 2.34394
-26.384645 5.2505927 1.649966 42 0 0 0 2.7374599
3.4932196 5.0319839 1.7232891 705.33331 0 0 0 34.328918
3.8055661 5.0652809 1.7809854 684 0 0 0 34.914238
4.2690463 5.1291823 1.7086731 764 0 0 0 35.697369
4.7512293 5.188817 1.76371 664.40002 0 0 0 36.446026
5.2159228 5.2611556 1.8914794 13 0 0 0 37.074379
5.7131019 5.345365 1.8009872 20 0 0 0 37.657814
12.517981 5.1949944 1.7530233 384 0 0 0 43.330021
-24.745806 5.5557051 1.5565764 90 0 0 0 3.1208899
-21.715967 5.9984436 1.9433084 55 0 0 0 3.90575
7.2534685 5.5454597 1.7604333 22 0 0 0 39.2239
7.9649758 5.63555 1.7568879 12 0 0 0 39.80315
8.4927902 5.6989384 1.586718 15 0 0 0 40.204479
9.1083975 5.7894735 1.8072038 10 0 0 0 40.585487
9.6683159 5.8147802 1.7460287 326 0 0 0 40.972439
10.382814 5.8997068 1.6977205 268 0 0 0 41.370941
11.176307 5.9896364 1.8002236 223.5 0 0 0 41.761311
12.456661 5.7180753 1.7727516 411 0 0 0 42.744419
-20.150843 6.098217 1.8170335 172 0 0 0 4.3007202
-18.817005 6.1986623 1.7107086 123 0 0 0 4.6777401
-17.681393 6.3058524 1.621635 21 0 0 0 5.07479
9.176342 6.1542263 1.9852051 26 0 0 0 40.204479
12.12618 6.1176848 1.7571075 171 0 0 0 42.156601
-17.095133 6.5711403 1.582099 69 0 0 0 5.4593601
-15.917168 6.5677276 1.9044008 147 0 0 0 5.8502598
-15.305504 6.7564902 1.8503929 5 0 0 0 6.2448201
-14.207561 6.6884818 1.7374738 237 0 0 0 6.6297002
-13.033436 6.9280624 1.9942031 162 0 0 0 7.4114099
-12.999846 6.9119105 1.6291488 188 0 0 0 7.4114099
-14.109577 7.0688944 1.7453848 19 0 0 0 7.0220399
-12.746207 7.1807294 1.7963296 10 0 0 0 7.7980299
-11.213154 7.2458835 1.803568 179.5 0 0 0 8.7720547
-9.9460583 7.3217716 1.8200064 411.5 0 0 0 9.7512598
-8.721447 7.459157 1.6903878 495.5 0 0 0 10.92328
-9.7115479 7.5209122 1.6584044 8 0 0 0 10.14396
-8.2464275 7.5909886 1.6504304 272.25 0 0 0 11.50537
-7.0314913 7.6780477 1.7882627 588 0 0 0 12.86325
-6.8253508 7.8288698 1.7830192 226.5 0 0 0 13.25173
-6.2563171 7.9240451 1.6082871 8 0 0 0 14.03742
-5.6581197 7.7680421 1.7194567 747.59998 0 0 0 14.666414
-5.2974281 7.8223128 1.7363361 766.66669 0 0 0 15.22178
9.6671095 7.9633837 1.936102 12 0 0 0 38.636593
-17.5212 10.465841 1.7541612 4 0 0 0 8.1966295
-14.496712 10.165418 1.9501799 13 0 0 0 9.3624601
-12.706866 10.374848 1.8051131 25 0 0 0 10.53656
69.06205 -15.571146 2.0897372 5 0 0 0 53.085701
-4.3772793 -9.2555637 2.2521801 5632 0 0 0 81.617561
-4.5564833 -8.8748713 2.1553531 4458 0 0 0 82.135941
-13.654083 -6.8870854 2.0150268 114 0 0 0 92.161507
-6.312748 -6.7236509 2.1997616 105 0 0 0 86.607414
-6.1307821 -6.4489532 2.285836 128 0 0 0 86.702759
-4.1574187 -6.0631542 2.4399769 92.5 0 0 0 84.153778
-3.4281325 -6.2353244 2.2767377 246 0 0 0 82.595688
-12.357548 -5.8579459 2.4818943 53 0 0 0 92.55397
-6.6651406 -5.7600112 2.0462906 113 0 0 0 88.262993
-6.2423029 -5.7367821 2.2314606 241.25 0 0 0 87.774498
-5.9455347 -5.9550805 2.1632931 36 0 0 0 87.097115
-3.9447107 -5.9109912 2.18401 254 0 0 0 83.956787
-6.4523282 -5.305737 2.1468329 137 0 0 0 88.646881
-5.1324568 -5.2033205 2.2459347 211 0 0 0 86.996979
-4.8151422 -5.3206587 2.0279593 168 0 0 0 86.314888
-4.0845537 -5.2420673 2.2062616 391 0 0 0 85.133148
-3.9488292 -5.0697408 2.4506717 317 0 0 0 85.133148
-7.2103877 -4.5772529 2.4048383 100 0 0 0 90.620789
-5.517982 -4.5395994 2.1938906 179 0 0 0 88.646881
-5.4235415 -4.8469701 2.2938554 239.66667 0 0 0 87.997261
-4.3290839 -4.7860203 2.3028305 192 0 0 0 86.314888
-3.1427732 -4.9703016 2.1734884 297.5 0 0 0 83.563362
-2.8962853 -4.9752021 2.1285667 198 0 0 0 82.983582
5.1599865 -4.5829058 2.285265 34 0 0 0 61.083488
-7.6282325 -4.3330231 2.4688768 131 0 0 0 91.394676
-7.1548719 -4.2997384 2.3510187 221 0 0 0 91.008545
-6.7431221 -4.2809658 2.0530536 20 0 0 0 90.620789
3.440428 -4.111877 2.0475183 155 0 0 0 63.442032
4.4793739 -4.078084 2.3072419 199 0 0 0 61.27774
4.8700857 -4.4320025 2.3435919 87 0 0 0 61.27774
5.0134678 -4.3420568 2.3598793 70 0 0 0 60.88924
5.6557884 -4.1042156 2.3982296 125.5 0 0 0 59.527313
-7.4323616 -3.8679504 2.3593056 174 0 0 0 91.967743
-5.8512363 -3.8182936 2.3180575 47 0 0 0 90.423508
-7.7694807 -3.3409448 2.3805208 175.5 0 0 0 93.135071
-7.4277554 -3.3053846 2.4894497 195 0 0 0 92.939476
-6.5682993 -3.1171999 2.0514777 253 0 0 0 92.55397
5.7122173 -3.1571064 2.2413149 101 0 0 0 57.571419
-6.8211479 -2.7376754 2.1621966 116.5 0 0 0 93.533432
4.7331724 -2.9312613 2.1218233 313.5 0 0 0 58.357254
4.813817 -2.435792 2.0564854 35 0 0 0 56.977242
39.500332 -0.031167381 2.1316972 35 0 0 0 49.567352
39.282104 0.93398893 2.1195676 31 0 0 0 49.179073
38.940704 1.8836217 2.1022396 25 0 0 0 48.79195
12.772793 3.202291 2.1938856 361 0 0 0 45.668713
-38.051807 3.7685456 2.335665 38 0 0 0 1.1744601
12.699303 3.6874437 2.2029929 470.5 0 0 0 45.074799
16.168251 3.6309669 2.1353922 62 0 0 0 46.050808
31.167456 3.8284132 2.4801235 33 0 0 0 47.620441
-35.042957 4.3382912 2.1586907 19 0 0 0 1.56552
12.625891 4.1769915 2.21505 431 0 0 0 44.499008
2.250802 4.8718104 2.0440757 400 0 0 0 31.601562
2.7776659 4.9377413 2.099937 462 0 0 0 32.84803
3.1625948 4.9845471 2.1476309 512.33331 0 0 0 33.677399
12.565876 4.6789522 2.2333598 409.75 0 0 0 43.910728
37.917183 4.6499376 2.0580359 26 0 0 0 47.620441
-26.391756 5.2480755 2.317996 46 0 0 0 2.7374599
3.4394004 5.0194826 2.1997192 521 0 0 0 34.230186
3.8069401 5.0668154 2.2511394 558 0 0 0 34.914238
4.2491269 5.1235223 2.2444441 579.14288 0 0 0 35.669006
4.7746863 5.187748 2.237792 515.33331 0 0 0 36.484364
5.2232862 5.2677665 2.2619283 11.666667 0 0 0 37.074379
5.730238 5.33465 2.2286828 17.200001 0 0 0 37.697075
6.2421622 5.4209685 2.1058996 5 0 0 0 38.249001
6.6266737 5.4718423 2.2944953 5.5 0 0 0 38.636593
12.499571 5.186552 2.4213436 373 0 0 0 43.330021
12.503272 5.1884975 2.0865154 376 0 0 0 43.330021
-24.761463 5.5555773 2.1870017 102 0 0 0 3.1208899
-22.987862 5.7499819 2.043241 154 0 0 0 3.51121
-21.714928 5.9990425 2.4883356 45 0 0 0 3.90575
7.1939683 5.5291734 2.2619107 34.599998 0 0 0 39.185097
7.9355259 5.6157479 2.2295296 15 0 0 0 39.80315
8.0125675 5.6693177 2.4921069 7 0 0 0 39.80315
9.1717739 5.8295078 2.3543139 12 0 0 0 40.585487
9.6712379 5.8156867 2.165278 281 0 0 0 40.972439
10.393978 5.9049129 2.2911897 226 0 0 0 41.370941
12.446188 5.7125177 2.2804344 400.5 0 0 0 42.744415
37.471134 5.5325975 2.0402062 25 0 0 0 47.231899
-20.150253 6.0989337 2.326256 173 0 0 0 4.3007202
-18.833324 6.2049766 2.1917193 114 0 0 0 4.6777401
-17.715757 6.3191061 2.0795164 43 0 0 0 5.07479
9.1550446 6.1393971 2.2523177 22 0 0 0 40.204479
11.207956 6.0057034 2.2779746 206 0 0 0 41.761311
12.129051 6.1183167 2.262749 145.5 0 0 0 42.156601
37.423019 6.4684286 2.0449297 44 0 0 0 46.834881
-17.069344 6.5609121 2.2455673 59.5 0 0 0 5.4593601
-15.91622 6.5650744 2.3255363 160 0 0 0 5.8502598
-15.218955 6.7158709 2.2469804 7 0 0 0 6.2448201
-14.21517 6.6900787 2.1226206 200 0 0 0 6.6297002
-13.857028 6.9405575 2.4751277 131 0 0 0 7.0220399
-13.017702 6.9206991 2.3547852 167 0 0 0 7.4114099
-14.122247 7.0732889 2.1332538 13 0 0 0 7.0220399
-12.604616 7.1005435 2.3104243 16 0 0 0 7.7980299
-12.108498 7.2150459 2.2508688 6 0 0 0 8.1966295
-11.353024 7.1442013 2.3072462 323.5 0 0 0 8.5778198
-10.870116 7.3426652 2.3092928 20 0 0 0 9.0983467
-9.8031387 7.4035411 2.2637138 181 0 0 0 9.9476099
-8.7144928 7.4557357 2.2529321 470.5 0 0 0 10.92328
-9.2471685 7.5315771 2.4887629 344 0 0 0 10.53656
-8.2485056 7.5958233 2.2021325 264 0 0 0 11.50537
-7.7898188 7.719523 2.2872725 17 0 0 0 12.08941
-7.0256557 7.673182 2.2959814 515.5 0 0 0 12.86325
-6.7346215 7.8530731 2.3240881 95.333336 0 0 0 13.385409
-5.706109 7.7559838 2.2878687 623.59998 0 0 0 14.587656
-5.2868137 7.8078494 2.3089161 601 0 0 0 15.22178
9.6711674 7.9657993 2.2474115 14 0 0 0 38.636593
9.5671082 8.2834797 2.2698443 27 0 0 0 38.249001
44.284954 8.7783651 2.4238892 24 0 0 0 46.440434
9.5280132 9.1061029 2.3631279 18 0 0 0 37.461514
9.4789848 9.5157356 2.4079335 17 0 0 0 37.074379
-17.551464 10.485637 2.2520037 9 0 0 0 8.1966295
-14.542105 10.195342 2.3911078 19 0 0 0 9.3624601
-12.717579 10.381733 2.2085459 28 0 0 0 10.53656
-10.684823 10.618442 2.3951166 18 0 0 0 12.08941
-10.244293 10.690117 2.3533993 29 0 0 0 12.48151
-1.6076541 -32.400814 2.6865087 16 0 0 0 75.369667
-79.818161 -13.884748 2.5207226 15 0 0 0 96.850914
-80.250961 -11.940002 2.5216072 25 0 0 0 97.240509
-80.706757 -9.991066 2.5247664 23 0 0 0 97.629326
-4.542058 -9.0273705 2.8455417 5655 0 0 0 82.00444
-4.3498969 -9.1999741 2.7390723 5309 0 0 0 81.617561
-4.7770715 -8.9419451 2.6027641 5554 0 0 0 82.398949
-4.4978929 -8.9394293 2.5698152 5592 0 0 0 82.00444
88.334023 -8.7723417 2.5888293 17 0 0 0 51.126202
-14.354478 -7.6872644 2.5466244 49 0 0 0 91.773972
-15.297572 -7.2505279 2.6448886 108 0 0 0 92.55397
-14.416878 -7.2715111 2.9244974 54 0 0 0 92.161507
-13.529834 -7.2458849 2.7821245 61 0 0 0 91.773972
-14.72569 -6.5423517 2.9173684 91 0 0 0 92.939476
