# .PCD v0.7 - Point Cloud Data file format
VERSION 0.7
FIELDS x y z intensity normal_x normal_y normal_z curvature
SIZE 4 4 4 4 4 4 4 4
TYPE F F F F F F F F
COUNT 1 1 1 1 1 1 1 1
WIDTH 907
HEIGHT 1
VIEWPOINT 0 0 0 1 0 0 0
POINTS 907
DATA ascii
-6.8941026 -0.17158961 -0.75929195 38.666668 0 0 0 99.279076
-5.8478374 -0.21661887 -0.78407955 47 0 0 0 99.085526
-5.0488014 -0.37170842 -0.79512453 29 0 0 0 98.501465
-4.9841013 -0.12107085 -0.7822938 21 0 0 0 99.28212
-4.380868 -0.26905346 -0.7950021 16.75 0 0 0 98.696632
-3.9130027 -0.38514814 -0.80439043 15 0 0 0 98.110191
3.8973968 -0.21447782 -0.79811364 31 0 0 0 50.464886
4.4837718 -0.27898771 -0.81256258 76 0 0 0 50.583874
4.5284381 -0.001544426 -0.81921381 78 0 0 0 49.603802
5.185627 -0.19439429 -0.81274307 92.5 0 0 0 50.192394
6.1835194 -0.2295638 -0.82614756 176.75 0 0 0 50.192394
7.830337 -0.28928059 -0.86003816 100.5 0 0 0 50.193172
10.05322 -0.25031549 -0.86515158 114 0 0 0 49.996716
13.634266 -0.17209429 -0.84746087 42 0 0 0 49.799137
21.397976 -0.0072169001 -0.82548702 27 0 0 0 49.603802
-16.463938 0.002792825 -0.64590752 16 0 0 0 99.662941
-15.780313 0.39078245 -0.62475157 35 0 0 0 0
-11.235672 0.0017984553 -0.70447999 71 0 0 0 99.662941
-10.903658 0.26989624 -0.68721253 122 0 0 0 0
-8.370677 0.20565091 -0.72418743 154.66667 0 0 0 33.352936
-6.8210945 0.24971996 -0.75066304 128.5 0 0 0 0.197935
-5.7559824 0.21087646 -0.76876706 81.5 0 0 0 0.197935
-4.7863612 0.27810791 -0.71502507 47.42857 0 0 0 14.85717
-4.3512063 0.21182112 -0.78295183 21 0 0 0 20.405899
3.8947864 0.28704056 -0.79878342 26.4 0 0 0 48.437218
4.4380355 0.27255324 -0.80431467 38.5 0 0 0 48.63327
5.2036572 0.25469884 -0.81625992 102.66666 0 0 0 48.830292
6.2261224 0.30625662 -0.83265686 139 0 0 0 48.830292
7.8985448 0.19466716 -0.86783171 123 0 0 0 49.219284
10.134178 0.37115332 -0.87283409 120.5 0 0 0 49.027023
13.653347 0.33125025 -0.84900051 74 0 0 0 49.220299
-10.804212 0.53316778 -0.68115538 33 0 0 0 0.39587
-5.6035523 0.68351644 -0.75076979 93 0 0 0 1.5647399
-5.4943557 0.94234151 -0.74132711 115 0 0 0 2.3512599
-4.7516313 0.77529985 -0.74835223 45.333332 0 0 0 2.2185266
-4.237329 0.68409944 -0.75452435 35 0 0 0 2.2004099
4.3712454 0.76244986 -0.80327207 33.599998 0 0 0 46.87257
5.14363 0.69940716 -0.81369567 52.75 0 0 0 47.457783
6.16044 0.7624734 -0.82934093 102 0 0 0 47.654541
7.9645944 0.58977163 -0.87761378 117 0 0 0 48.436832
8.0395145 0.89541858 -0.88962221 119 0 0 0 47.847603
10.180972 0.74969095 -0.87899154 66 0 0 0 48.436832
13.702572 0.66993088 -0.85311294 83 0 0 0 48.833752
23.231348 0.56311798 -0.89971608 34 0 0 0 49.220299
-7.857995 1.3550076 -0.68928498 35 0 0 0 2.3512599
-6.3873272 1.2565202 -0.7141788 57.333332 0 0 0 2.7397268
-5.3005266 1.2432044 -0.72383815 48.25 0 0 0 3.3224623
-4.5593901 1.1855632 -0.73208779 40.25 0 0 0 3.7128649
-4.1872354 1.1855204 -0.74168307 19.666666 0 0 0 4.034513
-3.8972003 1.3181399 -0.73571253 20.25 0 0 0 4.8805175
4.2218924 1.2887199 -0.79955661 59.799999 0 0 0 44.923592
4.9995003 1.3898211 -0.81379229 97 0 0 0 45.310791
5.0685596 1.1430169 -0.81478572 90.333336 0 0 0 46.0923
6.0782199 1.2139755 -0.82846731 146.33333 0 0 0 46.48048
8.0466375 1.2993786 -0.89696407 146.5 0 0 0 47.067963
10.22978 1.134793 -0.88680357 130.5 0 0 0 47.847603
13.724697 1.1803132 -0.85707259 66.5 0 0 0 48.23951
23.485653 1.1471745 -0.91099763 51 0 0 0 48.833752
-10.023914 1.7322627 -0.6409986 167 0 0 0 2.3512599
-9.9164209 1.9637235 -0.63710696 57 0 0 0 2.7395799
-7.6505775 1.7051826 -0.67757398 154.66667 0 0 0 3.1273632
-6.1419301 1.6812519 -0.69843358 83 0 0 0 3.9077065
-5.9740729 1.9516113 -0.68909431 234 0 0 0 4.6816101
-5.079576 1.6570171 -0.71022052 76.666664 0 0 0 4.6850567
-4.8694601 1.9215567 -0.69541216 84 0 0 0 5.6642699
-4.1963625 1.7713031 -0.70801854 39.5 0 0 0 6.0511098
-3.71226 1.6168636 -0.72403067 18.333334 0 0 0 6.2477698
4.1035905 1.773947 -0.8106491 147.5 0 0 0 43.165466
4.9167652 1.6996421 -0.8166523 231.5 0 0 0 44.33968
5.945097 1.7329668 -0.82838285 373.5 0 0 0 45.117943
7.7256713 1.7404591 -0.87104368 353.66666 0 0 0 46.0923
10.214334 1.6444929 -0.89193124 201.5 0 0 0 47.067963
13.832011 1.7049156 -0.86774379 80 0 0 0 47.653019
23.822783 1.7512226 -0.92627263 28 0 0 0 48.436832
-14.284382 2.4743192 -0.57712495 111 0 0 0 2.3512599
-9.7761679 2.3098335 -0.63341039 188 0 0 0 3.321255
-7.3586946 2.2145514 -0.66430467 225.66667 0 0 0 4.2968531
-5.7762737 2.2827296 -0.68134105 181 0 0 0 5.6608229
-4.6130977 2.2335632 -0.6306712 149.60001 0 0 0 6.869216
-4.4493246 2.4142618 -0.6720444 83.5 0 0 0 7.6145749
-3.7887044 2.2858746 -0.6723386 90.285713 0 0 0 8.365407
3.2966363 2.3240371 -0.71829265 64.818184 0 0 0 39.913448
3.7162175 2.3456631 -0.73531103 105.88889 0 0 0 40.708584
4.1933627 2.3662827 -0.68255347 157.89999 0 0 0 41.482292
4.7200294 2.2877936 -0.75058615 271 0 0 0 42.466175
5.3404231 2.4433742 -0.66669536 300.79999 0 0 0 42.812424
5.7735982 2.306263 -0.73693001 294 0 0 0 43.597485
6.3732443 2.4703975 -0.6634624 205.5 0 0 0 43.754528
6.9301252 2.4903841 -0.71719629 222 0 0 0 44.146179
7.2351251 2.2039068 -0.8309266 200 0 0 0 44.922932
9.376503 2.353277 -0.83179373 277 0 0 0 45.702969
9.5201883 2.1415005 -0.8397035 263 0 0 0 46.095779
10.067451 2.0051482 -0.88493729 186 0 0 0 46.478153
13.714142 2.2090044 -0.86519051 117 0 0 0 47.067963
24.121336 2.370261 -0.94067186 18 0 0 0 48.042191
-14.079913 2.7946355 -0.57156748 87 0 0 0 2.7395799
-9.5394716 2.6259732 -0.62373358 187 0 0 0 3.9077599
-9.4403315 2.848031 -0.62178731 81 0 0 0 4.3011899
-7.1544018 2.6376212 -0.65938509 209 0 0 0 5.2696352
-6.9972072 2.8743443 -0.65413022 274 0 0 0 5.86164
-5.5364199 2.5877376 -0.67000294 192 0 0 0 6.6392899
-4.147706 2.8029163 -0.66508687 145.25 0 0 0 9.1746302
-3.5024276 2.5534499 -0.6729182 125 0 0 0 9.7642498
-3.3475788 2.6987388 -0.66775244 82 0 0 0 10.537044
7.5566564 2.5045521 -0.67944109 139 0 0 0 44.53336
8.2974758 2.5239661 -0.63588405 144.5 0 0 0 44.924648
9.1956711 2.5504131 -0.70267618 159.5 0 0 0 45.310791
10.223037 2.5651174 -0.64864302 75 0 0 0 45.702969
11.629909 2.6145115 -0.73794603 60 0 0 0 46.095779
13.356556 2.6582742 -0.68093938 99 0 0 0 46.478153
23.057903 2.8395174 -0.90047282 19 0 0 0 47.653019
36.299549 2.6737123 -0.53969687 22 0 0 0 48.436832
-13.772843 3.2611303 -0.56377387 75.5 0 0 0 3.321255
-9.2201824 3.1529531 -0.61448133 215 0 0 0 4.8769903
-8.9577904 3.4344621 -0.60473388 236 0 0 0 5.4668999
-6.832037 3.1021476 -0.64888728 153 0 0 0 6.440835
-5.1013169 3.1900942 -0.65993297 238 0 0 0 8.5891104
-4.9489193 3.3519902 -0.65564466 281.5 0 0 0 9.1725807
-3.8831775 3.1371374 -0.66363627 167.33333 0 0 0 10.537044
2.4411244 3.4327188 -0.76419187 144 0 0 0 34.55777
2.5417874 3.2305007 -0.64142817 99.199997 0 0 0 35.336433
-13.537881 3.7351565 -0.55971479 62 0 0 0 3.9077599
-8.7894258 3.7439704 -0.60248184 222.5 0 0 0 6.0520101
-6.2172561 3.9001067 -0.63481343 339 0 0 0 8.5891104
-4.6886163 3.610183 -0.64915222 276.66666 0 0 0 10.148263
-4.469193 3.8018954 -0.64350355 271 0 0 0 10.93059
-2.0992875 3.6087067 -0.64975637 94.666664 0 0 0 16.395971
-1.7304415 3.7818508 -0.64793646 91 0 0 0 17.958052
-1.3420855 3.903703 -0.64298654 72.333336 0 0 0 19.518797
1.7730515 3.6055572 -0.72802019 64.400002 0 0 0 32.018467
2.1974485 3.5332282 -0.75468987 114.33334 0 0 0 33.577515
2.5336571 3.7538705 -0.65507007 135.75 0 0 0 34.164825
37.286411 3.6689785 -0.55703104 66 0 0 0 48.042191
-13.386053 4.2265692 -0.5601086 42 0 0 0 4.4913998
-8.6151257 4.0484262 -0.60046923 212 0 0 0 6.6392899
-6.1185298 4.0493779 -0.6347819 305 0 0 0 8.9804602
-5.8972707 4.3309875 -0.63333613 335.33334 0 0 0 9.758523
-2.5938334 4.1164646 -0.64768791 110 0 0 0 15.809456
-2.266695 4.2597389 -0.64250982 167.75 0 0 0 16.981514
-1.8309225 4.4420857 -0.63992345 137 0 0 0 18.544737
-1.1154264 4.035511 -0.65292615 89 0 0 0 20.496246
-0.76729691 4.1345243 -0.65671617 56.599998 0 0 0 21.859604
-0.2570622 4.2276721 -0.66219431 65.800003 0 0 0 23.811966
0.26938981 4.2841196 -0.67194831 54.400002 0 0 0 25.765976
0.75827485 4.3155107 -0.68663621 87.5 0 0 0 27.528591
1.2598635 4.2934833 -0.70211762 109 0 0 0 29.282673
1.7683978 4.2228804 -0.71883011 113.75 0 0 0 31.038847
2.2328935 4.1288185 -0.73762602 151.75 0 0 0 32.604401
2.5296226 4.1531925 -0.62177676 161.2 0 0 0 33.421959
-13.047876 4.6521273 -0.55275822 68 0 0 0 5.0723701
-12.826955 4.9296479 -0.54839605 51 0 0 0 5.4668999
-5.6048245 4.6677046 -0.6315046 291.5 0 0 0 10.732255
-3.0779319 4.9011583 -0.63564992 206 0 0 0 15.809456
-1.5565728 4.548718 -0.64026016 125 0 0 0 19.515989
-1.2223432 4.6702056 -0.64366484 137.8 0 0 0 20.69017
-0.71355033 4.876853 -0.65810686 115 0 0 0 22.444159
-0.2322389 4.9463577 -0.66150719 101.75 0 0 0 24.008259
0.13475199 4.992795 -0.66738689 81.5 0 0 0 25.178944
1.4661416 4.9834571 -0.69520992 182 0 0 0 29.278721
1.7363278 4.9759183 -0.70578861 260.66666 0 0 0 30.062796
2.3032429 4.960155 -0.7332918 202.66667 0 0 0 31.626677
2.545799 4.707077 -0.64985782 177.5 0 0 0 32.606155
-12.463717 5.1425047 -0.53770024 150 0 0 0 5.86164
-11.630342 5.1330166 -0.50513059 79 0 0 0 6.2423801
-8.1193514 5.1061168 -0.60635746 194 0 0 0 8.5891104
-7.8163109 5.1851916 -0.59227276 482 0 0 0 8.9804602
-7.2653818 5.2083845 -0.5628767 331.5 0 0 0 9.5644751
-6.7658424 5.2358851 -0.53714454 291 0 0 0 10.14662
-6.2949224 5.24718 -0.51311386 354.5 0 0 0 10.732255
-3.2293367 5.2931061 -0.53193921 551.33331 0 0 0 16.004225
-2.7107463 5.1838927 -0.58059466 384 0 0 0 17.065477
-2.2445037 5.283535 -0.63055068 382.66666 0 0 0 18.349573
-1.7384775 5.3114338 -0.61298019 415 0 0 0 19.715418
-1.2512171 5.3321204 -0.59990239 246.66667 0 0 0 21.078466
-0.77620637 5.326354 -0.5890646 198.75 0 0 0 22.444157
-0.24785957 5.3426347 -0.58505321 289 0 0 0 24.008259
0.31479695 5.248138 -0.61607403 206.33333 0 0 0 25.702688
0.75755227 5.1831193 -0.64435428 160.14285 0 0 0 27.051023
1.2225783 5.2241187 -0.6414572 231 0 0 0 28.393108
1.7327085 5.3821182 -0.61949426 322 0 0 0 29.672043
2.1542315 5.3070974 -0.66141868 319.25 0 0 0 30.842543
2.5191805 5.3088059 -0.59532064 259 0 0 0 31.754374
5.8018646 -6.7556405 -0.33150151 38 0 0 0 63.287292
-11.780836 -6.298028 -0.19488379 157 0 0 0 91.862518
5.151691 -6.3046093 -0.49959886 7 0 0 0 63.678848
5.9390669 -6.2630715 -0.31946453 23 0 0 0 62.499912
6.0786715 -6.1028981 -0.31841856 6 0 0 0 62.11742
-27.787985 -5.5281167 -0.44819185 45 0 0 0 96.544334
-2.7332802 -5.7651534 -0.23169494 946.33331 0 0 0 81.684158
6.9284873 -5.9985886 -0.3400735 21 0 0 0 60.940647
7.6894441 -5.8698101 -0.36014283 7 0 0 0 59.964149
8.1800699 -5.7804422 -0.3735944 8 0 0 0 59.373539
8.7581377 -5.7140379 -0.39104542 28 0 0 0 58.784855
-2.1038337 -5.2427521 -0.27041066 471 0 0 0 80.70929
-2.7061048 -4.5075808 -0.056074582 404 0 0 0 83.250923
-2.314898 -4.5866089 -0.33052617 539 0 0 0 82.077293
14.95925 -4.5481701 -0.21393718 124 0 0 0 54.29063
-2.538269 -4.4711256 -0.24244682 512.5 0 0 0 82.863045
-2.3385673 -4.4277525 -0.1762384 504.5 0 0 0 82.374718
-15.945279 -3.5817831 -0.24349406 59 0 0 0 96.149773
-7.0801306 -3.5637219 -0.29427367 531 0 0 0 92.250069
-13.527074 -3.3896382 -0.20269281 113 0 0 0 95.764786
-11.0021 -3.0461087 -0.1595473 165 0 0 0 95.385635
-8.2349472 -3.4125741 -0.11737315 64 0 0 0 93.423035
-6.3219767 -3.3791401 -0.26273417 442 0 0 0 91.862518
-5.6206527 -3.3687627 -0.39746416 149 0 0 0 91.089729
-5.0666213 -3.2975705 -0.21467602 247.5 0 0 0 90.496964
-4.2044597 -3.3214631 -0.35365689 179.5 0 0 0 89.024933
-3.8963869 -3.3597567 -0.43153509 308 0 0 0 88.335281
-3.3592334 -3.2275958 -0.18426815 102 0 0 0 87.482834
-2.7297275 -3.0586836 -0.16832928 60.333332 0 0 0 86.254433
2.7349622 -3.1140254 -0.18601134 97.25 0 0 0 63.090446
3.2519743 -3.0384037 -0.21989204 135.75 0 0 0 61.526714
-7.5085564 -2.6867454 -0.29568076 163 0 0 0 94.21917
-6.2087536 -2.8458648 -0.24730429 254.75 0 0 0 92.834007
-5.173593 -2.764431 -0.30427498 209 0 0 0 91.862602
-4.8413687 -2.6681657 -0.25585321 82 0 0 0 91.668869
-3.7299759 -2.692219 -0.25959477 152.53334 0 0 0 89.72686
-3.2035859 -2.7388313 -0.30758375 63.400002 0 0 0 88.417992
-2.9977863 -2.9978416 -0.45338002 37 0 0 0 87.169838
3.6806211 -2.9364531 -0.21971686 218 0 0 0 60.288731
4.2686439 -2.8971906 -0.14853983 357.60001 0 0 0 59.060192
4.7189612 -2.7842185 -0.23727976 317 0 0 0 58.053669
5.2902198 -2.741195 -0.20615181 445 0 0 0 57.180786
5.8137298 -2.6572628 -0.22338513 443 0 0 0 56.399529
6.2797384 -2.6128542 -0.07323385 204 0 0 0 55.857433
6.6269054 -2.568007 -0.16501537 253 0 0 0 55.464394
-6.8081512 -2.0668411 -0.085914686 182 0 0 0 94.992683
-6.3772984 -2.2807097 -0.32785383 278 0 0 0 94.212212
-5.2405405 -2.0221665 -0.19755207 225 0 0 0 93.821106
-4.7715759 -2.1161177 -0.18172161 192 0 0 0 93.033112
-4.237114 -2.1348386 -0.27324584 119 0 0 0 92.250069
-3.5428486 -2.0076554 -0.33342704 110 0 0 0 91.475212
-3.4453328 -2.2232733 -0.23612374 56 0 0 0 90.561867
6.893199 -2.4775801 -0.17145275 274.5 0 0 0 55.074341
7.0865593 -2.3518121 -0.26637065 553.66669 0 0 0 54.69067
7.6227384 -2.3230407 -0.28626359 558 0 0 0 54.29063
8.1441412 -2.264004 -0.30564812 534 0 0 0 53.910831
8.884409 -2.2344422 -0.22137748 639.5 0 0 0 53.514526
9.4652481 -2.1339903 -0.23727059 608.5 0 0 0 53.118111
10.080582 -2.0131221 -0.25211167 449.5 0 0 0 52.726761
-30.747141 -1.5106601 -0.4872897 7 0 0 0 98.892151
-5.6971092 -1.8837551 -0.066877142 283 0 0 0 94.603317
-4.8436074 -1.8012688 -0.052690808 385 0 0 0 94.020142
10.64608 -1.8547056 -0.26712787 521.5 0 0 0 52.342567
11.586085 -1.7266216 -0.43628642 400 0 0 0 51.94957
12.209522 -1.8171846 -0.15948696 561 0 0 0 51.94957
12.838496 -1.590076 -0.32641852 385 0 0 0 51.554848
14.204732 -1.4040546 -0.18964 318 0 0 0 51.169712
15.478032 -1.1462433 -0.20915751 179 0 0 0 50.77943
19.650614 -0.96984226 -0.27464575 171 0 0 0 50.391872
20.242918 -0.50080544 -0.28349403 98 0 0 0 49.994473
25.679113 -0.0041238214 -0.36946765 42 0 0 0 49.603802
-4.5337319 0.3664104 -0.44790611 113.33334 0 0 0 0.92104667
-4.3947043 0.34337315 -0.16100401 167.77777 0 0 0 0.87578326
-4.3016572 0.57587206 -0.25218505 108.6 0 0 0 1.7597901
25.697142 0.62738901 -0.37002575 37 0 0 0 49.220299
26.746258 1.311036 -0.38720456 30 0 0 0 48.833752
-4.5341997 2.3209672 -0.42756641 230.5 0 0 0 7.2201648
-4.2428064 2.2931051 -0.23884536 212.07692 0 0 0 7.598455
-3.9594464 2.3345506 -0.49392319 97 0 0 0 8.1972103
3.324672 2.4282594 -0.23504376 59 0 0 0 39.647457
3.7367127 2.4533081 -0.25726038 89.400002 0 0 0 40.427616
4.185904 2.4582639 -0.22202131 163.5 0 0 0 41.206146
4.7217288 2.4651923 -0.24688102 227.75 0 0 0 41.992741
5.2640662 2.4349952 -0.24005267 310.71429 0 0 0 42.744072
5.8788276 2.4479053 -0.22294314 399 0 0 0 43.36224
6.3370357 2.4560015 -0.23997621 367.33334 0 0 0 43.754528
6.8842373 2.4734867 -0.26102033 337 0 0 0 44.146179
7.5136523 2.4911873 -0.28474388 287.33334 0 0 0 44.53336
-4.1949153 2.6169422 -0.054883275 279 0 0 0 8.5891104
8.2498388 2.5106657 -0.20712122 247 0 0 0 44.924648
9.1291199 2.5332284 -0.23120546 232 0 0 0 45.310791
10.236542 2.569705 -0.26170605 182 0 0 0 45.702969
11.567668 2.6018939 -0.29768392 123 0 0 0 46.095779
13.258124 2.641423 -0.17864551 83 0 0 0 46.478153
2.5895891 3.2882919 -0.24049583 73.300003 0 0 0 35.335102
2.5813522 3.7289643 -0.26350817 114.8 0 0 0 34.36042
-24.507191 4.2504706 -0.41082287 21 0 0 0 2.3512599
2.5799968 4.2578621 -0.23214577 134 0 0 0 33.383411
-24.251064 4.820116 -0.40899616 25 0 0 0 2.7395799
2.5756869 4.7599783 -0.25543073 170.875 0 0 0 32.606155
31.402296 4.6571646 -0.46731582 17 0 0 0 47.268421
-24.160284 5.4199505 -0.41042823 20 0 0 0 3.12834
-16.805479 5.0841284 -0.282235 51 0 0 0 4.3011899
-15.399583 5.0712581 -0.25832516 75 0 0 0 4.6816101
-14.294121 5.0962496 -0.23990087 97 0 0 0 5.0723701
-13.30078 5.1102552 -0.22342198 142 0 0 0 5.4668999
-12.443297 5.1316509 -0.20939003 136 0 0 0 5.86164
-11.631563 5.1312728 -0.19606303 192 0 0 0 6.2423801
-10.936639 5.1470289 -0.33183739 146 0 0 0 6.6392899
-8.6996441 5.1802711 -0.27280354 138 0 0 0 8.1972103
-8.2331009 5.1782718 -0.37874755 256 0 0 0 8.5891104
-7.856226 5.210948 -0.25171489 353 0 0 0 8.9804602
-7.2701283 5.2108212 -0.23702429 488.25 0 0 0 9.5644751
-6.7431622 5.2172127 -0.22448708 508 0 0 0 10.14662
-6.2745934 5.2290525 -0.2135818 555 0 0 0 10.732255
-5.8448319 5.2452979 -0.29928792 480.33334 0 0 0 11.318881
-3.2247608 5.2845373 -0.22837907 917.44446 0 0 0 16.004225
-2.7188025 5.2892694 -0.21782012 742.11108 0 0 0 17.177431
-2.2491503 5.2971802 -0.27995291 579.5 0 0 0 18.349573
-1.7351947 5.3060555 -0.27016696 533.375 0 0 0 19.715418
-1.2472966 5.3202596 -0.26342562 421.91666 0 0 0 21.078466
-0.77508163 5.3269887 -0.25876057 400.25 0 0 0 22.444155
-0.24628596 5.3315821 -0.25583667 485.875 0 0 0 24.008257
0.28010258 5.3442636 -0.25630268 458.25 0 0 0 25.571754
0.74734539 5.3553848 -0.25881073 388 0 0 0 26.938768
1.2281241 5.3618526 -0.26346213 415.5625 0 0 0 28.309538
1.7274842 5.3627982 -0.27012038 553.5 0 0 0 29.672043
2.2076187 5.3745465 -0.26209927 586.15387 0 0 0 30.903759
2.5413425 5.2423286 -0.27850211 260.16666 0 0 0 31.884506
-23.578455 5.898756 -0.40297198 19 0 0 0 3.5141699
31.807264 5.5188065 -0.47636947 47 0 0 0 46.8675
-23.379082 6.4607878 -0.40280297 24 0 0 0 3.9077599
-28.112675 -36.027134 0.34955883 19 0 0 0 85.200302
-29.499846 -35.950329 0.35567805 28 0 0 0 85.598358
-24.827042 -35.254311 0.33088994 4 0 0 0 84.42041
-23.375402 -34.985607 0.32331759 34 0 0 0 84.027901
-13.059098 -33.845665 0.28148443 25 0 0 0 80.509796
27.086065 -33.025375 0.35712981 19 0 0 0 63.678848
-20.837494 -32.906666 0.30159292 30 0 0 0 83.63517
-14.358935 -32.387398 0.27604556 14 0 0 0 81.296875
-13.338256 -32.194012 0.27195978 21 0 0 0 80.908783
-11.194281 -31.274652 0.26069644 63 0 0 0 80.11615
-21.136274 -28.500965 0.2790823 41 0 0 0 84.806831
24.51895 -27.072252 0.31355166 11 0 0 0 62.888832
35.583721 -25.073694 0.38262069 15 0 0 0 59.373539
36.697639 -24.532887 0.38936529 30 0 0 0 58.98418
31.180637 -24.347893 0.34776914 17 0 0 0 60.16013
14.160439 -23.653357 0.23747586 33 0 0 0 66.025719
14.480097 -22.89357 0.23492432 43 0 0 0 65.635361
15.196742 -22.769442 0.23798914 50 0 0 0 65.250282
15.990213 -22.729231 0.24204877 57 0 0 0 64.861542
16.799068 -22.67481 0.24626803 34 0 0 0 64.463287
47.971981 -22.698042 0.47318482 5 0 0 0 56.634472
21.215509 -22.302805 0.2712332 33 0 0 0 62.499912
49.936844 -17.874784 0.48004016 13 0 0 0 55.074341
-56.593727 -8.4048233 0.45786071 10 0 0 0 97.333939
6.932888 -6.786581 0.11122728 51 0 0 0 61.919144
7.1362066 -6.3283129 0.11076507 36 0 0 0 61.134262
-2.7364168 -5.7759471 0.079516493 2094 0 0 0 81.684158
-2.7005541 -4.5000567 0.071894549 429 0 0 0 83.250923
-2.2687776 -4.6197968 0.28883043 555.85712 0 0 0 81.908066
-20.439758 -4.0703673 0.18892057 135 0 0 0 96.544334
-2.5455623 -4.4861288 0.13543536 905 0 0 0 82.863045
-2.3436484 -4.3761277 0.25561151 605.5 0 0 0 82.474289
-14.0343 -3.1552808 0.14127912 65 0 0 0 96.149773
-5.5673227 -3.3394668 0.082060717 99 0 0 0 91.089729
-4.1314926 -3.2254236 0.24320994 159 0 0 0 89.123146
-3.8112421 -3.3693695 0.13403715 139.5 0 0 0 88.142967
-3.2338421 -3.2327902 0.29306892 178 0 0 0 87.169838
-2.7829006 -3.143569 0.14174366 135.5 0 0 0 86.193817
2.6773829 -3.1271138 0.067735374 13 0 0 0 63.294201
-10.633724 -2.6659613 0.25394753 296.5 0 0 0 95.764786
-10.090257 -2.7956932 0.11226834 178 0 0 0 95.385635
-6.448719 -2.6741056 0.086238183 106 0 0 0 93.423035
-3.7532487 -2.7283084 0.20611361 109.2 0 0 0 89.673676
-3.1840808 -2.6142862 0.064853974 35 0 0 0 88.730232
-2.7188303 -2.998976 0.36374804 74 0 0 0 86.382919
3.5317764 -2.9172182 0.12969567 199.5 0 0 0 60.548393
4.7259331 -2.7685242 0.14965135 141.25 0 0 0 58.005096
5.2460427 -2.8170896 0.085278131 6 0 0 0 57.413261
5.9271417 -2.639173 0.17140684 517.5 0 0 0 56.242901
-6.1676168 -2.2097025 0.083370082 199 0 0 0 94.21917
-4.5970111 -2.0394232 0.19735774 342 0 0 0 93.033112
-3.7043049 -2.1622758 0.27426505 45 0 0 0 91.279793
7.0672693 -2.3433635 0.099248163 592 0 0 0 54.69067
9.5016222 -2.1396828 0.11955445 561 0 0 0 53.118111
-6.6675386 -1.8467281 0.42800054 827 0 0 0 95.385635
-6.2791724 -1.8491651 0.19246526 570.33331 0 0 0 95.123665
-5.2913451 -1.7490209 0.30551302 411.5 0 0 0 94.604195
-4.7096229 -1.8176593 0.26903519 248.14285 0 0 0 93.821106
-4.2606888 -1.8401282 0.25149688 143.39999 0 0 0 93.189606
-3.7582989 -1.8472754 0.29208478 96.5 0 0 0 92.405907
10.690074 -1.8595747 0.12948287 486 0 0 0 52.342567
11.87956 -1.7661344 0.13962892 84 0 0 0 51.94957
13.089077 -1.6176434 0.14996423 286 0 0 0 51.554848
14.344557 -1.4153571 0.16071916 348 0 0 0 51.169712
15.474608 -1.1432952 0.17043297 289 0 0 0 50.77943
18.004559 -0.88556945 0.19228299 110 0 0 0 50.391872
20.242779 -0.49724001 0.21169403 118 0 0 0 49.994473
-4.5098276 0.21934946 0.28218105 77 0 0 0 0.39587
-4.3169479 0.31905454 0.2909053 165.3125 0 0 0 0.81260431
-4.3152833 0.61202854 0.29323298 150.63637 0 0 0 1.8850617
25.757267 0.63345826 0.25901484 68 0 0 0 49.220299
26.760365 1.3165544 0.26768073 134 0 0 0 48.833752
-4.2148643 2.248528 0.25173235 278.61111 0 0 0 7.5044632
3.2778587 2.3839812 0.15000579 101.6 0 0 0 39.686985
3.7466376 2.3932753 0.18297145 124.88889 0 0 0 40.622757
4.3121486 2.3922293 0.19919963 188.83333 0 0 0 41.59977
4.7531805 2.4110031 0.14730293 283 0 0 0 42.1852
5.2773304 2.4316115 0.22983402 454 0 0 0 42.772552
5.8438239 2.4351079 0.2469437 535.33331 0 0 0 43.36224
6.3092504 2.4470556 0.26137045 561.33331 0 0 0 43.754528
6.8453617 2.4614394 0.27829418 526 0 0 0 44.146179
7.491333 2.4857759 0.29936489 430.33334 0 0 0 44.53336
-4.1909738 2.6141453 0.18492703 320 0 0 0 8.5891104
5.1792884 2.6251249 0.37247774 754 0 0 0 42.1852
8.2321014 2.5072002 0.21699774 359.5 0 0 0 44.924648
9.0959902 2.5261292 0.23449832 378.5 0 0 0 45.310791
10.17428 2.5563745 0.25696138 264 0 0 0 45.702969
11.481462 2.5840669 0.43127358 231 0 0 0 46.095779
11.518302 2.5942647 0.13728051 214 0 0 0 46.095779
13.215848 2.6345053 0.31990236 169.5 0 0 0 46.478153
36.267361 2.6779561 0.34986085 22 0 0 0 48.436832
2.5440998 3.3185434 0.22348315 130.91667 0 0 0 35.140602
2.5426006 3.7710021 0.1829337 177.5 0 0 0 34.164825
32.357059 3.9950888 0.31667399 246 0 0 0 47.653019
37.314911 3.6786649 0.35917091 52 0 0 0 48.042191
-24.400934 4.2280507 0.1942403 86 0 0 0 2.3512599
2.5381179 4.1927428 0.19395475 192.5 0 0 0 33.383408
-24.413118 4.8484344 0.19424115 125 0 0 0 2.7395799
-16.388647 4.9546261 0.14209108 57 0 0 0 4.3011899
2.5415971 4.7017283 0.20758127 230.5 0 0 0 32.606155
-24.418213 5.4739366 0.19431901 104 0 0 0 3.12834
-15.200386 5.0026479 0.1345986 77 0 0 0 4.6816101
-14.142615 5.0393901 0.12799828 61 0 0 0 5.0723701
-13.120698 5.0382538 0.12165558 47 0 0 0 5.4668999
-12.32586 5.0805902 0.11684939 61 0 0 0 5.86164
-11.529902 5.0838947 0.11205096 63 0 0 0 6.2423801
-10.996445 5.1720166 0.10904066 103 0 0 0 6.6392899
-7.8286324 5.1905804 0.20772889 496.5 0 0 0 8.9804602
-7.2542329 5.1975636 0.1990523 687.5 0 0 0 9.5644751
-6.7373719 5.2107935 0.19141434 679 0 0 0 10.14662
-6.293685 5.2173076 0.24561337 739.40002 0 0 0 10.692587
-3.2177382 5.2701321 0.22423567 1140.8889 0 0 0 16.004225
-2.7117217 5.2723336 0.21715485 1020 0 0 0 17.177431
-2.3206573 5.3076563 0.23476584 553.28571 0 0 0 18.18025
-1.7335523 5.2941852 0.069894709 520 0 0 0 19.715418
-1.2274462 5.3111048 0.2424486 201.28572 0 0 0 21.134018
-0.78888243 5.3170886 0.27334508 97.333336 0 0 0 22.405313
-0.24797866 5.3289495 0.26775867 434.3125 0 0 0 24.008257
0.27392244 5.3466015 0.27361202 181.39999 0 0 0 25.558313
0.74420881 5.3473144 0.27229494 160.66667 0 0 0 26.938768
1.187448 5.3582492 0.2720063 37.307693 0 0 0 28.204824
1.6970356 5.386158 0.17876917 41.75 0 0 0 29.573711
2.2517765 5.3549676 0.22148263 710 0 0 0 31.038847
2.5422871 5.1400652 0.2198108 243.66667 0 0 0 32.014641
-2.3406646 5.5175147 0.22064885 68 0 0 0 18.353399
1.9684472 5.6308727 0.29952794 65.5 0 0 0 30.065729
-24.413013 6.1040649 0.19445847 121 0 0 0 3.5141699
-24.428085 6.7473726 0.19485392 102 0 0 0 3.9077599
2.5128536 7.7463417 0.39554608 133.5 0 0 0 29.67168
2.4176102 8.1223078 0.30609632 142 0 0 0 29.278721
2.3242269 8.566618 0.31854293 28 0 0 0 28.89262
-3.6804984 9.4022818 0.34873563 83 0 0 0 18.742109
-3.2868295 9.3974819 0.34479773 108.5 0 0 0 19.323109
-3.2633283 11.604219 0.41111547 53 0 0 0 20.305281
-3.9149885 12.734915 0.4504604 38 0 0 0 19.91017
-2.9348357 14.500829 0.49786317 45 0 0 0 21.470921
-8.8886662 -26.875418 0.93379629 36 0 0 0 79.726212
-1.2761049 -25.690128 0.85274112 91 0 0 0 75.427559
-84.006073 -10.375193 0.66148037 12 0 0 0 97.718315
-84.28083 -8.3149271 0.6631214 18 0 0 0 98.107376
-88.337486 -6.5307007 0.69328088 12 0 0 0 98.504883
-2.8490636 -5.6537051 0.93407571 231 0 0 0 82.076004
-2.892699 -5.4064059 0.98261088 338 0 0 0 82.474289
-23.88879 -4.7525916 0.82267356 70 0 0 0 96.544334
-2.1877449 -4.6167517 0.60426211 106.5 0 0 0 81.685303
-88.678566 -4.371007 0.69610494 25 0 0 0 98.892151
27.772627 -4.1283178 0.97860754 25 0 0 0 51.94957
-14.806129 -3.3259962 0.52573574 94 0 0 0 96.149773
-11.971323 -2.9999826 0.7359404 43 0 0 0 95.764786
-3.7079201 -2.798944 0.84450161 151.11111 0 0 0 89.385345
-3.2206433 -2.7800646 0.69306856 68 0 0 0 88.335281
-2.9479749 -2.949002 0.57685161 151 0 0 0 87.169838
-88.81778 -2.1948061 0.69779283 6 0 0 0 99.28212
-5.8928847 -2.2772019 0.85878259 97 0 0 0 93.821106
-4.5256839 -2.0097096 0.68033886 223 0 0 0 93.033112
-4.2838583 -2.2462616 0.70536119 117 0 0 0 91.991798
-3.6038027 -2.204262 0.62007827 65.333336 0 0 0 90.955727
-3.263972 -2.4237721 0.63140821 88 0 0 0 89.517242
-6.5445189 -1.900793 0.67430007 783.5 0 0 0 95.189163
-6.1672831 -1.8736358 0.5612883 570 0 0 0 94.992683
-5.5998912 -1.8527312 0.65954977 569 0 0 0 94.603317
-5.2019567 -1.8640448 0.61996633 600 0 0 0 94.21917
-4.6397634 -1.8800396 0.60573411 375 0 0 0 93.555725
-4.1086426 -1.883606 0.51309156 172 0 0 0 92.835388
-3.9599962 -1.9966718 0.61268091 143 0 0 0 92.250069
-75.64994 -0.012271694 0.6004802 31 0 0 0 99.662941
-4.3039241 0.33502039 0.69876361 218.11111 0 0 0 0.87578332
-4.2817245 0.58360869 0.74919719 183.60001 0 0 0 1.7994318
26.756466 1.3118255 0.93698549 20 0 0 0 48.833752
-4.2346177 2.250149 0.65514976 297 0 0 0 7.4834385
5.2953243 2.442517 0.73453051 685.375 0 0 0 42.772552
5.8030257 2.4198906 0.71179503 557 0 0 0 43.36224
6.2814331 2.4380789 0.76007837 538.33331 0 0 0 43.754528
6.8082852 2.4500122 0.81350756 461 0 0 0 44.146179
7.4468193 2.4724555 0.78301305 404 0 0 0 44.53336
8.1659403 2.4878161 0.74302548 399 0 0 0 44.924648
5.1816421 2.7927952 0.74085945 934.83331 0 0 0 41.794918
9.0384083 2.5105393 0.69787413 366 0 0 0 45.310791
10.098566 2.5377624 0.77057201 262.5 0 0 0 45.702969
11.424747 2.5715191 0.71652317 225 0 0 0 46.095779
13.156149 2.6217182 0.81559122 148 0 0 0 46.478153
5.1799312 3.2916009 0.74897122 881.63635 0 0 0 40.658291
5.1702576 3.7678707 0.72102863 845.16669 0 0 0 39.647453
-24.403383 4.2332973 0.81058025 109 0 0 0 2.3512599
5.167695 4.2168984 0.77350038 677.71429 0 0 0 38.781898
28.292048 4.1970296 0.99653763 134 0 0 0 47.268421
-24.412455 4.8531513 0.81363094 103 0 0 0 2.7395799
5.1643677 4.7692294 0.85604459 811.20001 0 0 0 37.811096
-24.42909 5.4812665 0.8174541 80 0 0 0 3.12834
-8.2202053 5.1662936 0.80995542 325 0 0 0 8.5891104
-7.8212256 5.1856761 0.66780877 562.5 0 0 0 8.9804602
-7.2395039 5.1865945 0.74369556 681.66669 0 0 0 9.5644751
-6.7288613 5.2038074 0.71154022 778 0 0 0 10.14662
-6.398284 5.2004738 0.79159427 764.5 0 0 0 10.53392
-3.0939872 5.2562938 0.69415742 993.83331 0 0 0 16.263641
-2.707094 5.2595162 0.72337794 969.16669 0 0 0 17.177431
-2.2505505 5.2926178 0.74638581 408.39999 0 0 0 18.349957
-1.7316254 5.2834811 0.7517181 308.08334 0 0 0 19.715418
-1.2440886 5.2909303 0.7364397 463.77777 0 0 0 21.078468
-0.77550822 5.3042035 0.79414982 194.5 0 0 0 22.444157
-0.24898073 5.3056207 0.78832406 330.8125 0 0 0 24.008257
0.27470917 5.3186598 0.79188329 217.75 0 0 0 25.571754
0.72695011 5.3264756 0.78182882 248 0 0 0 26.903048
1.2188143 5.3386731 0.74816459 213.25 0 0 0 28.309538
1.7185531 5.3480992 0.76783204 208.44444 0 0 0 29.672045
2.2451899 5.3442712 0.72139436 607.5 0 0 0 31.038849
2.8181007 5.3572183 0.75285929 623.25 0 0 0 32.408985
3.2612989 5.3662128 0.70317072 597.16669 0 0 0 33.383411
3.7130494 5.3682871 0.75083315 565.125 0 0 0 34.31152
4.2682333 5.3878698 0.8521384 846.25 0 0 0 35.335102
4.7268515 5.3945799 0.8882544 798.75 0 0 0 36.122971
5.141974 5.2718849 0.88127166 835 0 0 0 36.969128
1.9617914 5.6163754 0.51997101 52 0 0 0 30.065729
-24.420753 6.1109252 0.82101768 72 0 0 0 3.5141699
-24.420177 6.7501445 0.82537854 47 0 0 0 3.9077599
-23.48406 7.7464576 0.80504864 33 0 0 0 4.6816101
-21.856413 7.8062415 0.75694758 38 0 0 0 5.0723701
-20.240789 7.7911377 0.70895439 44 0 0 0 5.4668999
-18.970406 7.838872 0.67222893 57 0 0 0 5.86164
-17.786304 7.8628912 0.63818091 59 0 0 0 6.2423801
-16.726818 7.8876915 0.60812199 177 0 0 0 6.6392899
2.5079889 7.737627 0.69725293 117 0 0 0 29.67168
-26.690372 8.0880556 0.90459275 10 0 0 0 4.3011899
2.4036355 8.0773563 0.51088721 19 0 0 0 29.278721
2.3914399 8.8105545 0.55005807 17 0 0 0 28.89262
-3.6724176 9.3779373 0.71846044 71 0 0 0 18.742109
-3.2874911 9.3959999 0.71119088 85.5 0 0 0 19.323109
-3.7369704 12.702107 0.7714864 45.5 0 0 0 20.107725
-3.2437639 12.743079 0.76688951 38 0 0 0 20.68721
-2.9393737 14.521574 0.86062396 27 0 0 0 21.470921
4.0964799 16.53598 0.99489582 19 0 0 0 28.504601
1.3089985 18.377075 0.61744362 217 0 0 0 25.7733
-2.1358781 21.201881 0.70409185 127 0 0 0 23.0268
17.163885 -41.496262 1.4762237 39 0 0 0 68.381432
-27.994774 -35.862965 1.4837101 11 0 0 0 85.200302
-26.333126 -35.496311 1.4418652 33 0 0 0 84.806831
-24.795429 -35.196152 1.4049835 29 0 0 0 84.42041
-23.436449 -35.063492 1.3765974 48 0 0 0 84.027901
-19.542406 -32.591122 1.2431813 22 0 0 0 83.250923
-13.352988 -32.213078 1.1423424 22 0 0 0 80.908783
-6.4688015 -32.456913 1.085775 54 0 0 0 77.775314
-5.6185746 -32.305313 1.0762037 71 0 0 0 77.381805
-7.174243 -31.893661 1.0728633 18 0 0 0 78.167915
-4.705132 -31.629454 1.0505544 115 0 0 0 76.996437
-3.9074411 -31.569502 1.0454144 59 0 0 0 76.605347
-11.221214 -31.331951 1.0916423 61 0 0 0 80.11615
-7.8095841 -31.130384 1.0539196 17 0 0 0 78.550781
-3.1078792 -31.411947 1.0378282 65 0 0 0 76.215218
-2.3232768 -31.300079 1.0323611 69 0 0 0 75.822121
-0.77652389 -31.013155 1.0213486 70 0 0 0 75.035156
16.724607 -31.33452 1.179684 25 0 0 0 66.813637
0.73533458 -30.603683 1.0089471 132 0 0 0 74.247871
1.4930003 -30.723883 1.0140035 12 0 0 0 73.862846
2.2436399 -30.643806 1.0133015 14 0 0 0 73.461075
19.576328 -30.954336 1.2190832 22 0 0 0 65.635361
2.9856002 -30.487703 1.0107872 23 0 0 0 73.075478
4.4573636 -30.170393 1.0073935 6 0 0 0 72.292336
5.1617236 -29.853651 1.001485 117 0 0 0 71.906441
5.8846083 -29.678444 1.0007263 156 0 0 0 71.510475
20.96513 -29.805056 1.2157341 18 0 0 0 64.861542
23.405529 -28.552795 1.2354577 20 0 0 0 63.678848
15.620207 -27.615318 1.0587044 89 0 0 0 66.424469
16.475273 -27.527529 1.0712292 14 0 0 0 66.025719
24.607265 -27.180658 1.2300559 15 0 0 0 62.888832
34.399532 -26.870678 1.4699098 12 0 0 0 60.16013
26.015276 -26.043907 1.2377689 28 0 0 0 62.11742
-1.2775546 -25.712391 1.4833398 51 0 0 0 75.427559
26.994408 -25.728535 1.2549589 44 0 0 0 61.720871
29.532055 -25.500633 1.3145796 59 0 0 0 60.940647
28.098673 -25.494022 1.2777205 53 0 0 0 61.327881
34.276062 -25.444838 1.4400496 30 0 0 0 59.768169
34.866886 -24.579332 1.4409873 39 0 0 0 59.373539
36.507824 -24.416578 1.4843696 14 0 0 0 58.98418
21.206583 -22.302406 1.0395886 22 0 0 0 62.499912
-41.834991 -7.259285 1.4083356 17 0 0 0 96.944489
-5.7450843 -6.7714067 1.3357841 442.66666 0 0 0 85.864441
-5.3063774 -6.6854405 1.2150077 241 0 0 0 85.332985
-4.761744 -6.5855122 1.2919779 441 0 0 0 84.613617
-4.24224 -6.5174189 1.3327233 773.5 0 0 0 83.831535
-5.7262688 -6.1639509 1.3369997 74 0 0 0 86.582878
-4.0943942 -6.4636064 1.2180436 843 0 0 0 83.63517
-3.7378311 -6.4081821 1.1820049 635.5 0 0 0 83.056984
-2.7355812 -6.162581 1.0770419 340 0 0 0 81.296875
-2.1604853 -6.0252028 1.4172837 610.5 0 0 0 80.11615
-4.3853416 -5.9125791 1.3552562 140 0 0 0 84.806831
-3.9026134 -5.8389196 1.294309 227 0 0 0 84.027901
-2.7179101 -5.7388053 1.1721683 571 0 0 0 81.684158
-2.3043962 -5.6531391 1.2793839 438.25 0 0 0 80.806313
-5.7394891 -5.2049479 1.2343432 250 0 0 0 87.950653
-5.4314914 -5.1738219 1.1959537 490 0 0 0 87.561089
-3.5917101 -5.0984039 1.1531363 110 0 0 0 84.42041
-3.0393939 -5.212801 1.1166363 208 0 0 0 83.056984
-2.7766676 -5.3482618 1.1885502 479.25 0 0 0 82.275146
-2.3499281 -5.4130616 1.3334283 545 0 0 0 81.167511
-4.1714602 -4.9562559 1.1969527 413 0 0 0 85.79792
-3.8701525 -4.9588761 1.1629851 275 0 0 0 85.200302
-3.1060805 -4.7705879 1.1951003 454.5 0 0 0 83.831535
-2.7992535 -4.798933 1.1670072 363.5 0 0 0 83.056984
-17.431509 -3.9186325 1.4945613 36 0 0 0 96.149773
30.416393 -3.7598457 1.0653669 32 0 0 0 51.554848
-4.4119887 -3.1115777 1.400822 200 0 0 0 89.917313
-3.7148142 -3.052115 1.3696849 197 0 0 0 88.730232
-3.2855968 -3.0550566 1.3894898 122.25 0 0 0 87.755867
31.448017 -3.1051419 1.09788 51 0 0 0 51.169712
-7.1440716 -2.7602904 1.3177848 19.5 0 0 0 93.821106
-4.1475601 -2.7775159 1.2660512 129 0 0 0 90.30336
-3.7122798 -2.8547933 1.2307737 237 0 0 0 89.240417
-3.4148018 -2.9011009 1.2048539 168.66667 0 0 0 88.466927
31.294123 -2.3154261 1.0909429 47 0 0 0 50.77943
31.161497 -1.5371444 1.0853208 77 0 0 0 50.391872
34.399693 -0.85051095 1.1936109 6 0 0 0 49.994473
30.281885 0.73941398 1.0548481 41 0 0 0 49.220299
5.2787375 2.4366603 1.2360374 788 0 0 0 42.772552
5.7861948 2.4145691 1.2522749 525.25 0 0 0 43.36224
6.236053 2.4218907 1.2515761 533.33331 0 0 0 43.754528
6.7759323 2.4397335 1.25528 455.5 0 0 0 44.146179
7.4020877 2.4595249 1.2595118 392 0 0 0 44.53336
8.1164932 2.4753032 1.2617891 369.5 0 0 0 44.924648
8.9700241 2.4946628 1.3811679 310 0 0 0 45.310791
30.239367 2.2281671 1.055375 17 0 0 0 48.436832
5.1871767 2.7972503 1.252007 1054.8889 0 0 0 41.79491
9.017683 2.5059104 1.0412736 394 0 0 0 45.310791
10.051983 2.5283124 1.276812 279.5 0 0 0 45.702969
11.386375 2.5652688 1.1472807 230 0 0 0 46.095779
13.079567 2.6091518 1.3056277 144.5 0 0 0 46.478153
30.193159 2.9721363 1.0556391 35 0 0 0 48.042191
5.1821842 3.3294015 1.2749341 1129 0 0 0 40.583664
5.1756415 3.7733514 1.1969963 1026.3334 0 0 0 39.647453
5.167851 4.1724505 1.2391543 981.16669 0 0 0 38.866482
-25.097305 4.9901481 1.4600106 188 0 0 0 2.7395799
5.1671505 4.6979127 1.2779727 1001.125 0 0 0 37.937229
36.76376 4.5324526 1.2801886 45 0 0 0 47.653019
-8.6568308 5.1498141 1.3282143 425 0 0 0 8.1972103
-8.2010269 5.153204 1.1599231 592.5 0 0 0 8.5891104
-7.7919822 5.1639099 1.2346627 577.66669 0 0 0 8.9804602
-7.2240324 5.1727772 1.2839272 661.5 0 0 0 9.5644751
-6.7084036 5.1853199 1.2264442 729.5 0 0 0 10.14662
-6.3823781 5.1855202 1.2913508 692.66669 0 0 0 10.53392
-3.0278361 5.2385101 1.2566597 1133.6666 0 0 0 16.393761
-2.6885307 5.2519574 1.2555835 965.20001 0 0 0 17.215944
-2.2766826 5.2713695 1.2122865 504 0 0 0 18.261919
-1.6997459 5.2693005 1.1422374 394 0 0 0 19.79388
-1.2431015 5.2804494 1.2007704 323.08334 0 0 0 21.078466
-0.77526742 5.2910686 1.2513974 229.33333 0 0 0 22.444159
-0.25010839 5.2960148 1.2428322 332.16666 0 0 0 24.008257
0.25963393 5.3070569 1.2213101 287.5 0 0 0 25.533352
0.76646286 5.3199687 1.2189296 240 0 0 0 27.026415
1.1753286 5.3185325 1.1776309 223.76923 0 0 0 28.204826
1.7182698 5.3496714 1.1671242 263 0 0 0 29.672089
2.2157416 5.3316979 1.2574447 678.07141 0 0 0 30.982586
2.8121443 5.3496666 1.2739735 765.44446 0 0 0 32.408981
3.2537959 5.3574061 1.2432411 797.625 0 0 0 33.383408
3.732507 5.3632336 1.2153677 947.44446 0 0 0 34.360424
4.2536197 5.3716683 1.2735294 1010.5 0 0 0 35.335102
4.6916261 5.383132 1.2905831 955.79999 0 0 0 36.083427
5.1198978 5.3205099 1.2245198 872.59998 0 0 0 36.864586
29.172838 5.0629473 1.0298377 145 0 0 0 46.8675
-25.11137 6.2846618 1.47509 143 0 0 0 3.5141699
-24.677435 8.817358 1.4902141 37 0 0 0 5.0723701
-22.946411 8.836462 1.3995895 57 0 0 0 5.4668999
-21.261528 8.7893 1.3109694 76 0 0 0 5.86164
-20.523575 9.0778666 1.2790891 20 0 0 0 6.2423801
-3.5462239 11.508675 1.0035989 50 0 0 0 19.91017
-29.54077 -35.987259 1.5181426 8 0 0 0 85.598358
-14.002324 -31.566818 1.9768023 56 0 0 0 81.296875
-13.075546 -31.542894 1.9548666 39 0 0 0 80.908783
-7.1738763 -31.890541 1.8726163 35 0 0 0 78.167915
-6.3347335 -31.781609 1.8569171 97 0 0 0 77.775314
-5.5124617 -31.692163 1.8436027 100 0 0 0 77.381805
-12.107073 -31.359495 1.924926 52 0 0 0 80.509796
-11.185189 -31.230562 1.8999609 46 0 0 0 80.11615
-8.5984039 -31.02813 1.8450016 10 0 0 0 78.939995
-4.6846204 -31.488796 1.8250451 15 0 0 0 76.996437
-3.86852 -31.251183 1.8057809 41 0 0 0 76.605347
-3.0791721 -31.116871 1.7935597 39 0 0 0 76.215218
-2.2996395 -30.974703 1.782037 42 0 0 0 75.822121
-0.7721464 -30.818142 1.7695148 12 0 0 0 75.035156
0.7328732 -30.521906 1.7534492 107 0 0 0 74.247871
1.4771802 -30.410669 1.7490817 165 0 0 0 73.862846
2.2167544 -30.285297 1.7449609 164 0 0 0 73.461075
2.9509954 -30.140978 1.7408147 205 0 0 0 73.075478
3.6820579 -29.99971 1.7378739 215 0 0 0 72.685043
4.4167538 -29.89999 1.7383335 242 0 0 0 72.292336
5.1423082 -29.744877 1.7366841 233 0 0 0 71.906441
5.8706951 -29.611341 1.7373106 166 0 0 0 71.510475
15.643889 -27.658707 1.8381367 20 0 0 0 66.424469
16.433079 -27.458639 1.8519644 16 0 0 0 66.025719
17.283766 -27.334223 1.8724002 13 0 0 0 65.635361
18.181955 -27.249985 1.8973588 12 0 0 0 65.250282
19.034569 -27.064423 1.9172645 18 0 0 0 64.861542
-8.8596125 -26.786785 1.6211541 37 0 0 0 79.726212
37.725483 -23.911692 1.5108187 15 0 0 0 58.585529
43.69183 -23.374868 1.6780348 31 0 0 0 57.413261
45.980114 -23.165195 1.7440464 5 0 0 0 57.025799
18.559694 -22.647537 1.7042617 13 0 0 0 63.678848
16.659666 -22.49749 1.6288 29 0 0 0 64.463287
17.281351 -22.177345 1.6367803 24 0 0 0 64.06855
53.150898 -22.035576 1.9508502 20 0 0 0 55.857433
49.931007 -17.883377 1.804608 12 0 0 0 55.074341
-31.08448 -6.9808731 1.8443158 39 0 0 0 96.149773
-6.7730432 -6.7761531 1.5179828 53 0 0 0 87.169838
-32.363365 -6.4380016 1.90955 32 0 0 0 96.544334
-2.2233124 -5.7538428 1.5934318 6 0 0 0 80.509796
-20.291668 -5.087585 1.7435788 76 0 0 0 95.764786
-2.3727069 -5.3456407 1.5124742 7 0 0 0 81.296875
-22.967737 -4.5735378 1.9484923 76 0 0 0 96.544334
-16.906927 -4.6831427 1.893575 82 0 0 0 95.385635
-23.206249 -4.031549 1.959958 67 0 0 0 96.944489
-16.556313 -4.1513605 1.8435985 93 0 0 0 95.764786
-11.562739 -4.1432304 1.6373352 122 0 0 0 94.21917
-11.456719 -4.1052637 1.9236419 224 0 0 0 94.21917
-17.703938 -3.5257039 1.9484078 139 0 0 0 96.544334
-16.281263 -3.6601548 1.8035131 109 0 0 0 96.149773
-3.0426369 -3.5309596 1.6710804 12 0 0 0 85.997482
-2.9012845 -3.6282053 1.7790439 114 0 0 0 85.39933
30.355602 -3.7524633 1.8126336 33 0 0 0 51.554848
-5.0470867 -3.2009032 1.9900864 57 0 0 0 90.691696
-4.7113957 -3.2365966 1.6940547 100.5 0 0 0 90.109772
-4.2790842 -3.1001272 1.8920913 73 0 0 0 89.714287
-3.6871977 -3.1849825 1.5069797 153 0 0 0 88.335281
-3.111017 -3.2329061 1.5827303 130 0 0 0 86.876358
-2.9542809 -3.1068881 1.6444257 150 0 0 0 86.782837
-7.1155257 -2.7502296 1.7813898 22 0 0 0 93.821106
-4.2455068 -2.6916783 1.5988158 152.33333 0 0 0 90.69207
-3.6767361 -2.9207628 1.6088988 113.33334 0 0 0 88.992188
-3.463758 -2.8479059 1.6644442 158 0 0 0 88.730232
-4.5557289 -2.3701069 1.9038892 113.5 0 0 0 92.05629
-4.2471285 -2.2764876 1.8469299 47 0 0 0 91.862518
25.175459 -0.62258905 1.5005752 33 0 0 0 49.994473
29.284927 -0.0044844532 1.7387002 33 0 0 0 49.603802
23.42132 0.57637089 1.9823377 80 0 0 0 49.220299
26.701571 1.3092808 1.5901736 15 0 0 0 48.833752
5.2762232 2.4374166 1.7387927 616.25 0 0 0 42.772552
5.7409797 2.3976574 1.7811698 421.66666 0 0 0 43.36224
6.381659 2.4798908 1.7883004 141.5 0 0 0 43.754528
6.7849708 2.4442751 1.7024978 310.33334 0 0 0 44.146179
7.3601027 2.4467678 1.7321986 389 0 0 0 44.53336
8.079608 2.4650342 1.7789688 360 0 0 0 44.924648
8.9426985 2.487433 1.8371396 339 0 0 0 45.310791
30.193546 2.2249994 1.7956009 40 0 0 0 48.436832
5.1989045 2.7901533 1.7438694 849.90912 0 0 0 41.830887
6.4529963 2.5074515 1.8057208 36 0 0 0 43.754528
9.9808359 2.5118423 1.9058993 259 0 0 0 45.702969
10.019727 2.5214214 1.6567477 288 0 0 0 45.702969
11.317572 2.5522485 1.7116764 190.5 0 0 0 46.095779
13.014505 2.5988486 1.7882843 141 0 0 0 46.478153
5.1873584 3.2648752 1.7316273 951.85712 0 0 0 40.734444
33.217411 3.2697754 1.9753999 62 0 0 0 48.042191
5.188735 3.7108257 1.7516713 876.22223 0 0 0 39.799282
5.18084 4.1853414 1.7353448 755.83331 0 0 0 38.866486
5.1741939 4.7362103 1.7657509 854.44446 0 0 0 37.888309
-10.197146 5.1001797 1.7805084 148 0 0 0 7.0240798
-8.6288319 5.1331024 1.6941078 446 0 0 0 8.1972103
-8.1867638 5.1432681 1.750517 495 0 0 0 8.5891104
-7.7714567 5.1496019 1.8030661 589 0 0 0 8.9804602
-7.213809 5.1655388 1.7174544 570.25 0 0 0 9.5644751
-6.6885033 5.1691413 1.7403423 606.33331 0 0 0 10.14662
-6.3705463 5.1748371 1.7906315 644.5 0 0 0 10.53392
-3.1249042 5.2318563 1.7977116 792.85712 0 0 0 16.171051
-2.7163599 5.2433295 1.7530957 847.09088 0 0 0 17.142418
-2.3398705 5.3454165 1.7442011 250 0 0 0 18.18189
-1.6384566 5.27108 1.7519665 13.142858 0 0 0 19.966747
-1.2298232 5.2684102 1.7223263 73.272728 0 0 0 21.114037
-0.79761314 5.2829514 1.6659197 21.833334 0 0 0 22.379362
-0.23865367 5.2971807 1.6862228 139.53334 0 0 0 24.047489
0.27470711 5.2972355 1.6977504 19.133333 0 0 0 25.585089
0.73367137 5.3124361 1.7162137 22.636364 0 0 0 26.938499
1.1796407 5.3146744 1.6826912 16.571428 0 0 0 28.22624
2.2559874 5.3266592 1.7491726 589.64288 0 0 0 31.095112
2.7868676 5.3375893 1.7439992 679.40002 0 0 0 32.369549
3.2433062 5.3442836 1.7797546 708.83331 0 0 0 33.383411
3.7047126 5.3551555 1.724506 814.40002 0 0 0 34.32095
4.246027 5.3652558 1.7776564 761.83331 0 0 0 35.335098
4.7309098 5.3767138 1.7177944 860.40002 0 0 0 36.162514
5.1254888 5.3023629 1.7330257 811.83331 0 0 0 36.90379
1.9339588 5.5510693 1.7436919 41.75 0 0 0 30.065729
2.6160493 8.0803585 1.9792217 38 0 0 0 29.67168
-31.854723 8.8117075 1.8742573 53 0 0 0 3.9077599
-28.810484 8.7326603 1.7090145 57 0 0 0 4.3011899
-27.068745 8.9328384 1.6190315 37 0 0 0 4.6816101
-21.268673 8.788187 1.8824167 73 0 0 0 5.86164
-20.009514 8.8457909 1.7905573 18 0 0 0 6.2423801
19.493633 -64.351776 2.1849866 7 0 0 0 69.949806
-24.917215 -35.368832 2.4705236 20 0 0 0 84.42041
-23.560608 -35.249031 2.4212966 7 0 0 0 84.027901
-22.300499 -35.203293 2.3800361 18 0 0 0 83.63517
-19.478935 -32.484955 2.166167 19 0 0 0 83.250923
-18.353868 -32.384098 2.1290665 46 0 0 0 82.863045
-8.8870173 -26.88471 2.3315165 43 0 0 0 79.726212
-9.3845682 -26.213873 2.2932558 4 0 0 0 80.11615
22.823278 -26.491369 2.0294952 11 0 0 0 63.294201
23.801365 -26.292601 2.0593419 6 0 0 0 62.888832
25.988201 -26.018179 2.1369443 45 0 0 0 62.11742
-1.2754377 -25.75351 2.1273298 30 0 0 0 75.427559
26.966291 -25.703098 2.1658738 38 0 0 0 61.720871
29.54958 -25.517092 2.2713521 19 0 0 0 60.940647
28.087868 -25.485559 2.2059274 22 0 0 0 61.327881
30.54158 -25.091408 2.3007467 60 0 0 0 60.548393
31.95681 -24.96517 2.3611977 32 0 0 0 60.16013
33.313179 -24.731829 2.416642 20 0 0 0 59.768169
18.777079 -22.905594 2.4610281 13 0 0 0 63.678848
19.259649 -22.352001 2.4529359 19 0 0 0 63.294201
17.014576 -21.828703 2.3009653 23 0 0 0 64.06855
55.488823 -21.423807 2.0174711 20 0 0 0 55.464394
33.90028 -20.340912 2.3112996 16 0 0 0 58.197006
60.719883 -20.077942 2.1703551 13 0 0 0 54.69067
34.444435 -19.533703 2.3165352 13 0 0 0 57.81319
63.288502 -15.869989 2.2189913 9 0 0 0 53.514526
-13.070741 -8.2839079 2.4337604 14 0 0 0 90.691696
-13.21803 -7.929594 2.4246802 5532 0 0 0 91.089729
-41.226803 -7.1537266 2.4126523 17 0 0 0 96.944489
-11.848248 -5.2582946 2.366528 38 0 0 0 93.033112
-17.164457 -4.7576704 2.3598931 48 0 0 0 95.385635
-11.91221 -4.9404836 2.0357914 47 0 0 0 93.423035
-4.8089056 -4.5854998 2.3700974 229 0 0 0 87.561089
-14.6362 -4.2525148 2.2116799 62.5 0 0 0 95.189163
-12.418205 -4.1086526 2.3888681 110 0 0 0 94.603317
-11.421719 -4.092732 2.2180371 96 0 0 0 94.21917
-4.8537865 -4.2998486 2.3141036 204.5 0 0 0 88.142967
28.548498 -4.2387481 2.4311702 32 0 0 0 51.94957
-12.569321 -3.8190408 2.0742769 192 0 0 0 94.992683
-22.065872 -3.2777076 2.4003808 74 0 0 0 97.333939
-18.625412 -3.2359965 2.0391598 48 0 0 0 96.944489
-15.418471 -3.4690967 2.0984044 59 0 0 0 96.149773
-14.226562 -3.20104 2.2996454 62 0 0 0 96.149773
-13.735759 -3.4469621 2.2340255 59 0 0 0 95.764786
-5.2592874 -3.2782986 2.3162398 94.333336 0 0 0 90.824379
27.505114 -3.3956716 2.336566 21 0 0 0 51.554848
-15.370469 -2.6734581 2.4585676 152 0 0 0 96.944489
-14.889104 -2.7792988 2.0131245 98 0 0 0 96.744415
-14.235548 -2.8378422 2.2895992 71 0 0 0 96.544334
-7.0990291 -2.7457643 2.3397441 7 0 0 0 93.821106
-4.5508461 -2.5847394 2.0030625 77 0 0 0 91.475212
-15.683267 -2.3327515 2.4984264 87 0 0 0 97.333939
-15.237528 -2.2665102 2.0472283 119 0 0 0 97.333939
-15.245908 -1.886466 2.0418892 40 0 0 0 97.718315
-15.089976 -1.1187007 2.3867049 223 0 0 0 98.504883
-14.752504 -1.4586843 2.3387187 166 0 0 0 98.107376
25.873642 -1.2720187 2.187793 71 0 0 0 50.391872
24.706158 -0.60664725 2.089258 70 0 0 0 49.994473
24.468134 0.00060300139 2.0687435 45 0 0 0 49.603802
28.26021 1.390712 2.3859913 21 0 0 0 48.833752
5.2994547 2.3708892 2.1827292 428.60001 0 0 0 42.968945
5.7128892 2.3876526 2.2325392 342 0 0 0 43.36224
6.2223725 2.4200823 2.2380581 304.33334 0 0 0 43.754528
6.7149653 2.4205561 2.2144911 260.66666 0 0 0 44.146179
7.2911363 2.4255383 2.1906433 302.66666 0 0 0 44.53336
8.0151806 2.4468994 2.2822385 330 0 0 0 44.924648
8.8796539 2.4719744 2.2779884 262 0 0 0 45.310791
9.9263935 2.4983606 2.1482596 243 0 0 0 45.702969
27.630865 2.0414064 2.3369358 46 0 0 0 48.436832
5.1970382 2.83024 2.176378 652.85712 0 0 0 41.738392
9.9329538 2.5020242 2.4011719 185 0 0 0 45.702969
11.23641 2.5343561 2.2703412 190.5 0 0 0 46.095779
12.93483 2.5832567 2.2680025 134 0 0 0 46.478153
14.916069 2.5978236 2.2227445 20 0 0 0 46.8675
5.1889539 3.2289963 2.2025089 636.16669 0 0 0 40.818211
5.1871824 3.7102706 2.2637215 657.59998 0 0 0 39.803009
5.1824594 4.1890001 2.231086 618.16669 0 0 0 38.866486
5.1752744 4.739749 2.2585685 656.125 0 0 0 37.887653
-10.167505 5.0853949 2.1939297 214 0 0 0 7.0240798
-9.612133 5.1022387 2.3660941 352 0 0 0 7.4162498
-9.0959854 5.1151843 2.2699089 366 0 0 0 7.8129001
-8.6149406 5.1238613 2.1812687 462 0 0 0 8.1972103
-8.1716766 5.1318254 2.3352599 448.5 0 0 0 8.5891104
-7.7576537 5.1384869 2.2528386 492 0 0 0 8.9804602
-7.1620927 5.1528277 2.2017114 552.20001 0 0 0 9.6044292
-6.6769018 5.1588249 2.2520638 541.5 0 0 0 10.14662
-6.2350206 5.1624136 2.2999072 516.79999 0 0 0 10.692588
-3.6051395 5.204052 2.3435926 496 0 0 0 15.099807
-3.2167366 5.2210951 2.1908514 700.5 0 0 0 15.955532
-2.6979494 5.2310691 2.1595757 614.66669 0 0 0 17.177429
-2.3279505 5.2855954 2.1207941 221.75 0 0 0 18.153305
-1.9364784 5.2391748 2.1213229 12 0 0 0 19.13023
-1.247792 5.2881017 2.0675201 169 0 0 0 21.077271
-0.710989 5.2856054 2.0325451 14 0 0 0 22.64123
-0.23123951 5.2788873 2.0174007 144 0 0 0 24.072411
0.26893055 5.3008156 2.0286815 14.5 0 0 0 25.571754
0.79964161 5.314373 2.0563788 10 0 0 0 27.135214
1.1390848 5.3200512 2.0822477 6 0 0 0 28.116369
1.9679089 5.3756251 2.0990012 246.33333 0 0 0 30.322563
2.3039558 5.3168769 2.1501551 475.33334 0 0 0 31.234802
2.8156204 5.3247461 2.1795785 505.25 0 0 0 32.458279
3.2360849 5.3359199 2.2391448 543 0 0 0 33.383408
3.7111866 5.3403578 2.2522125 629.70001 0 0 0 34.360771
4.231421 5.3500805 2.2784598 607.83331 0 0 0 35.335098
4.692802 5.362514 2.2036018 668.83331 0 0 0 36.122971
5.1168189 5.2954521 2.2767994 572.5 0 0 0 36.90379
1.9196711 5.5186658 2.2370923 28 0 0 0 30.065729
2.6002941 8.0341015 2.2806134 40 0 0 0 29.67168
-39.052216 8.7728043 2.2658689 15 0 0 0 3.12834
-28.845371 8.7382164 2.4594607 55 0 0 0 4.3011899
-27.207256 8.9738092 2.3384683 18 0 0 0 4.6816101
