# .PCD v0.7 - Point Cloud Data file format
VERSION 0.7
FIELDS x y z intensity normal_x normal_y normal_z curvature
SIZE 4 4 4 4 4 4 4 4
TYPE F F F F F F F F
COUNT 1 1 1 1 1 1 1 1
WIDTH 933
HEIGHT 1
VIEWPOINT 0 0 0 1 0 0 0
POINTS 933
DATA ascii
-4.0677018 -0.552688 -0.84308922 21.5 0 0 0 97.417801
3.7954457 -0.96103907 -0.71319515 29 0 0 0 53.455559
4.3112345 -0.75696546 -0.69158661 17.799999 0 0 0 52.284801
4.8819923 -0.79414886 -0.66603041 50 0 0 0 52.090488
5.7727413 -0.71943027 -0.64444035 97.333336 0 0 0 51.504505
6.9346275 -0.69221967 -0.60627538 202.66667 0 0 0 51.112396
8.0895319 -0.80598199 -0.51100922 209 0 0 0 51.111591
8.8049555 -0.65857375 -0.55807114 257 0 0 0 50.721031
14.760173 -0.73730749 -0.59451622 39 0 0 0 50.323921
-8.6246691 -0.42556825 -0.96308154 50 0 0 0 98.783936
-6.6195931 -0.32644793 -0.89536613 125.33334 0 0 0 98.781738
-5.4477444 -0.26616448 -0.86180782 77 0 0 0 98.781738
-4.5958323 -0.28187194 -0.83791053 33.25 0 0 0 98.586342
-4.0515785 -0.24859236 -0.83384621 31.5 0 0 0 98.586342
4.3498535 -0.22095773 -0.68878156 32.799999 0 0 0 50.329556
4.9615088 -0.24998578 -0.6699394 54.200001 0 0 0 50.329556
5.7851677 -0.21790914 -0.64178604 88 0 0 0 50.134048
6.9007897 -0.17620678 -0.60063082 127.33334 0 0 0 49.938389
8.7498894 -0.22356056 -0.55333608 193.66667 0 0 0 49.938385
4.2939239 0.26007909 -0.68033218 26 0 0 0 48.574333
4.8735604 0.29700473 -0.65831888 48 0 0 0 48.574337
5.7109432 0.27852878 -0.63378495 132 0 0 0 48.769573
6.828146 0.33059761 -0.59488767 183 0 0 0 48.769573
8.5939512 0.31000972 -0.54335052 139.5 0 0 0 48.963005
-5.2340031 0.83024526 -0.82761002 24 0 0 0 2.1448951
-4.4394212 0.76183867 -0.80982429 21.666666 0 0 0 2.3417532
4.1656137 0.72261131 -0.66877711 18.799999 0 0 0 46.817879
4.7608585 0.76664549 -0.65024906 32.5 0 0 0 47.014267
5.4895921 0.95447141 -0.61725926 84 0 0 0 46.816151
5.5870166 0.68891031 -0.62384766 104.33334 0 0 0 47.59993
6.6924882 0.82278085 -0.586703 144.66667 0 0 0 47.59993
8.4343586 0.72125971 -0.53461647 288 0 0 0 48.185665
-7.3525395 1.3630984 -0.82961196 132.5 0 0 0 2.536545
-5.9774036 1.1060374 -0.81497693 79.5 0 0 0 2.536545
-5.0981383 1.0063473 -0.81309605 72 0 0 0 2.7354701
3.9797628 1.3752837 -0.66620111 46 0 0 0 44.280762
4.0748348 1.1311589 -0.66908723 34 0 0 0 45.257477
4.6191583 1.2215865 -0.64441514 44.25 0 0 0 45.451187
5.3824959 1.2828085 -0.61326694 77.5 0 0 0 45.842979
6.581327 1.3087257 -0.58406711 178 0 0 0 46.426075
8.2570286 1.2216691 -0.5270977 193 0 0 0 47.209103
-9.537405 1.6577507 -0.85005224 174 0 0 0 2.33762
-9.3430882 1.8591441 -0.83566773 175 0 0 0 2.7354701
3.8078444 1.7533239 -0.6639753 88 0 0 0 42.72237
4.3989053 1.7682242 -0.63962322 136.75 0 0 0 43.502583
4.5526056 1.5107169 -0.64704978 70 0 0 0 44.472198
5.2317467 1.807301 -0.61388355 197 0 0 0 44.2803
6.4460902 1.7862226 -0.58246487 191.66667 0 0 0 45.257477
8.1236935 1.719069 -0.52445412 103.5 0 0 0 46.231041
-4.1247845 2.3675687 -0.62669832 91.166664 0 0 0 7.9909396
-3.7398617 2.3291092 -0.71121174 96.875 0 0 0 8.5802631
-3.3925269 2.3467963 -0.66664153 47.142857 0 0 0 9.3540678
3.2712328 2.2627356 -0.62813878 49.5 0 0 0 39.988838
3.7572136 2.2918146 -0.62502539 132 0 0 0 40.900623
4.1600428 2.1069279 -0.62872905 184.66667 0 0 0 42.137737
4.8774199 2.393446 -0.60218799 262 0 0 0 42.335419
5.0255213 2.1656036 -0.60661566 263 0 0 0 43.111961
6.1949639 2.2229495 -0.57291764 422 0 0 0 44.086201
7.9208717 2.0879378 -0.51717663 275 0 0 0 45.454918
8.0930014 2.4568503 -0.53522235 317 0 0 0 44.862591
-13.087052 2.6120965 -0.85916048 104 0 0 0 2.7354701
3.2572787 2.6284754 -0.5610379 53.75 0 0 0 38.81678
3.7743759 2.63241 -0.54214692 88 0 0 0 39.921535
4.321682 2.6799521 -0.56171668 191.5 0 0 0 40.773582
4.6523094 2.5760932 -0.5888828 290 0 0 0 41.547318
5.3771482 2.7177391 -0.52200067 236 0 0 0 42.141022
5.8829532 2.7025409 -0.56326103 375 0 0 0 42.724529
6.1028624 2.5351496 -0.57545429 249 0 0 0 43.30468
7.9007959 2.7206664 -0.52862084 289.5 0 0 0 44.280762
-18.883833 -7.2868075 -0.31332144 142 0 0 0 93.715569
-18.962479 -6.7872639 -0.31162664 288 0 0 0 94.10099
-14.164259 -6.7022219 -0.23427382 438 0 0 0 92.522331
-1.0557418 -6.04527 -0.37199336 7 0 0 0 77.288017
-0.90406412 -6.0465379 -0.37057215 180 0 0 0 76.893936
1.9702317 -6.0078278 -0.38614678 17 0 0 0 69.4702
-9.9010601 -5.9379306 -0.16306226 753 0 0 0 90.981529
-0.082442343 -5.9578924 -0.36085907 4.5 0 0 0 74.746185
0.31255263 -5.8357768 -0.46155196 7.75 0 0 0 73.667755
0.72473723 -5.7769866 -0.44772038 19.166666 0 0 0 72.532906
-8.347374 -3.7025533 -0.23274736 295.5 0 0 0 92.916801
-7.1344585 -3.5937002 -0.29676604 177.66667 0 0 0 92.138763
-6.52771 -3.4913464 -0.36277339 168 0 0 0 91.750305
-5.8706422 -3.3742819 -0.24574685 535.5 0 0 0 91.267387
-5.2278481 -3.3130682 -0.2978977 180 0 0 0 90.592178
-4.7871451 -3.2016356 -0.27413547 351.75 0 0 0 90.201614
-4.3418283 -3.1390088 -0.3185671 270.75 0 0 0 89.605148
-3.9351211 -3.0737176 -0.2948094 182 0 0 0 89.021111
-3.4893155 -3.0130396 -0.21245371 85.5 0 0 0 88.232361
-3.5932941 -2.9522898 -0.27134401 161.2 0 0 0 88.630463
-3.24175 -2.9677863 -0.26609534 96.5 0 0 0 87.765541
-2.841342 -2.9136944 -0.23342769 58.125 0 0 0 86.874207
-12.859548 -1.9085225 -0.18869071 273 0 0 0 97.217667
3.856811 -1.4449737 -0.24182096 121.8 0 0 0 55.208443
4.2446852 -1.361521 -0.2402778 164.44444 0 0 0 54.446205
4.7512598 -1.261422 -0.23571867 199 0 0 0 53.652538
5.2615995 -1.1917318 -0.26248935 251.75 0 0 0 53.062046
5.7040806 -1.1443366 -0.21243964 334.33334 0 0 0 52.67532
6.4218001 -1.1237952 -0.24385284 297 0 0 0 52.284698
7.3442616 -1.0987946 -0.27965614 554 0 0 0 51.897358
8.2408667 -1.0253851 -0.21622574 410.5 0 0 0 51.504566
9.2855568 -0.92358005 -0.24805269 411.5 0 0 0 51.111591
10.491627 -0.783966 -0.41325107 294 0 0 0 50.721031
12.227516 -0.91084135 -0.18703692 554 0 0 0 50.721031
13.048648 -0.64973974 -0.20172898 575 0 0 0 50.323921
11.421506 -0.28986105 -0.45204318 93 0 0 0 49.937328
12.032228 -0.0092863999 -0.47804657 162 0 0 0 49.553913
12.953308 -0.32608122 -0.19996271 292 0 0 0 49.937328
14.238798 -0.0081344293 -0.2233337 117 0 0 0 49.553913
11.865608 0.2826983 -0.4712745 144 0 0 0 49.155022
16.41131 0.39423528 -0.26296642 275 0 0 0 49.155022
11.499837 0.8411665 -0.45720652 117 0 0 0 48.382698
11.710999 0.56744975 -0.46530551 145 0 0 0 48.770992
16.42626 0.79886883 -0.26372215 307 0 0 0 48.770992
11.233834 1.2386539 -0.44775388 68 0 0 0 47.796173
16.570831 1.2147129 -0.26701936 243 0 0 0 48.382698
10.869591 1.7439916 -0.43558013 76 0 0 0 47.011795
16.6849 1.6361876 -0.2699599 173 0 0 0 47.988632
-4.1421523 2.3554392 -0.24367888 132.11111 0 0 0 7.9258423
-3.7303832 2.4026716 -0.24930729 73.727272 0 0 0 8.829195
-3.3935556 2.4139993 -0.25213346 51.888889 0 0 0 9.5702162
10.434279 2.3407557 -0.42250621 48 0 0 0 46.032318
10.582061 2.1017463 -0.42640755 115 0 0 0 46.429768
16.851711 2.0718026 -0.27406481 220 0 0 0 47.60371
3.1988988 2.6223271 -0.23862162 89.133331 0 0 0 38.700214
3.7207737 2.638139 -0.25472614 124.33334 0 0 0 39.791859
4.2958221 2.662205 -0.24592736 191.25 0 0 0 40.773582
4.7133856 2.6845627 -0.26635674 241 0 0 0 41.352261
5.1677637 2.7030127 -0.25678572 279.71429 0 0 0 41.913219
5.7433524 2.7265091 -0.23897189 316 0 0 0 42.529819
6.1600108 2.7392197 -0.25486341 326.33334 0 0 0 42.919239
6.6448512 2.7596233 -0.27424166 272.33334 0 0 0 43.304676
7.2164922 2.7894833 -0.29803744 286.66666 0 0 0 43.697079
10.241753 2.697804 -0.41839385 51.5 0 0 0 45.454918
17.147083 2.7536597 -0.28149089 193.5 0 0 0 47.011795
8.8750219 3.1783776 -0.36913636 299 0 0 0 44.089321
9.9328365 3.2824264 -0.41318372 221 0 0 0 44.472198
10.050922 3.049099 -0.41483474 170 0 0 0 44.862591
17.207567 3.4176543 -0.28503442 150 0 0 0 46.429768
17.442062 3.9120402 -0.29131174 153 0 0 0 46.032318
17.802181 4.4548707 -0.30021533 115 0 0 0 45.652111
17.066462 4.7196589 -0.2887134 45 0 0 0 45.257729
16.298943 5.3829546 -0.27927795 30 0 0 0 44.472198
16.690592 5.060637 -0.28409156 44 0 0 0 44.862591
16.042948 5.7396111 -0.27719414 38 0 0 0 44.089321
-41.951088 -38.034977 0.43812239 6 0 0 0 87.840332
-36.724091 -36.736126 0.4040038 7 0 0 0 87.075165
-34.530197 -36.279911 0.39034775 7 0 0 0 86.673248
-15.028642 -33.910019 0.29184979 19 0 0 0 81.19249
-25.486679 -32.668095 0.32736814 18 0 0 0 85.104385
-24.079687 -32.47731 0.31983319 26 0 0 0 84.715553
-22.662659 -32.18774 0.31187314 32 0 0 0 84.322632
-21.383581 -32.011665 0.30530313 27 0 0 0 83.936005
-13.446658 -32.467918 0.27788785 8 0 0 0 80.806381
-12.479609 -32.35611 0.27418032 11 0 0 0 80.415504
-20.116934 -31.776562 0.29860348 27 0 0 0 83.54541
-18.955173 -31.63282 0.29299968 29 0 0 0 83.153488
-17.855194 -31.526384 0.28800699 38 0 0 0 82.765549
-16.807398 -31.451483 0.28352943 7 0 0 0 82.367531
-11.265914 -31.488817 0.26517865 29 0 0 0 80.021957
-9.4494858 -31.150925 0.25807354 25 0 0 0 79.239532
-8.5759029 -30.987858 0.25484616 24 0 0 0 78.847069
-7.7243304 -30.833872 0.25186828 23 0 0 0 78.46077
-6.8918953 -30.685247 0.24908434 31 0 0 0 78.063126
-6.0922961 -30.619463 0.24705647 120 0 0 0 77.683327
-5.287816 -30.462091 0.24453244 106 0 0 0 77.288017
-4.4988627 -30.311541 0.24220985 54 0 0 0 76.893936
-23.885887 -29.114426 0.30127072 5 0 0 0 85.499954
-8.5233727 -25.800249 0.22176486 12 0 0 0 79.635689
-18.902685 -7.2976909 0.18128477 247 0 0 0 93.715569
-18.96747 -6.7925982 0.18042904 156 0 0 0 94.10099
-14.171219 -6.7084179 0.14851101 389 0 0 0 92.522331
-9.9023952 -5.9397945 0.26293877 643.5 0 0 0 90.981529
-4.8006692 -3.2127047 0.077548385 130 0 0 0 90.201614
-3.6169231 -2.9730952 0.069565021 189 0 0 0 88.630463
-12.711487 -1.8886766 0.12785667 306 0 0 0 97.217667
3.7533422 -1.8085823 0.10375343 84.199997 0 0 0 56.649914
4.2505302 -1.7459366 0.13369682 95.199997 0 0 0 55.7094
4.7171063 -1.6649103 0.15906049 286.75 0 0 0 54.918343
5.3099446 -1.6208757 0.071083203 325 0 0 0 54.229462
5.6700487 -1.5792547 0.14698946 212.5 0 0 0 53.84951
5.8343682 -1.4712056 0.22374499 338.66666 0 0 0 53.455555
6.4928546 -1.1340982 0.077275008 346 0 0 0 52.284698
6.5236025 -1.4741619 0.16195711 93.5 0 0 0 53.062046
7.5817194 -1.1324153 0.18043667 440.5 0 0 0 51.897362
8.2269897 -1.0213732 0.087876953 153 0 0 0 51.504566
8.8657169 -1.1017973 0.31538498 1027 0 0 0 51.504566
9.3151674 -0.92470205 0.21156843 650.5 0 0 0 51.111591
11.716165 -0.87268913 0.4033497 383 0 0 0 50.721031
12.077847 -0.89750749 0.1119699 528 0 0 0 50.721031
12.905729 -0.64135265 0.27800062 594.5 0 0 0 50.323921
12.95715 -0.3248789 0.27904788 378 0 0 0 49.937328
15.018831 -0.0057572066 0.12992378 61 0 0 0 49.553913
32.686497 0.79177773 0.24150077 122 0 0 0 49.155022
17.040741 1.2522593 0.1423666 1397 0 0 0 48.382698
24.717457 1.2065427 0.19092916 38 0 0 0 48.770992
-3.7362428 2.3355069 0.18975344 91.900002 0 0 0 8.6192045
-3.3909709 2.3435342 0.21019122 69.75 0 0 0 9.3541098
23.084158 2.2672997 0.1805463 63 0 0 0 47.988632
3.3016105 2.5995748 0.26857474 189.8 0 0 0 39.012875
3.792752 2.6221151 0.23457983 224.25 0 0 0 39.987312
4.2561493 2.6392195 0.25158307 314.375 0 0 0 40.773582
4.8063655 2.6586206 0.2725966 444.75 0 0 0 41.547318
5.307817 2.6845963 0.21860951 440.33334 0 0 0 42.141022
5.6757874 2.695926 0.22889543 520 0 0 0 42.529819
6.1058249 2.7166297 0.24143064 521.66669 0 0 0 42.919239
6.5702586 2.730253 0.25499395 457.33334 0 0 0 43.304676
7.1184058 2.7532938 0.27095231 445.33334 0 0 0 43.697079
7.74051 2.7759466 0.28720459 11.5 0 0 0 44.089321
22.41711 3.3201931 0.17661044 123 0 0 0 47.207439
30.037212 3.6963999 0.22460233 101 0 0 0 47.60371
21.503595 4.2736607 0.1714282 86 0 0 0 46.429768
23.518793 4.0758963 0.18386661 44 0 0 0 46.816151
21.406525 4.8039017 0.17123529 97 0 0 0 46.032318
20.536139 5.6815391 0.166759 20 0 0 0 45.257729
23.78669 5.9546461 0.18699753 18 0 0 0 45.652111
-2.9698009 -30.064638 0.99229437 73 0 0 0 76.118156
-0.73977745 -29.734638 0.97618878 28 0 0 0 74.941689
8.3705854 -27.645271 0.94621921 23 0 0 0 69.865929
9.0691967 -27.501511 0.94871193 14 0 0 0 69.4702
9.7748785 -27.365458 0.95204306 20 0 0 0 69.078278
10.499475 -27.263481 0.95712745 11 0 0 0 68.691193
11.253217 -27.210659 0.96453476 6 0 0 0 68.300705
-8.5322113 -25.811962 0.90022433 34 0 0 0 79.635689
10.028966 -22.664944 0.81751126 12 0 0 0 67.912819
10.710706 -22.684597 0.82711637 61 0 0 0 67.519951
-98.966797 -12.220607 0.74362421 9 0 0 0 97.617928
-95.410217 -9.4105062 0.71543491 19 0 0 0 98.000153
-20.713203 -7.991992 0.74932361 196 0 0 0 93.715569
-18.870256 -7.8185825 0.69229859 108 0 0 0 93.315514
-95.709831 -7.0731111 0.71512973 15 0 0 0 98.386971
-14.055102 -7.0774946 0.92669606 276 0 0 0 92.138763
-19.04789 -6.8174458 0.68602306 168 0 0 0 94.10099
-14.179106 -6.7089396 0.73103392 222.5 0 0 0 92.522331
-13.017231 -6.960752 0.87145287 83 0 0 0 91.750305
-9.9453526 -6.3010778 0.70213211 175 0 0 0 90.592178
-9.4197168 -6.2996588 0.95901984 237 0 0 0 90.201614
-13.209092 -5.8578324 0.85394549 295 0 0 0 92.916801
-10.038571 -5.6899781 0.68900573 176 0 0 0 91.362671
-9.7608805 -5.7476401 0.86265916 668.66669 0 0 0 91.108582
-9.460825 -5.996542 0.94843894 435 0 0 0 90.592178
-9.7522192 -5.2179499 0.93719512 574 0 0 0 91.750305
19.395468 1.4219173 0.64321321 46 0 0 0 48.382698
2.9245291 2.5541854 0.87541449 154 0 0 0 38.2285
3.249747 2.5698588 0.76235962 232.42857 0 0 0 38.985157
3.7491982 2.593745 0.73902005 367.89999 0 0 0 39.987312
4.2077866 2.6108077 0.73835576 437.5 0 0 0 40.773582
4.7271042 2.6274626 0.7736063 555.57141 0 0 0 41.519451
5.2619572 2.6629794 0.72689623 510 0 0 0 42.141022
5.608407 2.6656055 0.76351273 561.25 0 0 0 42.529819
6.1535549 2.6921279 0.78362495 517.5 0 0 0 43.015602
6.5119214 2.7071095 0.68936521 533.5 0 0 0 43.30468
7.0445604 2.7259033 0.73586076 510.5 0 0 0 43.697079
7.5869169 2.7219424 0.7830863 132.5 0 0 0 44.089321
27.049732 2.6519353 0.88463026 55 0 0 0 47.988632
30.018801 3.6890469 0.98005956 108 0 0 0 47.60371
20.934441 4.1570339 0.70114702 212 0 0 0 46.429768
29.883287 4.4197555 0.97854769 121 0 0 0 47.207439
-8.6401234 5.1506505 0.84039646 324 0 0 0 8.1868496
-8.2482386 5.1925449 0.81552982 97 0 0 0 8.58214
-7.2699609 5.2154083 0.96753782 199 0 0 0 9.548605
-6.7642245 5.2376342 0.92675132 162 0 0 0 10.13958
-6.2879829 5.2441378 0.8886925 347.5 0 0 0 10.72197
-5.8826632 5.2823777 0.85952234 119 0 0 0 11.29978
-5.1824975 5.2513285 0.98475254 777.5 0 0 0 12.27625
-4.7253699 5.2776842 0.94719893 562 0 0 0 13.055201
29.757614 5.1508317 0.97791183 79 0 0 0 46.816151
24.716459 5.5413861 0.82523829 60 0 0 0 46.032318
-15.041445 -33.922997 1.2180974 19 0 0 0 81.19249
-22.958864 -32.596306 1.3105428 4 0 0 0 84.322632
-21.745304 -32.540844 1.2866275 6 0 0 0 83.936005
-17.903755 -31.5993 1.1950545 10 0 0 0 82.765549
-13.250317 -31.978048 1.1381184 35 0 0 0 80.806381
-12.292118 -31.85343 1.1225791 43 0 0 0 80.415504
-11.34206 -31.684349 1.106473 7 0 0 0 80.021957
-16.838184 -31.495907 1.1752434 9 0 0 0 82.367531
-9.4973564 -31.289227 1.0750947 8 0 0 0 79.239532
-8.6595516 -31.269108 1.0665534 13 0 0 0 78.847069
-7.7670269 -30.981554 1.0499933 6 0 0 0 78.46077
-6.9206419 -30.78828 1.0373065 7 0 0 0 78.063126
-6.1028876 -30.644875 1.0270002 125 0 0 0 77.683327
-5.2987843 -30.493832 1.0171301 126 0 0 0 77.288017
-4.5078516 -30.335773 1.0077165 95 0 0 0 76.893936
-3.7349889 -30.214952 1.0001562 129 0 0 0 76.503952
-32.473793 -29.432777 1.441295 8 0 0 0 87.840332
15.220886 -26.905739 1.0113248 14 0 0 0 66.336006
16.0446 -26.805023 1.0217158 25 0 0 0 65.948242
16.896503 -26.717897 1.0335134 20 0 0 0 65.56517
17.701477 -26.526781 1.0423272 16 0 0 0 65.164299
-16.587439 -26.191425 1.0261756 19 0 0 0 83.54541
18.581404 -26.417513 1.0551993 25 0 0 0 64.777939
19.039093 -25.704332 1.0453888 74 0 0 0 64.388222
19.869007 -25.492243 1.0558916 52 0 0 0 63.993858
20.780384 -25.352863 1.070389 69 0 0 0 63.60828
21.728039 -25.220215 1.0863817 18 0 0 0 63.211929
10.734183 -22.734383 1.4441233 37 0 0 0 67.519951
-20.322077 -8.4196625 1.2811654 5589 0 0 0 93.315514
-20.551109 -7.9292827 1.2829007 2340 0 0 0 93.715569
-9.5202093 -6.0340891 1.2277917 18 0 0 0 90.592178
-30.488956 -4.5222545 1.0249581 36 0 0 0 97.217667
13.61342 -4.8833981 1.2054778 309 0 0 0 55.017921
24.245081 -3.6112759 1.4049665 71 0 0 0 51.897362
-22.410145 -2.7635772 1.3132339 111 0 0 0 97.617928
24.192238 -2.9981306 1.3969531 94 0 0 0 51.504566
24.099142 -2.3874393 1.3875932 104 0 0 0 51.111591
23.866287 -1.7738609 1.3714136 63 0 0 0 50.721031
20.393511 0.99226552 1.1740515 8 0 0 0 48.770992
19.401718 1.422528 1.1200746 70 0 0 0 48.382698
2.8737514 2.5290601 1.2746451 177.57143 0 0 0 38.174046
3.2250648 2.5424733 1.2441099 231 0 0 0 39.012875
3.6924846 2.5636671 1.2600492 373.44446 0 0 0 39.965385
4.1465282 2.5822198 1.2450471 489.66666 0 0 0 40.752048
4.6992669 2.6022778 1.2613159 563.125 0 0 0 41.547321
5.1840515 2.6250415 1.2911118 555.75 0 0 0 42.141022
5.7627735 2.6502755 1.2476799 564.66669 0 0 0 42.724529
6.4130173 2.6676366 1.2794796 548 0 0 0 43.304676
6.9611969 2.6952906 1.1873554 513.33331 0 0 0 43.697079
7.5556226 2.7123649 1.2743741 364.33334 0 0 0 44.089321
22.022465 3.8132126 1.2804523 566 0 0 0 46.816151
-8.6416588 5.1504936 1.2059605 319.5 0 0 0 8.1868496
-8.2347803 5.1829319 1.1676989 93.5 0 0 0 8.58214
-7.8271623 5.195292 1.2439915 80.333336 0 0 0 8.9712696
-7.2509222 5.1995702 1.2925196 225.25 0 0 0 9.548605
-6.74049 5.2171254 1.2361736 230.5 0 0 0 10.13958
-6.2620888 5.2200413 1.1838055 308 0 0 0 10.72197
-5.6965466 5.2374997 1.2203983 231.83333 0 0 0 11.496486
-5.1712203 5.2396951 1.2537476 856 0 0 0 12.27625
-4.7695284 5.2626758 1.2550569 660.5 0 0 0 12.956321
24.713573 5.5409102 1.44564 43 0 0 0 46.032318
2.2848904 -46.764011 1.5144473 46 0 0 0 73.763504
-42.316711 -36.502117 1.8283874 12 0 0 0 88.232361
-36.738094 -36.73716 1.7010092 6 0 0 0 87.075165
-34.919498 -36.675953 1.6583868 10 0 0 0 86.673248
-29.236385 -35.622765 1.5109035 18 0 0 0 85.499954
-11.631947 -32.494427 1.9784431 32 0 0 0 80.021957
-7.9957528 -31.894493 1.8845099 51 0 0 0 78.46077
-7.168786 -31.893034 1.8731588 29 0 0 0 78.063126
-38.266014 -31.40427 1.6240746 9 0 0 0 88.630463
-4.6374207 -31.208876 1.8077608 43 0 0 0 76.893936
-0.77202457 -31.043282 1.7774589 9 0 0 0 74.941689
8.3905201 -27.711304 1.656943 17 0 0 0 69.865929
9.0706854 -27.506275 1.6576622 20 0 0 0 69.4702
-16.426962 -27.402889 1.8378453 11 0 0 0 83.153488
9.778801 -27.376657 1.6638503 26 0 0 0 69.078278
10.500379 -27.266039 1.6722637 16 0 0 0 68.691193
11.22086 -27.132706 1.6804414 31 0 0 0 68.300705
11.945142 -26.989462 1.6891658 17 0 0 0 67.912819
-14.993422 -26.462654 1.7508492 19 0 0 0 82.765549
14.973304 -26.468655 1.739772 22 0 0 0 66.336006
15.746161 -26.307035 1.7538024 25 0 0 0 65.948242
16.55155 -26.173056 1.7711219 16 0 0 0 65.56517
17.423506 -26.110701 1.7948626 14 0 0 0 65.164299
-17.344383 -25.955317 1.7973833 5 0 0 0 83.936005
-8.5555992 -25.882811 1.5695962 43 0 0 0 79.635689
18.218342 -25.901888 1.8104168 12 0 0 0 64.777939
19.063871 -25.737814 1.8307132 74 0 0 0 64.388222
19.918333 -25.555525 1.8515524 111 0 0 0 63.993858
22.306564 -25.891174 1.950949 45 0 0 0 63.211929
20.814476 -25.394464 1.8758475 33 0 0 0 63.60828
26.868811 -19.953924 1.911265 22 0 0 0 59.69376
58.063946 -19.213116 1.9615173 24 0 0 0 54.619598
-20.624392 -7.9614816 1.8378088 252 0 0 0 93.715569
13.64677 -4.8938532 1.739139 189.5 0 0 0 55.017921
-9.8052883 -4.2117519 1.9553529 144 0 0 0 93.116158
-21.37047 -3.1734707 1.7962048 43 0 0 0 97.217667
23.401167 -3.4813812 1.9466858 43 0 0 0 51.897362
-23.007469 -2.8409908 1.9245275 44 0 0 0 97.617928
23.302097 -2.8836501 1.9318092 58 0 0 0 51.504566
24.033024 -2.3764443 1.9855422 76 0 0 0 51.111591
23.914713 -1.7730404 1.9715697 69 0 0 0 50.721031
17.204172 -1.276352 1.8478535 19 0 0 0 50.721031
23.83713 -1.1796178 1.9621016 112 0 0 0 50.323921
17.346134 -0.85901451 1.8598536 142 0 0 0 50.323921
20.398682 0.99625492 1.6832807 34 0 0 0 48.770992
23.714655 0.57487303 1.9496254 15 0 0 0 49.155022
19.399487 1.4259267 1.6047201 110 0 0 0 48.382698
22.608067 2.2211049 1.8677793 79 0 0 0 47.988632
3.2464144 2.5280638 1.5610185 241.25 0 0 0 39.109894
3.7808864 2.5480659 1.6739661 334 0 0 0 40.18478
4.2840371 2.5664043 1.7607763 372.28571 0 0 0 41.02198
4.7093782 2.584079 1.7281394 412.83334 0 0 0 41.612335
5.2627816 2.5987291 1.7823451 478 0 0 0 42.296539
5.8248444 2.6290252 1.7165684 469 0 0 0 42.841354
6.3696156 2.6510851 1.7817307 439.33334 0 0 0 43.304676
6.8993602 2.6724997 1.7253326 451 0 0 0 43.697079
7.4692016 2.6830771 1.8481338 397 0 0 0 44.089321
7.5084944 2.6956065 1.661806 431 0 0 0 44.089321
22.719534 2.797034 1.8815519 63 0 0 0 47.60371
28.953693 2.8386984 1.6570723 25 0 0 0 47.988632
60.532158 2.944442 1.9307897 50 0 0 0 48.770992
29.992828 3.6860836 1.7194638 128 0 0 0 47.60371
29.869295 4.4179087 1.7177409 114 0 0 0 47.207439
20.86104 4.6820827 1.758688 189 0 0 0 46.032318
-8.6189594 5.1357422 1.6952143 180.5 0 0 0 8.1868496
-8.1806145 5.1474247 1.7529329 12 0 0 0 8.58214
-7.4384022 5.2006912 1.7588394 18.5 0 0 0 9.3541098
-6.7341027 5.2101288 1.9631855 14 0 0 0 10.13958
-6.399282 5.205122 1.7023301 142.66667 0 0 0 10.52797
-5.6873679 5.2277083 1.7848005 10.833333 0 0 0 11.496486
-5.1583972 5.2253146 1.6984943 717 0 0 0 12.27625
-4.7982736 5.2288666 1.8162088 775.66669 0 0 0 12.85744
21.750053 5.4458556 1.8423318 212 0 0 0 45.652111
27.90983 5.5406275 1.6201128 181 0 0 0 46.429768
1.0002332 -41.218437 2.3474717 26 0 0 0 74.162231
-8.0896978 -40.629452 2.3639247 6 0 0 0 77.683327
-4.3568883 -35.254021 2.0303383 24 0 0 0 76.503952
-6.0436091 -34.784531 2.0192418 17 0 0 0 77.288017
-15.098876 -34.052601 2.1342075 34 0 0 0 81.19249
-10.458853 -34.45813 2.0616174 6 0 0 0 79.239532
-13.682374 -33.020992 2.0487835 4 0 0 0 80.806381
-16.865685 -31.547379 2.0525455 7 0 0 0 82.367531
8.5303545 -28.155073 2.4152534 173 0 0 0 69.865929
9.1137896 -27.62089 2.3884728 131 0 0 0 69.4702
9.9731045 -27.904795 2.4329901 128 0 0 0 69.078278
10.675228 -27.705309 2.4378045 156 0 0 0 68.691193
11.400263 -27.552576 2.4482539 78 0 0 0 68.300705
12.118556 -27.368105 2.4575603 129 0 0 0 67.912819
-7.3000345 -26.375887 2.2558491 35 0 0 0 78.847069
-8.5443363 -25.863939 2.2462623 46 0 0 0 79.635689
-9.7019396 -25.153223 2.2244253 19 0 0 0 80.415504
28.253429 -24.40061 2.1275637 47 0 0 0 60.860554
29.410343 -24.165274 2.1688015 34 0 0 0 60.469807
30.713266 -23.997545 2.2200215 32 0 0 0 60.086166
33.43029 -23.572733 2.3282297 38 0 0 0 59.299042
34.86224 -23.32259 2.3864396 43 0 0 0 58.914433
36.386711 -23.069981 2.4502566 27 0 0 0 58.52478
10.749277 -22.75617 2.072027 29 0 0 0 67.519951
9.474741 -21.40452 2.49792 10 0 0 0 67.912819
32.506313 -18.44043 2.1298869 4 0 0 0 57.737591
-20.899944 -8.0676107 2.4060564 52 0 0 0 93.715569
-9.6326113 -5.1558175 2.1337516 62.5 0 0 0 91.750305
-9.2642288 -5.1562772 2.3753927 131.33333 0 0 0 91.491882
-12.195829 -4.7112441 2.3875957 25 0 0 0 93.715569
-9.7268896 -4.7043567 2.2413666 153.66667 0 0 0 92.39447
13.668793 -4.9002457 2.2800901 61 0 0 0 55.017921
-8.3799191 -4.3560057 2.4294457 87 0 0 0 91.944534
-8.7732172 -3.6415992 2.4435098 48 0 0 0 93.315514
-8.2012863 -3.7632427 2.3229265 175.5 0 0 0 92.719566
-7.0377073 -3.5513828 2.422873 78 0 0 0 92.138763
20.48691 -3.5647242 2.2212076 31 0 0 0 52.284698
-8.7606449 -3.3867447 2.2990398 185 0 0 0 93.715569
17.336582 -0.85535741 2.2860947 12 0 0 0 50.323921
21.671583 -0.53943706 2.3122861 46 0 0 0 49.937328
26.164305 -0.65105551 2.1479349 14 0 0 0 49.937328
35.53508 -0.88999999 2.0189033 96 0 0 0 49.937328
16.846176 -0.0026450846 2.2194769 185 0 0 0 49.553913
17.044636 -0.42158619 2.2460365 135 0 0 0 49.937328
21.650078 -0.0069770226 2.3090913 33 0 0 0 49.553913
16.714878 0.40820661 2.20294 138 0 0 0 49.155022
16.512255 0.80963272 2.1784425 132 0 0 0 48.770992
20.381903 0.99559802 2.1780617 72 0 0 0 48.770992
21.096516 0.51151085 2.2513978 56 0 0 0 49.155022
16.193308 1.1935183 2.1400731 130 0 0 0 48.382698
19.419611 1.4275569 2.0797958 102 0 0 0 48.382698
23.021753 2.2618918 2.463685 34 0 0 0 47.988632
4.7606039 2.5643592 2.0727158 382 0 0 0 41.742378
5.3056154 2.5887661 2.1422896 383.39999 0 0 0 42.374298
5.8271775 2.5985987 2.2814691 351.33334 0 0 0 42.919239
6.2890267 2.6191063 2.2653065 338.33334 0 0 0 43.304676
6.8149476 2.640985 2.2471058 349.66666 0 0 0 43.697079
7.3988547 2.6584857 2.2191217 360 0 0 0 44.089321
29.387157 4.3521185 2.4307802 41 0 0 0 47.207439
-8.6285057 5.1403756 2.1881404 17.5 0 0 0 8.1868496
-8.1585865 5.1313314 2.452554 6 0 0 0 8.58214
-7.8021026 5.1757307 2.1553204 11 0 0 0 8.9712696
-7.2412858 5.1463428 2.1901104 13 0 0 0 9.4837732
-6.7185383 5.1979008 2.2704463 10.5 0 0 0 10.13958
-6.2852068 5.1725588 2.2276239 18.25 0 0 0 10.62497
-5.7014599 5.1972136 2.2236507 9.333333 0 0 0 11.430916
-5.153049 5.192852 2.1941309 621 0 0 0 12.237979
-4.8300633 5.1970477 2.3369298 551.25 0 0 0 12.75998
29.278063 5.0735893 2.4309623 101 0 0 0 46.816151
29.176701 5.7973952 2.4332352 93 0 0 0 46.429768
-36.870708 -36.869614 2.9833291 12 0 0 0 87.075165
-34.721394 -36.467773 2.8816869 5 0 0 0 86.673248
-32.755558 -36.13876 2.7919199 11 0 0 0 86.282791
-30.856123 -35.769176 2.7046502 8 0 0 0 85.89711
-29.285284 -35.68227 2.6432073 14 0 0 0 85.499954
-10.567798 -34.839153 2.990088 23 0 0 0 79.239532
-11.639705 -32.534077 2.8407235 24 0 0 0 80.021957
-7.996923 -31.92288 2.7051497 33 0 0 0 78.46077
-7.1737351 -31.941219 2.6906435 17 0 0 0 78.063126
-6.3208451 -31.769335 2.6621778 18 0 0 0 77.683327
-5.4891124 -31.62314 2.6376657 26 0 0 0 77.288017
-39.936687 -31.166891 2.9015574 4 0 0 0 89.021111
-15.732551 -31.261805 2.8794191 7 0 0 0 81.980194
-4.6511455 -31.339071 2.6036289 30 0 0 0 76.893936
-3.8641067 -31.306183 2.5919166 37 0 0 0 76.503952
-0.76324093 -30.905043 2.5390956 7 0 0 0 74.941689
-17.093346 -27.000643 2.6340933 5 0 0 0 83.54541
-15.50503 -27.376781 2.5930314 25 0 0 0 82.765549
-17.708923 -26.510809 2.6284304 10 0 0 0 83.936005
-16.072964 -26.822985 2.577816 13 0 0 0 83.153488
-14.352563 -26.857704 2.5104191 18 0 0 0 82.367531
15.209897 -26.875628 2.5349185 160 0 0 0 66.336006
16.016062 -26.747019 2.5588434 129 0 0 0 65.948242
16.834064 -26.609179 2.5841262 105 0 0 0 65.56517
17.696924 -26.510111 2.6155262 129 0 0 0 65.164299
18.530518 -26.335617 2.6420701 114 0 0 0 64.777939
-8.5635061 -25.922056 2.9141092 55 0 0 0 79.635689
19.247345 -25.97588 2.6524565 130 0 0 0 64.388222
20.191273 -25.89613 2.6935744 143 0 0 0 63.993858
21.133224 -25.77388 2.7334666 106 0 0 0 63.60828
22.30575 -25.881142 2.8011804 51 0 0 0 63.211929
-9.0908585 -25.408222 2.8813672 55 0 0 0 80.021957
22.774382 -25.149828 2.7818811 35 0 0 0 62.816513
-9.5835361 -24.846237 2.8443182 11 0 0 0 80.415504
-7.5347137 -24.83674 2.7717593 53 0 0 0 79.239532
23.706579 -24.921574 2.8196218 18 0 0 0 62.430779
24.861691 -24.883106 2.8825965 11 0 0 0 62.03371
9.6888847 -23.421618 2.7018321 26 0 0 0 68.300705
10.740018 -22.736727 2.680959 18 0 0 0 67.519951
38.081039 -22.853289 2.5246015 26 0 0 0 58.135406
43.737831 -22.044546 2.7799089 17 0 0 0 56.962399
45.332726 -21.469595 2.8457279 18 0 0 0 56.573299
47.503731 -21.086037 2.9469378 22 0 0 0 56.178181
26.963617 -20.016914 2.7538784 31 0 0 0 59.69376
27.275082 -19.2283 2.7369204 27 0 0 0 59.299042
31.822247 -18.045179 2.9966557 19 0 0 0 57.737591
43.002823 -17.8393 2.6430552 21 0 0 0 55.785439
-19.873829 -8.8193512 2.8708148 20 0 0 0 92.916801
-11.909653 -6.0023589 2.7625687 82 0 0 0 92.138763
-8.6321545 -6.0890422 2.9745529 56 0 0 0 89.802818
-9.2270575 -5.8525953 2.5364571 15 0 0 0 90.592178
-8.8208475 -5.9034495 2.7252016 42 0 0 0 90.201614
-8.2461176 -5.5190215 2.796248 31 0 0 0 90.201614
-12.314296 -5.107707 2.7618065 28 0 0 0 93.315514
-8.8647633 -5.3224192 2.7846017 85 0 0 0 90.981529
-11.334586 -4.7038422 2.8453951 35 0 0 0 93.315514
-7.0981092 -4.7529974 2.6219389 89 0 0 0 90.201614
-6.8511128 -4.7109556 2.860842 83.5 0 0 0 90.002213
-9.2375097 -4.1027112 2.8487868 171 0 0 0 92.916801
-7.7278919 -4.3859992 2.5080335 133 0 0 0 91.362671
-7.1257372 -4.0460548 2.8192787 117 0 0 0 91.362671
-8.1252337 -3.8506734 2.537883 62 0 0 0 92.522331
-7.7364945 -3.6682115 2.6288097 123 0 0 0 92.522331
-7.1290655 -3.598875 2.847291 64 0 0 0 92.138763
-6.7706704 -3.6998484 2.8765266 38 0 0 0 91.621094
20.438063 -3.5523894 2.7264411 102 0 0 0 52.284698
-23.532721 -3.4941316 2.5522392 41 0 0 0 97.217667
-8.5105581 -3.0536046 2.7747087 56 0 0 0 94.10099
-8.1868439 -3.2818673 2.5984745 142.5 0 0 0 93.515541
-7.6842446 -3.3401535 2.709954 95.333336 0 0 0 93.049706
-7.2788358 -3.4528694 2.8722327 40 0 0 0 92.522331
-6.856699 -3.3567457 2.9106612 39.5 0 0 0 92.330551
-8.3898649 -2.8936911 2.8341548 31.5 0 0 0 94.300659
-18.284506 -2.2605731 2.8937168 34 0 0 0 97.617928
-12.370913 -1.5295064 2.5848927 30 0 0 0 97.617928
-12.017921 -1.4878738 2.8086765 49 0 0 0 97.617928
18.825222 -1.3926471 2.9506826 102 0 0 0 50.721031
18.535496 -0.91415471 2.9013267 144 0 0 0 50.323921
15.506214 -0.0022810197 2.8142483 138 0 0 0 49.553913
17.191442 -0.21603259 2.6905684 82 0 0 0 49.745621
16.083338 0.39289364 2.5196555 189 0 0 0 49.155022
15.721884 0.77114224 2.855969 168 0 0 0 48.770992
16.08922 0.78902531 2.5226498 166 0 0 0 48.770992
16.867949 1.2433368 2.6467137 65 0 0 0 48.382698
19.545013 1.9241656 2.5805802 49 0 0 0 47.988632
6.2432694 2.6014996 2.5826442 306 0 0 0 43.30468
6.730732 2.6108541 2.6650891 286.5 0 0 0 43.697079
7.3173561 2.6309011 2.7718363 255.66667 0 0 0 44.089321
26.0338 3.2048762 2.7884269 61 0 0 0 47.60371
25.804325 3.8221247 2.7729597 70 0 0 0 47.207439
-9.0439014 5.0933633 2.6388009 86 0 0 0 7.7950301
-8.5597095 5.0979328 2.6568019 12.5 0 0 0 8.1868496
-8.0806389 5.0808029 2.7810292 142 0 0 0 8.58214
-7.75564 5.143537 2.712121 13 0 0 0 8.9712696
-7.3115659 5.108417 2.7094424 108.33334 0 0 0 9.3541098
-6.8090668 5.1596651 2.7639117 13.8 0 0 0 9.9809875
-6.2498512 5.1624889 2.79585 107.33334 0 0 0 10.657304
-5.6566896 5.195087 2.8074105 80.75 0 0 0 11.496485
-5.2275076 5.1645765 2.6871748 445 0 0 0 12.0849
-4.9156895 5.1802297 2.6414881 457.66666 0 0 0 12.597547
-13.961917 8.8194542 2.5731049 12 0 0 0 8.58214
-13.356627 8.8999681 2.8976696 10 0 0 0 8.9712696
-12.298905 9.0915232 2.7634568 14 0 0 0 9.7431002
-11.744574 9.1327934 2.6893501 19 0 0 0 10.13958
-10.670811 9.1661701 2.7175155 20.5 0 0 0 10.91597
4.1687179 -56.701637 3.2223222 27 0 0 0 73.372643
1.0070853 -41.206131 3.3727841 33 0 0 0 74.162231
2.0174928 -41.166878 3.37205 27 0 0 0 73.763504
-41.457123 -39.469166 3.2720852 5 0 0 0 87.457352
-41.8965 -37.971767 3.2331467 8 0 0 0 87.840332
-44.58371 -36.588184 3.2980628 9 0 0 0 88.630463
-42.457016 -36.622917 3.2068295 10 0 0 0 88.232361
-15.113653 -34.102047 3.0655556 24 0 0 0 81.19249
-22.939241 -32.580471 3.2768493 7 0 0 0 84.322632
-48.299995 -32.272694 3.3229764 5 0 0 0 90.201614
-7.9552994 -31.756731 3.4862454 12 0 0 0 78.46077
-7.1012254 -31.618259 3.4507124 21 0 0 0 78.063126
-6.2562451 -31.444489 3.4138489 10 0 0 0 77.683327
-5.4377203 -31.326868 3.3853643 9 0 0 0 77.288017
-4.6469908 -31.311119 3.369992 29 0 0 0 76.893936
-3.8650618 -31.313986 3.3587191 24 0 0 0 76.503952
-3.0744004 -31.18158 3.3351994 29 0 0 0 76.118156
-0.77610332 -31.430347 3.3451238 16 0 0 0 74.941689
-2.2895901 -30.988678 3.3073854 29 0 0 0 75.724083
-1.4759773 -29.957693 3.1932702 32 0 0 0 75.329262
9.1207447 -27.642199 3.0971742 159 0 0 0 69.4702
-15.461359 -27.299692 3.3477299 10 0 0 0 82.765549
-16.092554 -26.855684 3.3412251 14 0 0 0 83.153488
-16.468187 -26.013172 3.2867057 9 0 0 0 83.54541
19.280014 -26.019993 3.4435489 123 0 0 0 64.388222
-10.152865 -24.526007 3.4881833 27 0 0 0 80.806381
-8.1774597 -24.767641 3.4268553 31 0 0 0 79.635689
28.572012 -24.666822 3.0907459 12 0 0 0 60.860554
-9.4348955 -24.473549 3.4467494 26 0 0 0 80.415504
29.647427 -24.351233 3.1410401 42 0 0 0 60.469807
9.8361549 -23.765556 3.3735647 23 0 0 0 68.300705
30.34399 -23.700647 3.152241 13 0 0 0 60.086166
10.740891 -22.728445 3.2982762 28 0 0 0 67.519951
11.440817 -22.747326 3.3404481 25 0 0 0 67.126358
9.9379034 -22.438873 3.2205558 27 0 0 0 67.912819
14.147317 -21.18998 3.3430307 66 0 0 0 65.164299
52.361362 -20.227839 3.1789126 20 0 0 0 55.398968
32.909115 -19.743542 3.14206 5 0 0 0 58.135406
27.184158 -18.182428 3.4775369 5 0 0 0 58.914433
-99.434647 -9.788578 3.2387738 11 0 0 0 98.000153
-18.973919 -7.8684025 3.2224381 38 0 0 0 93.315514
-95.703339 -7.0545454 3.1111183 8 0 0 0 98.386971
-12.268045 -7.3643117 3.3111384 51 0 0 0 90.981529
-9.7628059 -6.1920333 3.2525623 60 0 0 0 90.592178
13.822001 -6.1345568 3.4905174 1019 0 0 0 56.178181
-13.106722 -5.8198586 3.3191099 27 0 0 0 92.916801
-10.59942 -5.6749802 3.3817165 14 0 0 0 91.750305
-10.250467 -5.8164539 3.0227709 59 0 0 0 91.362671
-8.368619 -5.9042788 3.264076 46.5 0 0 0 89.802818
13.770721 -5.7113295 3.4415979 1576 0 0 0 55.785439
-10.555362 -5.322298 3.3256838 32 0 0 0 92.138763
-8.5151634 -5.4032702 3.0894961 41 0 0 0 90.592178
-8.1478634 -5.1702757 3.313484 49.5 0 0 0 90.592178
-7.988595 -5.3506656 3.4203436 51 0 0 0 90.201614
13.698951 -5.2911878 3.3906653 1732 0 0 0 55.398968
-8.3860226 -4.7595205 3.1952243 74.5 0 0 0 91.365921
13.785746 -4.939086 3.3811376 9 0 0 0 55.017921
-8.88554 -4.3444118 3.2762847 43 0 0 0 92.330551
-10.026586 -3.5951037 3.0006056 56 0 0 0 94.10099
-9.0042048 -3.7407351 3.4694307 92 0 0 0 93.315514
-8.8945036 -3.9539845 3.4634414 15 0 0 0 92.916801
19.991081 -3.9828501 3.1848052 80 0 0 0 52.67532
20.509909 -3.5646808 3.2514341 34 0 0 0 52.284698
-8.2057943 -3.4092815 3.3825395 61 0 0 0 93.315514
20.648531 -3.0682855 3.2600429 72 0 0 0 51.897362
-22.762665 -2.8142364 3.0258381 32 0 0 0 97.617928
-8.0040646 -2.6534438 3.0055006 62 0 0 0 94.50032
-7.8425927 -2.7067132 3.1610665 31.5 0 0 0 94.300659
-7.4461331 -2.8816807 3.0429401 38 0 0 0 93.715569
28.757685 -2.8425534 3.0712113 40 0 0 0 51.111591
-12.224864 -1.8191348 3.4765401 27 0 0 0 97.217667
-10.364494 -1.8036045 3.4836223 165 0 0 0 96.830132
-8.069335 -1.8198802 3.1521349 165 0 0 0 96.043571
-11.987112 -1.1856908 3.0898175 25 0 0 0 98.000153
17.189869 -1.2718186 3.1246212 136 0 0 0 50.721031
17.152596 -0.84601039 3.1131201 127 0 0 0 50.323921
17.033007 -0.42100829 3.0887516 106 0 0 0 49.937328
16.913336 0.41334003 3.0669854 84 0 0 0 49.155022
16.938723 1.2486843 3.078532 113 0 0 0 48.382698
16.175812 1.7936475 3.3523436 126 0 0 0 47.796173
16.66066 1.6407276 3.0347805 72 0 0 0 47.988632
19.99736 2.4662149 3.1454239 73 0 0 0 47.60371
20.964924 2.0639882 3.2871773 68 0 0 0 47.988632
23.308592 2.8739719 3.0784192 59 0 0 0 47.60371
-9.3923082 4.9925642 3.4867148 21 0 0 0 7.4050598
28.3356 4.9106131 3.0529363 70 0 0 0 46.816151
-9.0830307 5.1154594 3.417999 4 0 0 0 7.7950301
-8.5872774 5.1134024 3.1549704 9.5 0 0 0 8.1868496
-8.268322 5.0548029 3.4153438 7 0 0 0 8.3844948
-7.6394639 5.0640445 3.2308035 74.666664 0 0 0 8.9712696
-7.3264227 5.1156483 3.2603683 6 0 0 0 9.3541098
-6.8815269 5.1426501 3.1698425 8.333333 0 0 0 9.8752594
-6.2348852 5.1916738 3.062134 11 0 0 0 10.72197
-7.2329922 6.3454752 3.1617255 13.5 0 0 0 11.107875
-10.199723 6.7817435 3.1132076 8 0 0 0 8.9712696
-9.0647287 6.6836643 3.1432521 11 0 0 0 9.7431002
-7.9101057 6.7736588 3.1641629 12 0 0 0 10.91597
-6.9858661 6.5977478 3.1582999 8 0 0 0 11.69319
-8.6217136 7.3912802 3.171335 8 0 0 0 10.91597
-7.624198 7.204308 3.1883576 8 0 0 0 11.69319
-12.43757 7.8480506 3.37466 10 0 0 0 8.58214
-12.898244 8.1437311 3.1279595 13 0 0 0 8.58214
-12.848762 8.5595694 3.1662841 14 0 0 0 8.9712696
-12.239584 9.0456676 3.3075795 11.5 0 0 0 9.7431002
-11.710203 9.105835 3.0449257 19 0 0 0 10.13958
-10.648216 9.1433229 3.2253187 12 0 0 0 10.91597
-30.941774 -35.881027 3.8921297 10 0 0 0 85.89711
-29.339128 -35.760521 3.8000886 11 0 0 0 85.499954
-15.10749 -34.088203 3.9698458 32 0 0 0 81.19249
-15.224936 -32.196774 3.7940361 16 0 0 0 81.595436
-16.952967 -31.72402 3.8325319 11 0 0 0 82.367531
-8.8432121 -31.954548 3.5307941 14 0 0 0 78.847069
-1.4753032 -30.050924 3.9427145 21 0 0 0 75.329262
19.443539 -29.124144 3.7206841 11 0 0 0 65.164299
9.1396437 -27.683447 3.8186727 173 0 0 0 69.4702
-6.7323327 -26.892231 3.6388087 24 0 0 0 78.46077
14.296418 -26.762745 3.9741931 146 0 0 0 66.73436
-7.3243489 -26.481916 3.6072481 28 0 0 0 78.847069
20.431732 -26.204308 3.5323856 55 0 0 0 63.993858
21.254927 -25.922224 3.5633161 88 0 0 0 63.60828
22.292776 -25.866138 3.6290855 58 0 0 0 63.211929
22.756062 -25.129644 3.6032414 44 0 0 0 62.816513
23.711739 -24.927017 3.6559978 30 0 0 0 62.430779
24.964201 -24.98564 3.7523804 7 0 0 0 62.03371
27.235699 -24.705719 3.9049952 28 0 0 0 61.256001
10.142399 -22.900091 3.9057243 21 0 0 0 67.912819
10.689026 -22.618975 3.9015222 17 0 0 0 67.519951
11.37956 -22.625807 3.9494083 16 0 0 0 67.126358
27.029436 -20.065678 3.5783989 15 0 0 0 59.69376
27.105057 -19.108463 3.5258393 10 0 0 0 59.299042
32.049004 -19.227779 3.9689817 5 0 0 0 58.135406
62.195274 -18.898771 3.673393 6 0 0 0 54.229462
31.404913 -17.808569 3.8350508 27 0 0 0 57.737591
42.922985 -17.797146 3.7952542 7 0 0 0 55.785439
-17.033304 -7.5588918 3.8464925 52 0 0 0 92.916801
-11.763556 -7.4602375 3.5661342 36 0 0 0 90.592178
-11.229989 -6.3742957 3.9468915 30 0 0 0 91.362671
-7.7185707 -6.1386981 3.6667309 34.333332 0 0 0 88.8909
13.82829 -6.1372604 3.863785 356 0 0 0 56.178181
-7.7684684 -5.7747483 3.6798108 40 0 0 0 89.407471
13.741453 -5.6991286 3.7998686 640 0 0 0 55.785439
-8.5157671 -5.1168637 3.5334291 9 0 0 0 90.981529
-8.0265808 -5.0952725 3.615459 27 0 0 0 90.592178
-7.7231112 -5.3115983 3.5649493 55 0 0 0 90.002213
13.693168 -5.2888689 3.7499213 1721 0 0 0 55.398968
-8.000453 -4.807416 3.5502656 41 0 0 0 90.981529
20.937344 -4.708313 3.8828876 32 0 0 0 53.062046
-10.471564 -3.7583261 3.9542687 33 0 0 0 94.10099
-8.9349957 -3.9718897 3.7186079 86 0 0 0 92.916801
19.239944 -3.8332906 3.5524831 23 0 0 0 52.67532
30.162689 -3.725384 3.9764476 18 0 0 0 51.504566
19.129051 -3.3249261 3.5159674 77 0 0 0 52.284698
29.749226 -2.9349065 3.9113648 40 0 0 0 51.111591
-10.951166 -2.1879168 3.9696398 17 0 0 0 96.438065
19.782305 -2.4445796 3.6079657 77 0 0 0 51.504566
29.696188 -2.1951003 3.8959653 36 0 0 0 50.721031
-12.37737 -1.5320278 3.5078201 52 0 0 0 97.617928
-10.910193 -1.9022689 3.937006 44 0 0 0 96.830132
-10.252237 -1.5290421 3.8127766 46.5 0 0 0 97.217667
-9.712574 -1.9405699 3.7674139 48 0 0 0 96.438065
18.460758 -1.8223324 3.8168783 40 0 0 0 51.111591
19.688057 -1.9433823 3.5809827 80 0 0 0 51.111591
17.261517 -0.84804451 3.9816451 109 0 0 0 50.323921
18.342201 -0.90433186 3.7786882 99 0 0 0 50.323921
16.879112 -0.41398662 3.8906627 50 0 0 0 49.937328
18.076385 -0.44651634 3.7209721 129 0 0 0 49.937328
18.736105 -0.0023188835 3.8540688 73 0 0 0 49.553913
16.36278 0.40299377 3.7725589 40 0 0 0 49.155022
16.672272 0.00083888945 3.8421764 170 0 0 0 49.553913
18.3011 0.44745469 3.766412 42 0 0 0 49.155022
16.268742 0.80106968 3.7543309 148 0 0 0 48.770992
17.159731 0.84179014 3.536876 79 0 0 0 48.770992
15.95118 1.1789941 3.6871719 141 0 0 0 48.382698
19.110514 1.4088124 3.940351 32 0 0 0 48.382698
15.316092 1.5115154 3.9275224 164 0 0 0 47.988632
15.808431 1.559924 3.6620519 73 0 0 0 47.988632
21.563368 2.6593077 3.9271011 37 0 0 0 47.60371
24.211554 3.591099 3.8127272 87 0 0 0 47.207439
24.21126 4.2011943 3.8273501 73 0 0 0 46.816151
-9.9040298 4.9557714 3.8988652 234 0 0 0 7.0219898
-9.4646053 5.0270615 3.7738156 6 0 0 0 7.4050598
-8.9128513 5.0146465 3.7269182 60 0 0 0 7.7950301
-8.2391996 5.035902 3.6380246 88.5 0 0 0 8.3844948
1.0092797 -41.296776 4.3833656 39 0 0 0 74.162231
2.019506 -41.20879 4.3774529 12 0 0 0 73.763504
-35.00079 -36.773914 4.1690335 16 0 0 0 86.673248
-32.788433 -36.187607 4.0109353 11 0 0 0 86.282791
-25.685822 -32.923115 4.4476781 12 0 0 0 85.104385
-9.7716894 -32.234184 4.4150128 21 0 0 0 79.239532
-7.1271238 -31.759666 4.2660704 28 0 0 0 78.063126
-6.2729316 -31.557301 4.2168479 12 0 0 0 77.683327
-5.4370871 -31.355795 4.1707129 13 0 0 0 77.288017
-4.6149468 -31.132462 4.1245928 11 0 0 0 76.893936
-3.8371072 -31.131945 4.1104541 18 0 0 0 76.503952
-0.76569468 -31.226973 4.0915937 17 0 0 0 74.941689
-3.0399761 -30.887026 4.0669446 29 0 0 0 76.118156
-2.273267 -30.840487 4.051918 11 0 0 0 75.724083
19.388531 -26.156834 4.2626109 88 0 0 0 64.388222
20.39576 -26.148853 4.3409958 106 0 0 0 63.993858
21.273115 -25.935204 4.3905191 69 0 0 0 63.60828
22.229866 -25.784143 4.4554753 59 0 0 0 63.211929
-8.3988924 -25.438631 4.1814823 39 0 0 0 79.635689
-9.4879971 -24.611382 4.1184788 8 0 0 0 80.415504
29.574102 -24.291021 4.0631661 35 0 0 0 60.469807
30.172544 -23.566786 4.0648012 21 0 0 0 60.086166
25.72364 -19.090094 4.1947656 28 0 0 0 59.69376
27.199865 -19.168064 4.356102 14 0 0 0 59.299042
34.193863 -18.294872 4.1167073 7 0 0 0 57.34824
-19.369101 -7.4800849 4.281918 33 0 0 0 93.715569
-12.507439 -6.6985316 4.3335342 42 0 0 0 91.750305
-11.223942 -6.7403169 4.0010791 68 0 0 0 90.981529
13.797956 -6.1237407 4.2306547 333 0 0 0 56.178181
13.742501 -5.6994743 4.1700063 412 0 0 0 55.785439
13.676475 -5.2823439 4.1098838 385 0 0 0 55.398968
19.418852 -5.3814421 4.1447959 52 0 0 0 53.84951
18.77837 -4.7071819 4.4574389 63 0 0 0 53.455559
19.341295 -4.8517942 4.1017361 50 0 0 0 53.455559
-11.255333 -4.3542171 4.2862659 51 0 0 0 93.715569
18.992519 -4.2678552 4.4816017 42 0 0 0 53.062046
-12.059875 -3.9918885 4.1987739 23 0 0 0 94.50032
19.496716 -3.8841977 4.0888782 23 0 0 0 52.67532
20.609182 -3.5815549 4.3001871 60 0 0 0 52.284698
28.503302 -3.5204401 4.470839 10 0 0 0 51.504566
19.669905 -2.9227779 4.0895362 19 0 0 0 51.897362
-20.285286 -2.0028834 4.2039652 25 0 0 0 98.000153
19.600191 -2.4219449 4.0613875 48 0 0 0 51.504566
-11.029167 -1.9228628 4.2539587 34 0 0 0 96.830132
-10.744604 -1.2015462 4.1097097 20.5 0 0 0 97.809036
-18.664621 -0.92376965 4.3144035 11 0 0 0 98.783936
-10.764808 -0.8013671 4.1030378 93 0 0 0 98.386971
17.384216 -0.8539024 4.437428 121 0 0 0 50.323921
15.63686 -0.38340408 4.3805656 134 0 0 0 49.937328
17.165028 -0.42081818 4.3779106 131 0 0 0 49.937328
15.753951 0.00098300248 4.4116578 130 0 0 0 49.553913
16.187038 0.19768514 4.3289499 103 0 0 0 49.354469
16.503275 0.40659443 4.2103753 82 0 0 0 49.155022
16.958609 0.83516765 4.3292298 58 0 0 0 48.770992
17.086409 1.2629684 4.3679619 49 0 0 0 48.382698
15.652216 1.9341558 4.0235896 111 0 0 0 47.60371
-10.529778 4.9532247 4.3787994 14 0 0 0 6.6224999
-9.8680229 4.9375639 4.1532001 161 0 0 0 7.0219898
24.025204 4.7797613 4.4220285 49 0 0 0 46.429768
4.1841974 -56.777714 4.6439195 40 0 0 0 73.372643
-41.96389 -38.045975 4.6490593 5 0 0 0 87.840332
-44.543655 -36.568077 4.730484 7 0 0 0 88.630463
-42.702713 -36.847599 4.629941 5 0 0 0 88.232361
-29.345701 -35.768459 4.9247227 22 0 0 0 85.499954
-15.152004 -34.204826 4.902823 27 0 0 0 81.19249
-15.315277 -32.402515 4.6989307 31 0 0 0 81.595436
-19.14361 -31.95998 4.885335 18 0 0 0 83.153488
-18.048075 -31.880032 4.8040037 6 0 0 0 82.765549
-4.6497116 -31.367348 4.93995 38 0 0 0 76.893936
-2.2866142 -31.022045 4.8451166 5 0 0 0 75.724083
-1.4727631 -29.998753 4.6789532 29 0 0 0 75.329262
9.146533 -27.70455 4.5433874 7 0 0 0 69.4702
9.8564987 -27.564507 4.5588107 14 0 0 0 69.078278
10.60317 -27.504879 4.5905676 10 0 0 0 68.691193
11.359999 -27.442423 4.625216 9 0 0 0 68.300705
14.340305 -26.844942 4.7393894 12 0 0 0 66.73436
15.119527 -26.705585 4.7787085 8 0 0 0 66.336006
15.881176 -26.511795 4.8122072 8 0 0 0 65.948242
17.519459 -26.234858 4.911706 15 0 0 0 65.164299
18.372124 -26.101254 4.9693027 18 0 0 0 64.777939
24.22574 -25.458044 4.598084 26 0 0 0 62.430779
27.318218 -24.771833 4.823112 29 0 0 0 61.256001
28.43185 -24.537228 4.9114332 60 0 0 0 60.860554
53.348419 -20.597889 4.6621418 9 0 0 0 55.398968
57.788918 -19.110136 4.9585156 7 0 0 0 54.619598
31.789761 -18.019154 4.7801018 16 0 0 0 57.737591
41.284363 -17.117903 4.7377138 6 0 0 0 55.785439
42.129509 -16.268255 4.7866321 9 0 0 0 55.398968
56.028866 -15.523622 4.7364478 11 0 0 0 53.84951
55.061195 -13.80998 4.6246152 7 0 0 0 53.455559
19.424299 -5.3791499 4.6393952 6 0 0 0 53.84951
18.869379 -4.7298093 4.9568281 39 0 0 0 53.455559
21.526897 -4.8405104 4.5344057 32 0 0 0 53.062046
18.866856 -4.2395129 4.9273324 44 0 0 0 53.062046
19.301319 -3.351016 4.5093951 72 0 0 0 52.284698
20.600271 -3.0569146 4.791194 34 0 0 0 51.897362
29.829845 -2.9425795 4.6640759 35 0 0 0 51.111591
20.078516 -2.4771988 4.6550455 31 0 0 0 51.504566
-20.997883 -1.557003 4.8566709 16 0 0 0 98.386971
15.342878 -0.75100774 4.6810379 142 0 0 0 50.323921
16.249449 0.80335891 4.955009 122 0 0 0 48.770992
17.027702 0.83870822 4.770678 49 0 0 0 48.770992
16.02022 1.1872876 4.8929052 103 0 0 0 48.382698
16.963226 1.2540057 4.7597599 64 0 0 0 48.382698
16.22123 1.6038511 4.9641261 51 0 0 0 47.988632
16.954824 1.6731825 4.7672915 115 0 0 0 47.988632
55.421154 15.320242 4.667634 6 0 0 0 45.257729
1.0180779 -41.362427 5.4075871 28 0 0 0 74.162231
2.0292161 -41.260494 5.3986411 31 0 0 0 73.763504
-34.869289 -36.635635 5.3820634 11 0 0 0 86.673248
-32.894333 -36.304367 5.2137718 15 0 0 0 86.282791
-31.089123 -36.051792 5.0668349 10 0 0 0 85.89711
-8.0247145 -32.057907 5.14888 34 0 0 0 78.46077
-15.690197 -31.191313 5.4430342 11 0 0 0 81.980194
-1.4770731 -30.086784 5.4379849 24 0 0 0 75.329262
8.4726133 -27.948404 5.2703781 12 0 0 0 69.865929
9.1752214 -27.791595 5.281836 9 0 0 0 69.4702
10.596315 -27.487335 5.3167167 9 0 0 0 68.691193
12.083344 -27.276529 5.3842044 7 0 0 0 67.912819
12.792398 -27.064005 5.4026589 9 0 0 0 67.519951
13.634195 -27.102924 5.4752984 10 0 0 0 67.126358
19.228067 -25.940613 5.0267296 39 0 0 0 64.388222
20.198353 -25.896046 5.112102 19 0 0 0 63.993858
22.252678 -25.810623 5.3034225 74 0 0 0 63.211929
23.199526 -25.610031 5.3771281 31 0 0 0 62.816513
24.189289 -25.419792 5.4596791 42 0 0 0 62.430779
29.572306 -24.280878 5.0034761 35 0 0 0 60.469807
30.23068 -23.603619 5.0153875 29 0 0 0 60.086166
43.854996 -22.093504 5.2030988 15 0 0 0 56.962399
45.765228 -21.664015 5.3635821 20 0 0 0 56.573299
26.151041 -19.40694 5.0699306 10 0 0 0 59.69376
33.009472 -7.4191155 5.2624779 37 0 0 0 53.062046
18.671829 -5.1708136 5.4188094 7 0 0 0 53.84951
18.750696 -4.6999607 5.4064627 33 0 0 0 53.455559
20.79537 -4.1383576 5.3988829 60 0 0 0 52.67532
22.130077 -4.4037261 5.1885819 22 0 0 0 52.67532
19.84338 -3.4447896 5.129847 31 0 0 0 52.284698
20.860518 -3.0952845 5.3694191 34 0 0 0 51.897362
-16.876583 -2.7259419 5.2159538 28 0 0 0 97.023895
20.493029 -2.5280612 5.2577314 20 0 0 0 51.504566
21.240368 -2.0919638 5.4330711 33 0 0 0 51.111591
21.815342 -2.1486752 5.0404887 41 0 0 0 51.111591
-19.009672 -1.8795954 5.3535528 26 0 0 0 98.000153
-20.969212 -1.0375282 5.3583155 15 0 0 0 98.783936
-19.48885 -1.4446213 5.475915 13 0 0 0 98.386971
16.580353 -1.2202927 5.063086 49 0 0 0 50.721031
-18.922546 -0.9360137 5.309721 13 0 0 0 98.783936
18.891432 -0.92752844 5.2891231 87 0 0 0 50.323921
16.617624 -0.40427598 5.0620856 133 0 0 0 49.937328
17.22438 0.21479625 5.2445679 71.5 0 0 0 49.354469
15.789107 1.5585114 5.2258272 124 0 0 0 47.988632
22.089411 2.7283704 5.1153889 6 0 0 0 47.60371
-37.156681 -37.168205 5.5918064 8 0 0 0 87.075165
-15.136932 -34.170864 5.8227153 32 0 0 0 81.19249
-13.827076 -33.4035 5.6329823 5 0 0 0 80.806381
-8.0421686 -32.127766 5.9796209 26 0 0 0 78.46077
-7.2129517 -32.142574 5.9472928 7 0 0 0 78.063126
-18.073408 -31.924805 5.7184358 6 0 0 0 82.765549
-16.963169 -31.756498 5.6121101 11 0 0 0 82.367531
-5.4974093 -31.704187 5.8090034 9 0 0 0 77.288017
-4.6606088 -31.441023 5.7380157 31 0 0 0 76.893936
14.414491 -26.983793 5.5209136 13 0 0 0 66.73436
15.251436 -26.938448 5.586288 19 0 0 0 66.336006
16.070957 -26.828398 5.6433516 19 0 0 0 65.948242
16.882591 -26.675875 5.6965165 10 0 0 0 65.56517
17.794773 -26.646811 5.7814441 17 0 0 0 65.164299
18.616354 -26.447975 5.8354616 17 0 0 0 64.777939
19.489817 -26.293476 5.9048228 16 0 0 0 64.388222
20.428556 -26.190973 5.9921751 33 0 0 0 63.993858
25.051371 -25.064102 5.5133305 19 0 0 0 62.03371
26.07222 -24.83523 5.6014967 27 0 0 0 61.650501
27.147207 -24.616888 5.7001796 37 0 0 0 61.256001
28.65572 -24.730278 5.8866911 20 0 0 0 60.860554
