# .PCD v0.7 - Point Cloud Data file format
VERSION 0.7
FIELDS x y z intensity normal_x normal_y normal_z curvature
SIZE 4 4 4 4 4 4 4 4
TYPE F F F F F F F F
COUNT 1 1 1 1 1 1 1 1
WIDTH 946
HEIGHT 1
VIEWPOINT 0 0 0 1 0 0 0
POINTS 946
DATA ascii
3.1822586 2.6464078 -0.57159406 57.5 0 0 0 38.661133
3.7884536 2.6415009 -0.59224308 120.2 0 0 0 39.992531
4.1268387 2.7123795 -0.53721583 120 0 0 0 40.419548
4.7338953 2.702996 -0.59680814 308.66666 0 0 0 41.396935
5.2405052 2.6577578 -0.57071221 234.5 0 0 0 42.179409
5.7946019 2.7575123 -0.54961383 260 0 0 0 42.57431
6.3131118 2.7199783 -0.59123451 368.5 0 0 0 43.157455
6.5393872 2.5347292 -0.60373557 381 0 0 0 43.749699
8.1440811 2.6975231 -0.53342646 89 0 0 0 44.522243
13.242023 2.8004432 -0.52903134 62 0 0 0 46.285461
7.7494826 3.223407 -0.52152866 298.66666 0 0 0 43.35487
12.435236 3.4436791 -0.50334448 47 0 0 0 45.306431
12.73929 3.1920891 -0.51266825 79 0 0 0 45.699501
34.123043 15.120594 -0.61788595 67 0 0 0 42.964432
-11.498694 -5.4398036 -0.49877125 8 0 0 0 92.593636
-6.8599 -3.1229267 -0.28080043 310.60001 0 0 0 92.83474
-5.6921105 -3.0456238 -0.15717556 190 0 0 0 91.829521
-16.498327 -2.8661084 -0.25800338 1623 0 0 0 96.894737
-5.7721052 -2.9518557 -0.27505964 374.25 0 0 0 92.113129
-5.1921453 -2.9444134 -0.21483135 270.5 0 0 0 91.435791
-4.6010847 -2.7605903 -0.25485635 327 0 0 0 91.05455
-4.2959728 -2.7956982 -0.24184227 200.75 0 0 0 90.467209
-3.7010708 -2.6896577 -0.22166669 102 0 0 0 89.641396
-3.2602053 -2.6152577 -0.29647818 65 0 0 0 88.873947
-12.561936 -2.1804242 -0.49959758 120 0 0 0 96.894737
-12.013547 -2.3929384 -0.17922129 327 0 0 0 96.504013
-12.793155 -1.9006926 -0.19098581 103 0 0 0 97.297455
3.9259286 -1.0951196 -0.030902825 60 0 0 0 53.89938
4.2007065 -1.0613929 -0.24615888 68.333336 0 0 0 53.504314
4.7033076 -1.1233591 -0.22968343 107 0 0 0 53.311016
5.1525941 -1.165887 -0.17937757 170 0 0 0 53.117722
5.8930097 -1.180966 -0.25768182 202.66667 0 0 0 52.727436
6.4105349 -1.1211146 -0.23195274 365 0 0 0 52.339432
6.9061446 -1.0328923 -0.25178328 382 0 0 0 51.942513
7.571754 -1.3220707 -0.092307873 318 0 0 0 52.339432
8.5113831 -1.2706966 -0.1080591 539 0 0 0 51.942513
9.2679701 -1.1510183 -0.12070695 684 0 0 0 51.551979
3.9441023 -0.99565881 -0.43271425 30 0 0 0 53.504311
7.1892729 -0.89488417 -0.44077963 221 0 0 0 51.551979
7.7540073 -0.96482956 -0.28637135 356 0 0 0 51.551979
9.934864 -0.98602051 -0.13198994 855 0 0 0 51.167912
10.031952 -0.99774122 -0.38064966 756 0 0 0 51.167912
10.59251 -0.70249534 -0.23061489 601 0 0 0 50.647095
11.2546 -0.56191915 -0.43064138 387 0 0 0 50.382488
11.757838 -0.29599309 -0.30670395 255 0 0 0 49.988621
16.174274 -0.0083215553 -0.23935109 171 0 0 0 49.59856
19.544817 0.47005498 -0.29780453 102 0 0 0 49.216438
18.269701 0.889606 -0.2767666 54 0 0 0 48.816406
15.109841 1.1097692 -0.22322492 47 0 0 0 48.429001
19.081026 1.8727027 -0.293071 123 0 0 0 48.046127
-3.7342415 2.4327471 -0.27811334 94.846153 0 0 0 8.9109688
-3.375231 2.4412422 -0.22079897 70.625 0 0 0 9.7048206
3.2043543 2.6641755 -0.24194756 94.466667 0 0 0 38.661453
3.7338314 2.6803997 -0.22173989 150.58333 0 0 0 39.770535
4.3043041 2.6998782 -0.25963092 210.77777 0 0 0 40.744762
4.7458606 2.7113369 -0.26062956 273.5 0 0 0 41.395767
5.1996956 2.7276061 -0.25069323 347.57144 0 0 0 41.957981
20.925478 2.5739639 -0.32664442 106 0 0 0 47.652699
6.6874714 3.1790161 -0.45588899 314 0 0 0 42.57431
11.778915 3.8963838 -0.4830789 61 0 0 0 44.518162
12.091283 3.6716206 -0.49244878 38 0 0 0 44.916351
18.826616 3.7422731 -0.29557371 307 0 0 0 46.479759
11.311707 4.210928 -0.46936256 65 0 0 0 43.940956
19.338575 4.3406782 -0.30693015 127 0 0 0 46.091167
27.661848 4.0925484 -0.44634229 23 0 0 0 47.25835
10.350295 4.9077606 -0.44420233 122 0 0 0 42.57431
10.803747 4.6400833 -0.45669228 69.5 0 0 0 43.157455
19.200655 4.8086734 -0.30696335 43 0 0 0 45.699501
27.375389 4.7405214 -0.44398522 69 0 0 0 46.872181
18.767128 5.1940594 -0.30183271 21 0 0 0 45.306431
18.406319 6.0834885 -0.30117878 96 0 0 0 44.518162
18.366014 6.5754333 -0.30372223 16 0 0 0 44.13221
18.247293 7.043911 -0.30502719 21 0 0 0 43.749699
-44.508736 -36.541195 0.43212357 17 0 0 0 88.698479
-40.397743 -36.626957 0.41225633 15 0 0 0 87.920326
-38.162075 -36.3452 0.40025985 7 0 0 0 87.531059
-31.878267 -35.1819 0.36608514 7 0 0 0 86.357582
-28.150581 -32.642731 0.33635774 14 0 0 0 85.960129
-26.414845 -32.194168 0.32684961 6 0 0 0 85.562447
-25.053865 -32.11042 0.32111982 16 0 0 0 85.174385
-23.582806 -31.803774 0.31385642 30 0 0 0 84.782356
-22.27297 -31.630404 0.30817014 21 0 0 0 84.392792
-41.959301 -31.132513 0.39444867 6 0 0 0 89.481041
-20.956169 -31.36743 0.30210403 32 0 0 0 83.996872
-18.764181 -31.308592 0.29485747 51 0 0 0 83.226158
-16.597908 -31.052696 0.28712299 7 0 0 0 82.443115
-12.02827 -31.174479 0.27790794 38 0 0 0 80.48233
-10.205069 -30.878807 0.27289468 41 0 0 0 79.70649
-8.4967775 -30.684647 0.2693758 54 0 0 0 78.925926
-34.438229 -29.717848 0.34937727 7 0 0 0 88.300278
-10.693579 -25.810036 0.23769939 52 0 0 0 80.871712
-7.0064645 -3.1111479 0.088190697 140 0 0 0 92.995483
-12.596428 -2.5092766 0.44464248 365 0 0 0 96.504013
-5.8146191 -2.9319868 0.080339342 259 0 0 0 92.207664
-4.6220937 -2.7751894 0.07276573 287 0 0 0 91.05455
-3.3822677 -2.5987496 0.13610983 59 0 0 0 89.218513
-14.015502 -2.0825143 0.4871709 287 0 0 0 97.297455
-13.552896 -2.3552756 0.47383738 371 0 0 0 96.894737
-12.159184 -2.2685494 0.12087473 421 0 0 0 96.699371
-12.71137 -1.8910173 0.12438945 219 0 0 0 97.297455
3.6911464 -1.5407653 0.21833944 71 0 0 0 55.853359
4.0923371 -1.1403862 0.070371598 70 0 0 0 53.89938
4.7794576 -1.3318666 0.15949529 149.66667 0 0 0 53.89838
5.4011507 -1.2203393 0.15004624 316 0 0 0 53.117722
6.0105276 -1.2026314 0.16109365 456.5 0 0 0 52.72744
6.6209316 -1.1555034 0.17417288 643.5 0 0 0 52.339432
7.0646191 -1.0535681 0.091673136 308 0 0 0 51.942513
7.6086001 -1.1356462 0.28832135 229 0 0 0 51.942513
7.787643 -0.96574455 0.09678001 360 0 0 0 51.551979
8.547843 -0.8472628 0.20982713 420 0 0 0 51.167912
9.5142889 -0.70619655 0.10879931 351 0 0 0 50.7794
10.70821 -0.53093636 0.25238955 254.5 0 0 0 50.382488
11.874993 -0.29530492 0.12534919 250 0 0 0 49.988621
12.063903 -0.3017664 0.42854035 132 0 0 0 49.988621
18.262754 0.89301676 0.17064749 57 0 0 0 48.816406
28.637211 0.69281656 0.24658622 48 0 0 0 49.216438
14.919985 1.0989631 0.14612409 2137 0 0 0 48.429001
-3.6872644 2.401283 0.24437129 115.16666 0 0 0 8.9053144
-3.3935196 2.4075401 0.26782376 105.4 0 0 0 9.5579901
15.706749 2.3307965 0.15139672 136 0 0 0 47.25835
20.985828 2.0633099 0.18969004 68 0 0 0 48.046127
2.9862423 2.6170416 0.31177604 146.25 0 0 0 38.273808
3.2583501 2.6274359 0.28398412 191.84616 0 0 0 38.901188
3.7382331 2.6491568 0.22536395 244.72728 0 0 0 39.870865
4.2839069 2.6656728 0.26070422 324.75 0 0 0 40.810108
4.7996087 2.6749806 0.31058773 500.57144 0 0 0 41.565544
5.2356563 2.6960478 0.18961889 434 0 0 0 42.082535
27.906898 3.4359486 0.23937204 133 0 0 0 47.652699
18.838037 3.7485051 0.17408848 79 0 0 0 46.479759
19.292334 4.3344245 0.17758718 94 0 0 0 46.091167
27.67247 4.797646 0.23758687 135 0 0 0 46.872181
6.1999717 -27.699202 0.96467888 24 0 0 0 71.100311
6.8891191 -27.58588 0.96687824 34 0 0 0 70.710403
7.5809736 -27.471746 0.96961999 26 0 0 0 70.322769
8.275136 -27.352652 0.97278702 25 0 0 0 69.929695
8.9889984 -27.279566 0.97814375 14 0 0 0 69.533455
10.400277 -27.025057 0.98695636 21 0 0 0 68.759041
11.112875 -26.889704 0.99203247 18 0 0 0 68.371567
11.833554 -26.754749 0.99780166 22 0 0 0 67.97438
-10.708963 -25.834251 0.93575943 57 0 0 0 80.871712
7.9143515 -22.180992 0.80909902 33 0 0 0 69.148994
-12.147638 -6.1188202 0.80089331 142 0 0 0 92.207664
-12.233255 -5.790175 0.79710436 242 0 0 0 92.593636
21.954588 -2.7234347 0.75639325 93 0 0 0 51.551979
23.638971 -1.7585419 0.80608684 30 0 0 0 50.7794
18.267859 0.89062625 0.62786591 476 0 0 0 48.816406
17.287228 1.2699151 0.59656531 558 0 0 0 48.429001
-3.6386597 2.3681116 0.80257511 111 0 0 0 8.9053144
-3.350513 2.3755627 0.76078379 104.1 0 0 0 9.557991
15.717024 2.33021 0.74366355 180.5 0 0 0 47.25835
21.008646 2.0624766 0.71746165 353 0 0 0 48.046127
2.9498944 2.5877109 0.7445969 158 0 0 0 38.273808
3.263247 2.5916896 0.77355331 249.42857 0 0 0 39.023609
3.7614379 2.612494 0.74944282 351.60001 0 0 0 40.030777
4.2168307 2.626229 0.74835885 451 0 0 0 40.810108
4.7333899 2.6400819 0.78344005 587.42859 0 0 0 41.565544
5.2415886 2.6614277 0.73312008 554.75 0 0 0 42.179409
5.541141 2.64292 0.83975434 4 0 0 0 42.57431
27.895695 3.4304659 0.94159186 127 0 0 0 47.652699
23.968313 4.1531425 0.81882638 351 0 0 0 46.872181
18.746456 4.6963196 0.65704882 18 0 0 0 45.699501
-1.0307645 -41.268711 1.3781419 62 0 0 0 75.013565
-1.8740319 -37.810268 1.2659855 8 0 0 0 75.401443
-25.39353 -32.534027 1.3550168 7 0 0 0 85.174385
-24.253935 -32.696911 1.3377898 8 0 0 0 84.782356
-12.442031 -32.230293 1.1483241 17 0 0 0 80.48233
-11.467941 -32.023205 1.1318785 21 0 0 0 80.100594
-20.080612 -31.701889 1.2380016 9 0 0 0 83.608871
-10.538598 -31.869621 1.118209 45 0 0 0 79.70649
-9.6255178 -31.69569 1.1047181 37 0 0 0 79.312813
-17.759855 -31.33906 1.1911669 6 0 0 0 82.840546
-8.481741 -30.609234 1.0614805 113 0 0 0 78.925926
-7.652441 -30.504475 1.0520997 116 0 0 0 78.533928
-6.835618 -30.387363 1.0430239 111 0 0 0 78.145348
-6.0270376 -30.237917 1.0335834 136 0 0 0 77.754448
-5.2309694 -30.07316 1.0243266 140 0 0 0 77.360802
-3.0168705 -30.486107 1.0300069 23 0 0 0 76.186287
-34.291969 -29.581377 1.4784473 8 0 0 0 88.300278
-4.4564686 -29.953947 1.0172157 127 0 0 0 76.972153
-3.6871972 -29.78421 1.0091006 137 0 0 0 76.574799
25.499336 -26.827898 1.258518 24 0 0 0 62.500832
-17.684862 -26.460546 1.0547943 27 0 0 0 83.996872
15.649638 -26.16061 1.040586 19 0 0 0 66.016777
16.368629 -25.898378 1.0460359 15 0 0 0 65.627403
17.147413 -25.711281 1.0552038 73 0 0 0 65.24366
19.940105 -25.596851 1.1070157 13 0 0 0 64.070251
25.01709 -25.060303 1.20577 13 0 0 0 62.112358
25.803417 -24.609451 1.2140234 34 0 0 0 61.717442
26.915697 -24.437174 1.237069 44 0 0 0 61.32412
28.062777 -24.249123 1.260843 29 0 0 0 60.933559
7.8949842 -23.964523 1.481293 40 0 0 0 69.533455
30.580423 -23.906546 1.3164912 46 0 0 0 60.148071
31.929426 -23.721577 1.3474312 40 0 0 0 59.765419
33.199066 -23.422258 1.3747762 44 0 0 0 59.363991
9.951622 -22.505192 1.4474852 20 0 0 0 67.97438
37.869652 -22.738901 1.4888015 20 0 0 0 58.193241
7.8758602 -22.072897 1.3789502 15 0 0 0 69.148994
24.535759 -20.173758 1.0847278 36 0 0 0 60.534832
30.245518 -19.189075 1.2151291 16 0 0 0 58.588726
-11.588566 -6.2010474 1.1021484 473 0 0 0 91.829521
-11.69616 -5.7160187 1.0920687 523 0 0 0 92.40065
-21.923573 -4.3656149 1.2946827 38 0 0 0 96.504013
22.079287 -3.8475621 1.3160173 90 0 0 0 52.339432
22.030458 -3.2835855 1.3076206 103 0 0 0 51.942513
21.94853 -2.721981 1.2981431 100 0 0 0 51.551979
21.820677 -2.1630342 1.2866323 132 0 0 0 51.167912
23.785494 -1.768698 1.3952774 21 0 0 0 50.7794
25.366045 -1.260372 1.4823555 88 0 0 0 50.382488
16.295219 0.39738294 1.3702706 64 0 0 0 49.216438
18.248978 0.89025986 1.075092 81 0 0 0 48.816406
17.278824 1.2716002 1.2373252 164.5 0 0 0 48.429001
-3.6155901 2.3257809 1.3145926 151.625 0 0 0 8.8245459
-3.2415905 2.3454647 1.2653446 111.14286 0 0 0 9.7243938
15.727954 2.3353336 1.3354036 59 0 0 0 47.25835
21.009634 2.0631976 1.2348742 42 0 0 0 48.046127
2.8764424 2.5439742 1.2850913 195.14285 0 0 0 38.217648
3.2285945 2.5569968 1.254683 239.53334 0 0 0 39.051662
3.6902602 2.5731075 1.2685089 361.11111 0 0 0 40.009529
4.1385612 2.5875163 1.2516631 504.77777 0 0 0 40.788662
4.6856122 2.6043155 1.2669396 619.125 0 0 0 41.593842
5.3011084 2.6208916 1.2904447 458.14285 0 0 0 42.348656
20.836126 4.1423974 1.2401137 458 0 0 0 46.479759
23.788099 5.3387637 1.4167426 99 0 0 0 46.091167
24.67152 6.1772752 1.4756221 136 0 0 0 45.699501
1.3604852 -56.301529 1.8693223 29 0 0 0 74.22831
10.328846 -52.052933 1.770776 16 0 0 0 71.496574
-0.01926033 -46.879303 1.5611126 31 0 0 0 74.622429
-44.501991 -36.522896 1.8691421 4 0 0 0 88.698479
-38.185352 -36.354794 1.7165185 7 0 0 0 87.531059
-32.005859 -35.310379 1.5569106 15 0 0 0 86.357582
-2.551652 -34.382504 1.9991851 17 0 0 0 75.802628
-50.891735 -32.230465 1.9518617 6 0 0 0 90.665359
-10.541026 -31.876701 1.9400717 19 0 0 0 79.70649
-9.6998129 -31.940199 1.9298427 27 0 0 0 79.312813
-8.8130941 -31.805626 1.9092253 31 0 0 0 78.925926
-7.9328113 -31.622755 1.8871856 32 0 0 0 78.533928
-7.0559115 -31.367353 1.8622874 30 0 0 0 78.145348
-6.2427716 -31.321251 1.8508791 30 0 0 0 77.754448
-5.4341145 -31.242432 1.8387837 28 0 0 0 77.360802
-4.6190133 -31.048105 1.8212162 39 0 0 0 76.972153
-3.0759804 -31.084757 1.8139476 10 0 0 0 76.186287
-3.6996338 -29.884514 1.7492769 36 0 0 0 76.574799
6.292254 -28.110092 1.6834782 31 0 0 0 71.100311
6.8971705 -27.617567 1.6646667 33 0 0 0 70.710403
7.6041555 -27.555103 1.672105 25 0 0 0 70.322769
-19.208454 -27.26803 1.9193408 14 0 0 0 84.392792
-18.087961 -27.063646 1.8746047 5 0 0 0 83.996872
-17.391048 -27.455362 1.8722808 31 0 0 0 83.608871
8.3026562 -27.442957 1.6776593 31 0 0 0 69.929695
11.145879 -26.968895 1.7091711 22 0 0 0 68.371567
12.55987 -26.611742 1.7243165 19 0 0 0 67.583755
-19.565039 -26.37562 1.8897161 8 0 0 0 84.782356
-11.737797 -26.46253 1.6751127 22 0 0 0 81.272781
-10.117074 -26.205135 1.6277262 35 0 0 0 80.48233
15.675751 -26.203541 1.7897855 24 0 0 0 66.016777
16.536642 -26.163221 1.8141277 48 0 0 0 65.627403
17.427607 -26.130241 1.8407909 129 0 0 0 65.24366
-10.716911 -25.85326 1.6212245 55 0 0 0 80.871712
19.97924 -25.646248 1.9050906 30 0 0 0 64.070251
20.817266 -25.410307 1.9248492 7 0 0 0 63.676647
21.727978 -25.23245 1.9509457 4 0 0 0 63.282551
22.679197 -25.065683 1.9801583 25 0 0 0 62.892391
9.1991262 -23.908064 1.5043788 40 0 0 0 68.759041
39.621628 -22.486189 1.5334046 25 0 0 0 57.806858
41.562168 -22.256519 1.5845946 24 0 0 0 57.411472
7.6799259 -21.512569 1.9136205 23 0 0 0 69.148994
8.2831736 -21.519941 1.9319091 45 0 0 0 68.759041
43.450211 -21.91231 1.6333402 17 0 0 0 57.017738
24.605371 -21.262909 1.9065318 14 0 0 0 60.933559
45.245331 -21.440931 1.6783648 25 0 0 0 56.630001
47.444668 -21.072729 1.7377135 5 0 0 0 56.234447
24.570059 -20.20101 1.8651302 30 0 0 0 60.534832
24.989536 -19.538015 1.8595721 24 0 0 0 60.148071
51.393711 -19.867355 1.8395962 6 0 0 0 55.460419
54.917477 -19.693789 1.9442683 25 0 0 0 55.066769
11.46398 -5.0927782 1.9938326 60 0 0 0 56.234447
-26.709047 -4.6395831 1.5628364 21 0 0 0 96.894737
21.328798 -3.1745706 1.8046314 51 0 0 0 51.942513
-13.933252 -2.7784245 1.5345281 43 0 0 0 96.504013
-13.004119 -2.5958734 1.7606597 57 0 0 0 96.504013
21.170502 -2.621094 1.7851731 32 0 0 0 51.551979
21.093309 -2.0865459 1.7733382 50 0 0 0 51.167912
20.985817 -1.5561134 1.7601418 53 0 0 0 50.7794
15.167707 -1.1241208 1.6531253 114 0 0 0 50.7794
14.928133 -0.7346127 1.9929035 229 0 0 0 50.382488
15.593688 -0.77063787 1.6954252 142 0 0 0 50.382488
14.872997 -0.36547109 1.9834787 172 0 0 0 49.988621
16.902962 -0.41911495 1.8322574 173 0 0 0 49.988621
14.608135 0.18112245 1.9479458 138 0 0 0 49.407501
16.330973 0.39873812 1.7706096 168 0 0 0 49.216438
14.368461 0.70830101 1.9180256 185 0 0 0 48.816406
15.134006 0.74267626 1.6447889 105 0 0 0 48.816406
18.259327 0.89451903 1.5314524 82 0 0 0 48.816406
14.207043 1.0513568 1.8993547 162 0 0 0 48.429001
17.274994 1.2736096 1.8740531 67 0 0 0 48.429001
-3.7409737 2.3005276 1.6182226 151.60001 0 0 0 8.5014181
-3.2808681 2.3233459 1.5220735 162.5 0 0 0 9.5579901
20.667727 2.0339992 1.7331297 71 0 0 0 48.046127
3.2419648 2.5368028 1.5690664 239 0 0 0 39.14986
3.7689118 2.5512612 1.6791502 328 0 0 0 40.225616
4.3089905 2.5637255 1.7413069 377.44446 0 0 0 41.134731
4.769896 2.5777977 1.7525245 479 0 0 0 41.791912
5.2606583 2.590961 1.745173 490.5 0 0 0 42.376862
20.509405 2.529016 1.7241662 88 0 0 0 47.652699
27.882202 3.4296322 1.6294788 143 0 0 0 47.652699
18.736626 4.6984334 1.6118014 70 0 0 0 45.699501
27.659065 4.7919827 1.6267363 140 0 0 0 46.872181
18.672062 5.1734982 1.616129 123 0 0 0 45.306431
55.96019 12.541546 1.8746909 6 0 0 0 46.091167
-1.0311784 -41.284519 2.3894403 27 0 0 0 75.013565
-12.460965 -34.797112 2.131345 14 0 0 0 80.100594
-18.873264 -31.477932 2.1104908 7 0 0 0 83.226158
6.3311467 -28.259878 2.413295 201 0 0 0 71.100311
6.9303751 -27.729212 2.3828895 193 0 0 0 70.710403
11.905688 -26.903788 2.4559717 116 0 0 0 67.97438
-10.750213 -25.946245 2.3258004 53 0 0 0 80.871712
23.710814 -24.94676 2.0156512 24 0 0 0 62.500832
24.661104 -24.703032 2.0438714 38 0 0 0 62.112358
26.132441 -24.92198 2.1132662 15 0 0 0 61.717442
27.424778 -24.897951 2.1667774 22 0 0 0 61.32412
7.7328095 -23.458988 2.0658307 32 0 0 0 69.533455
31.164906 -18.714357 2.122251 24 0 0 0 58.193241
11.478901 -5.0990119 2.3077302 168 0 0 0 56.234447
-23.919622 -4.7675314 2.0166116 29 0 0 0 96.504013
18.272743 -3.6411304 2.4773929 123 0 0 0 52.72744
18.694227 -1.3816934 2.4897683 103 0 0 0 50.7794
15.180372 -0.74656838 2.4026377 128 0 0 0 50.382488
15.345006 -0.3766571 2.4256272 143 0 0 0 49.988621
19.609758 -0.0042739045 2.1180124 85 0 0 0 49.59856
24.271788 -0.0067261062 2.0217693 29 0 0 0 49.59856
13.571313 0.16855732 2.4857106 281.5 0 0 0 49.407501
14.134353 0.34895819 2.2366788 190 0 0 0 49.216438
15.183366 0.00094479969 2.3993499 65 0 0 0 49.59856
14.160739 0.69856113 2.242383 137 0 0 0 48.816406
14.035593 1.0391623 2.2258542 83 0 0 0 48.429001
20.334024 2.0018651 2.2027624 57 0 0 0 48.046127
4.7251854 2.5555613 2.0685995 387 0 0 0 41.791912
5.2367859 2.5651367 2.1260743 410.20001 0 0 0 42.416351
20.68318 2.5509853 2.2453163 84 0 0 0 47.652699
27.658924 4.7977548 2.3263798 96 0 0 0 46.872181
-36.317112 -36.315884 2.9307683 4 0 0 0 87.136337
-32.076603 -35.388474 2.7292943 15 0 0 0 86.357582
-28.651604 -33.212013 2.510005 6 0 0 0 85.960129
-12.538128 -32.495716 2.8767633 6 0 0 0 80.48233
-11.571836 -32.330727 2.8374209 14 0 0 0 80.100594
-10.563785 -31.964001 2.7831156 13 0 0 0 79.70649
-9.6936398 -31.939619 2.7605236 21 0 0 0 79.312813
-8.8241758 -31.866959 2.735795 28 0 0 0 78.925926
-7.9522982 -31.723648 2.7070746 19 0 0 0 78.533928
-42.060284 -31.196594 2.9842973 9 0 0 0 89.481041
-7.0716271 -31.46261 2.6704335 19 0 0 0 78.145348
-6.2480793 -31.376141 2.6503146 23 0 0 0 77.754448
-5.4323773 -31.26441 2.6298621 44 0 0 0 77.360802
-4.6250548 -31.125763 2.6088989 23 0 0 0 76.972153
-3.0729642 -31.109285 2.5934467 16 0 0 0 76.186287
-3.7033932 -29.957504 2.5047688 25 0 0 0 76.574799
-18.630411 -26.457161 2.6685042 10 0 0 0 84.392792
16.612568 -26.272366 2.595829 124 0 0 0 65.627403
-17.183712 -25.72024 2.5529993 12 0 0 0 83.996872
19.978313 -25.635017 2.7139709 18 0 0 0 64.070251
-11.131616 -25.106951 2.9414313 9 0 0 0 81.272781
-10.425455 -25.16194 2.9179368 34 0 0 0 80.871712
20.714624 -25.275301 2.7290006 13 0 0 0 63.676647
21.729008 -25.223877 2.7797916 5 0 0 0 63.282551
22.878923 -25.276451 2.845979 5 0 0 0 62.892391
23.827766 -25.059999 2.8862746 8 0 0 0 62.500832
-12.384094 -24.600273 2.948472 26 0 0 0 82.04895
-11.752034 -24.843525 2.9428465 25 0 0 0 81.658325
-9.6020174 -24.882971 2.8587294 34 0 0 0 80.48233
24.857088 -24.889513 2.9355586 6 0 0 0 62.112358
7.2927475 -24.094696 2.7156947 6 0 0 0 69.929695
8.0387173 -22.515177 2.5818844 37 0 0 0 69.148994
8.7689695 -22.779242 2.635814 8 0 0 0 68.759041
7.3576808 -22.322735 2.5384488 23 0 0 0 69.533455
8.8606691 -21.435936 2.5070271 16 0 0 0 68.371567
24.559992 -20.184616 2.6559563 18 0 0 0 60.534832
26.312334 -19.542248 2.7360218 15 0 0 0 59.765419
24.793818 -19.377222 2.6288815 12 0 0 0 60.148071
30.286312 -19.205393 2.9882073 6 0 0 0 58.588726
40.615265 -19.246593 2.6112573 5 0 0 0 56.630001
40.809422 -18.125736 2.5936577 8 0 0 0 56.234447
29.518217 -17.718204 2.8695557 10 0 0 0 58.193241
-11.265889 -5.6805387 2.6103244 34 0 0 0 92.207664
11.574059 -5.2538743 2.8569405 204.66667 0 0 0 56.366299
19.068193 -4.2891622 2.5971949 93 0 0 0 53.117722
18.54291 -3.2227113 2.9680908 28 0 0 0 52.339432
27.609509 -3.4170349 2.9925802 37 0 0 0 51.551979
27.551247 -2.7243593 2.9773612 8 0 0 0 51.167912
-10.385035 -2.0763845 2.9801099 27 0 0 0 96.504013
16.844809 -1.661798 2.6721826 146 0 0 0 51.167912
15.087599 -1.3004067 2.7704439 178.5 0 0 0 50.973656
16.530443 -1.2211995 2.6170838 172 0 0 0 50.7794
14.999187 -0.73717117 2.746809 108 0 0 0 50.382488
15.065642 -0.36929238 2.7558894 116 0 0 0 49.988621
13.822444 0.68240738 2.5330086 261 0 0 0 48.816406
14.247225 1.2325934 2.9681692 233.5 0 0 0 48.237564
15.516009 1.1486374 2.8420589 100 0 0 0 48.429001
14.21193 1.7594479 2.9714642 133 0 0 0 47.652699
15.433935 1.5251698 2.8327487 142 0 0 0 48.046127
18.885361 1.864182 2.9863973 73 0 0 0 48.046127
15.846912 2.3571618 2.5268104 56 0 0 0 47.25835
17.987284 2.2237399 2.8535333 64 0 0 0 47.652699
20.295109 2.0022326 2.7008491 39 0 0 0 48.046127
21.211958 2.6203995 2.8280234 117 0 0 0 47.652699
23.649899 3.5079463 2.5693531 49 0 0 0 47.25835
1.3628578 -56.398666 3.253443 30 0 0 0 74.22831
-2.0464389 -41.452343 3.4334514 12 0 0 0 75.401443
-1.0265135 -41.3871 3.4259403 23 0 0 0 75.013565
-44.243614 -38.165398 3.3273678 10 0 0 0 88.300278
-44.562794 -36.573032 3.2827685 10 0 0 0 88.698479
-40.780376 -36.961235 3.1368177 12 0 0 0 87.920326
-46.715977 -36.459373 3.3729291 5 0 0 0 89.08725
-38.284443 -36.449265 3.0147402 6 0 0 0 87.531059
-8.7213497 -31.495062 3.4979575 12 0 0 0 78.925926
-7.8653426 -31.376162 3.4633934 15 0 0 0 78.533928
-7.0193686 -31.229548 3.4282837 9 0 0 0 78.145348
-6.2082562 -31.175577 3.405606 11 0 0 0 77.754448
-3.0905485 -31.287378 3.3716691 17 0 0 0 76.186287
-5.3734393 -30.92436 3.3639374 9 0 0 0 77.360802
-4.5914831 -30.899055 3.348825 25 0 0 0 76.972153
-3.7274728 -30.152348 3.2586963 34 0 0 0 76.574799
6.3425803 -28.31031 3.1222701 173 0 0 0 71.100311
6.9434986 -27.781128 3.0828831 189 0 0 0 70.710403
-17.780376 -26.613316 3.4177084 8 0 0 0 83.996872
-9.5175257 -26.588388 3.0255029 44 0 0 0 80.100594
11.91953 -26.934456 3.1743271 105 0 0 0 67.97438
-18.634911 -26.463505 3.4551594 7 0 0 0 84.392792
16.629351 -26.298185 3.3544087 173 0 0 0 65.627403
17.646402 -26.446499 3.4271784 154 0 0 0 65.24366
18.538546 -26.358742 3.4736693 97 0 0 0 64.841713
19.185205 -25.903416 3.4750385 148 0 0 0 64.453018
-10.147459 -24.50263 3.4941795 8 0 0 0 80.871712
27.348186 -24.818686 3.0803342 18 0 0 0 61.32412
27.627872 -23.863047 3.0449824 16 0 0 0 60.933559
8.2732124 -23.157522 3.2594995 40 0 0 0 69.148994
8.5507956 -22.201513 3.1551833 21 0 0 0 68.759041
30.657133 -20.512241 3.073122 26 0 0 0 58.978832
51.287575 -19.824682 3.1824994 14 0 0 0 55.460419
23.683823 -19.464287 3.3076446 22 0 0 0 60.534832
24.610123 -19.232882 3.3688092 14 0 0 0 60.148071
31.554678 -17.901186 3.0211015 6 0 0 0 57.806858
52.991749 -16.114147 3.2017198 9 0 0 0 54.291447
53.517437 -13.443413 3.1872909 9 0 0 0 53.504311
-14.226813 -8.0707741 3.3739064 21 0 0 0 91.435791
-11.755849 -6.1101284 3.2244945 72.5 0 0 0 92.018593
11.687973 -6.2564402 3.2485585 776.5 0 0 0 57.411472
-10.544243 -5.9852676 3.1038103 49 0 0 0 91.435791
-10.31773 -5.526834 3.2881839 49 0 0 0 91.829521
-9.9259682 -5.6369991 3.4881005 46 0 0 0 91.435791
11.627607 -5.8613863 3.1913033 1153.5 0 0 0 57.017738
-10.342295 -5.2177143 3.2546599 19 0 0 0 92.207664
11.573926 -5.4818435 3.2968001 2112 0 0 0 56.630001
17.460049 -4.3800783 3.2878723 110 0 0 0 53.504311
19.639391 -4.4168811 3.1725621 66 0 0 0 53.117722
-8.6475706 -3.8437877 3.1317282 35 0 0 0 92.995483
-8.4282656 -3.9967346 3.0872433 82 0 0 0 92.593636
18.115705 -3.6087012 3.3720279 111 0 0 0 52.72744
17.644459 -2.6211367 3.2570446 115 0 0 0 51.942513
-12.08914 -2.1094012 3.2960291 93.5 0 0 0 96.894737
-10.216985 -2.0448296 3.1887887 128 0 0 0 96.504013
-9.8414669 -2.2206659 3.338017 58 0 0 0 96.121422
-8.822299 -2.4551589 3.4813893 22 0 0 0 95.343681
16.344898 -2.018405 3.4157493 186 0 0 0 51.551979
17.517628 -2.1636961 3.2228982 118 0 0 0 51.551979
-10.155823 -1.77284 3.4107165 38 0 0 0 96.894737
-9.3678122 -1.8770704 3.3973088 49 0 0 0 96.504013
15.923293 -1.5698938 3.3192506 158 0 0 0 51.167912
-9.8057384 -1.464741 3.2816479 43 0 0 0 97.297455
16.182497 -1.1944618 3.3650534 127 0 0 0 50.7794
14.905863 -0.72903574 3.4637175 169 0 0 0 50.382488
15.930779 -0.78253394 3.3079383 143 0 0 0 50.382488
14.888838 -0.36140969 3.4563026 123 0 0 0 49.988621
16.298515 -0.39917731 3.3798223 87 0 0 0 49.988621
14.644052 0.24326618 3.2805979 154.66667 0 0 0 49.343811
16.413887 0.0017944268 3.4019592 85 0 0 0 49.59856
14.327215 0.71052945 3.3293877 134 0 0 0 48.816406
14.800527 0.73080611 3.074558 169 0 0 0 48.816406
13.510803 1.3395494 3.4867811 149 0 0 0 48.046127
14.493823 1.0767574 3.3722801 120 0 0 0 48.429001
13.901162 2.0725157 3.2614441 70 0 0 0 47.25835
-0.011103977 -46.996719 3.8853321 50 0 0 0 74.622429
8.2760782 -41.681614 3.5235348 25 0 0 0 71.496574
-10.525708 -31.848463 3.5878079 12 0 0 0 79.70649
-9.5999956 -31.630604 3.536943 15 0 0 0 79.312813
6.3497806 -28.318764 3.8370562 49 0 0 0 71.100311
6.9793129 -27.902979 3.8037617 20 0 0 0 70.710403
7.6941833 -27.841385 3.8204606 13 0 0 0 70.322769
8.4084902 -27.755728 3.8363814 18 0 0 0 69.929695
9.1166811 -27.631924 3.8495693 15 0 0 0 69.533455
11.284967 -27.276331 3.9066882 24 0 0 0 68.371567
11.973272 -27.042419 3.9146235 22 0 0 0 67.97438
12.755272 -26.999039 3.952698 9 0 0 0 67.583755
13.488804 -26.827122 3.975141 5 0 0 0 67.199181
-11.653754 -26.297255 3.7861643 12 0 0 0 81.272781
-9.9522886 -25.80434 3.6430423 22 0 0 0 80.48233
20.067192 -25.748159 3.5191057 49 0 0 0 64.070251
22.120247 -25.676762 3.6527019 7 0 0 0 63.282551
23.225882 -25.658529 3.7295785 6 0 0 0 62.892391
25.001356 -25.032885 3.8121512 60 0 0 0 62.112358
-11.760363 -24.872217 3.6223462 21 0 0 0 81.658325
26.033169 -24.816673 3.8749225 40 0 0 0 61.717442
27.124435 -24.614737 3.9456036 35 0 0 0 61.32412
27.977312 -24.16357 3.9814231 31 0 0 0 60.933559
8.0764275 -22.607275 3.7770858 27 0 0 0 69.148994
8.4393902 -21.91234 3.6957567 10 0 0 0 68.759041
30.458202 -19.313257 3.8815215 6 0 0 0 58.588726
40.322025 -19.097734 3.7038753 6 0 0 0 56.630001
30.271111 -18.168745 3.7998693 28 0 0 0 58.193241
31.178974 -17.687145 3.8568783 18 0 0 0 57.806858
39.203053 -17.403154 3.5613835 17 0 0 0 56.234447
41.359032 -15.978933 3.6782577 14 0 0 0 55.460419
-13.913677 -7.4514713 3.6430488 26 0 0 0 91.829521
-12.424893 -6.2675047 3.5576537 16 0 0 0 92.207664
-11.329015 -6.0708179 3.9235055 23 0 0 0 91.829521
-10.173194 -6.1119561 3.6251972 5 0 0 0 91.05455
11.669634 -6.2460446 3.7356465 403 0 0 0 57.411472
-9.7238312 -5.7340198 3.8201714 19.333334 0 0 0 91.181633
11.621461 -5.8562346 3.8339105 404 0 0 0 57.017738
19.975706 -5.5354462 3.780282 39 0 0 0 53.89938
-10.574511 -5.0156846 3.575783 29 0 0 0 92.593636
-10.24818 -5.1715508 3.6478229 21 0 0 0 92.207664
-9.7178307 -5.3116417 3.8398368 46.333332 0 0 0 91.69828
11.571781 -5.4790087 3.7724156 420 0 0 0 56.630001
17.960703 -5.4556627 3.8899567 30 0 0 0 54.291447
-9.7708178 -4.7846446 3.8621566 31 0 0 0 92.40065
17.153286 -4.7536049 3.6904745 65 0 0 0 53.89938
27.626406 -4.8008938 3.7075276 12 0 0 0 52.339432
19.77813 -4.4474149 3.6971207 12 0 0 0 53.117722
17.783289 -3.5419788 3.7576821 24 0 0 0 52.72744
26.8431 -3.9882774 3.5888453 31 0 0 0 51.942513
27.42861 -3.3889089 3.6535032 23 0 0 0 51.551979
-15.164572 -2.645052 3.5559094 19 0 0 0 96.894737
16.638554 -2.8874354 3.9161057 42 0 0 0 52.339432
17.567867 -2.6092033 3.6807234 44 0 0 0 51.942513
28.294724 -2.7919736 3.7564743 43 0 0 0 51.167912
-12.893996 -1.927438 3.9818566 35 0 0 0 97.297455
-12.416436 -1.853729 3.5267723 50 0 0 0 97.297455
-10.052224 -1.5052428 3.6126842 93 0 0 0 97.297455
-9.7017851 -1.6974692 3.7428014 15 0 0 0 96.894737
-9.208003 -1.8452275 3.5700355 43 0 0 0 96.504013
-12.632122 -1.2583309 3.8787134 73 0 0 0 98.068382
-11.237547 -1.2632027 3.7317696 24.5 0 0 0 97.874268
-10.266343 -1.2804263 3.6768956 17 0 0 0 97.680153
-9.8439159 -1.3506025 3.7762623 38.5 0 0 0 97.4888
-11.107869 -0.83416975 3.9568133 61 0 0 0 98.4618
14.12195 -0.34180823 3.97961 147 0 0 0 49.988621
15.164039 -0.36765918 3.8925281 118 0 0 0 49.988621
14.156583 0.17939894 3.8121991 143 0 0 0 49.407501
15.038408 0.005440881 3.8590827 81 0 0 0 49.59856
14.18894 0.70414656 3.6471686 183 0 0 0 48.816406
13.188746 1.3081752 3.7346652 146 0 0 0 48.046127
14.060837 1.0451827 3.6196988 148 0 0 0 48.429001
13.554958 1.6820816 3.8472214 215 0 0 0 47.652699
19.517641 2.4128687 3.5802977 36 0 0 0 47.652699
22.164419 3.8525271 3.5307653 96 0 0 0 46.872181
26.345657 3.912298 3.5134003 22 0 0 0 47.25835
9.9725275 4.4447603 3.6209285 209 0 0 0 42.964432
10.062842 4.4893203 3.9246967 198 0 0 0 42.964432
10.562549 4.3981442 3.7926178 110 0 0 0 43.350479
22.120146 4.4076328 3.5392148 12 0 0 0 46.479759
34.151833 5.9227433 3.7058289 52 0 0 0 46.872181
-2.0477738 -41.478798 4.4443908 21 0 0 0 75.401443
-1.0278509 -41.440632 4.4372616 23 0 0 0 75.013565
-0.011027219 -41.339634 4.4261103 50 0 0 0 74.622429
-37.045158 -37.0569 4.2938008 27 0 0 0 87.136337
-38.386032 -36.558887 4.3428559 6 0 0 0 87.531059
-34.179039 -35.91008 4.0650516 5 0 0 0 86.744553
-26.668682 -32.50354 4.4758339 9 0 0 0 85.562447
-25.097595 -32.166382 4.3449788 6 0 0 0 85.174385
-10.593023 -32.07077 4.4428592 12 0 0 0 79.70649
-9.7768002 -32.233471 4.4317164 8 0 0 0 79.312813
-20.125326 -31.78446 4.0117941 14 0 0 0 83.608871
-7.0711966 -31.485727 4.249444 17 0 0 0 78.145348
-6.2319026 -31.322678 4.206656 36 0 0 0 77.754448
-5.4087968 -31.160049 4.1668377 32 0 0 0 77.360802
-4.6022358 -31.00843 4.1312704 28 0 0 0 76.972153
-3.086694 -31.303785 4.1468253 8 0 0 0 76.186287
-3.7237353 -30.164963 4.0073118 25 0 0 0 76.574799
-9.3515491 -26.138426 4.3440557 9 0 0 0 80.100594
15.82523 -26.43017 4.0788379 16 0 0 0 66.016777
16.603281 -26.246172 4.1122708 7 0 0 0 65.627403
17.516741 -26.241735 4.1775508 7 0 0 0 65.24366
18.347881 -26.077503 4.2218943 12 0 0 0 64.841713
19.131226 -25.820412 4.255126 15 0 0 0 64.453018
20.067278 -25.738195 4.3212452 28 0 0 0 64.070251
24.546329 -21.194128 4.2954006 22 0 0 0 60.933559
24.203365 -19.882889 4.1495953 17 0 0 0 60.534832
24.689135 -19.286715 4.1499448 14 0 0 0 60.148071
25.166607 -18.683382 4.1513209 7 0 0 0 59.765419
51.181179 -16.935404 4.4615526 6 0 0 0 54.678318
51.711655 -14.336806 4.4387465 8 0 0 0 53.89938
-9.582696 -6.0845661 4.1664515 15 0 0 0 90.665359
-9.4094582 -6.3035445 4.2958765 14 0 0 0 90.269058
11.506936 -6.156157 4.0052605 6 0 0 0 57.411472
-9.5422049 -5.116334 4.1085243 87 0 0 0 91.829521
-9.2896986 -5.2782869 4.0546598 66 0 0 0 91.435791
16.495398 -5.0068984 4.4221959 100 0 0 0 54.291447
16.79059 -5.0969219 4.0691142 18 0 0 0 54.291447
-11.121236 -4.9470048 4.3169928 61 0 0 0 92.995483
18.16774 -4.5528674 4.3398595 56 0 0 0 53.504311
19.467196 -4.8823833 4.1555929 86 0 0 0 53.504311
16.886156 -4.2315211 4.4647403 67 0 0 0 53.504311
19.932642 -4.4814854 4.229013 27 0 0 0 53.117722
-19.858843 -3.4592059 4.1523113 26 0 0 0 96.894737
17.331486 -3.448108 4.3116031 26.5 0 0 0 52.72744
26.596125 -3.2852309 4.207737 36 0 0 0 51.551979
-12.074168 -2.728404 4.3914003 22 0 0 0 96.121422
-11.259061 -2.8366787 4.4053869 10 0 0 0 95.732368
18.855175 -2.7962759 4.4145241 25 0 0 0 51.942513
-12.170278 -2.1285548 4.3836551 24 0 0 0 96.894737
17.285406 -2.1302991 4.4651017 43 0 0 0 51.551979
-13.322027 -1.6559994 4.431612 22 0 0 0 97.680153
-12.819161 -1.2748876 4.2543502 18 0 0 0 98.068382
16.389545 -1.2058388 4.2146401 53 0 0 0 50.7794
17.744493 -1.3061179 4.1219654 158 0 0 0 50.7794
-12.947518 -0.96731424 4.287837 39 0 0 0 98.4618
-10.641756 -0.79940635 4.0537853 21 0 0 0 98.4618
13.283384 -0.97596967 4.41401 178 0 0 0 50.7794
13.514863 -0.65724939 4.1475925 182 0 0 0 50.382488
16.103249 -0.78719449 4.1351147 94 0 0 0 50.382488
13.574559 -0.32568356 4.1616616 219 0 0 0 49.988621
13.677794 0.0084519405 4.1914062 228 0 0 0 49.59856
14.249376 0.35643637 4.0144076 152 0 0 0 49.216438
14.627721 0.72622162 4.1231823 102 0 0 0 48.816406
14.905036 1.1080446 4.2064543 120 0 0 0 48.429001
9.9244862 4.4281816 4.1383843 160 0 0 0 42.964432
10.783259 4.4946594 4.445519 109 0 0 0 43.350479
21.995186 4.38344 4.0753608 29 0 0 0 46.479759
1.3763144 -56.545528 4.6701326 18 0 0 0 74.22831
-44.20755 -38.147957 4.778924 10 0 0 0 88.300278
-40.877186 -37.062141 4.5183706 8 0 0 0 87.920326
-46.834225 -36.565083 4.8611426 9 0 0 0 89.08725
-2.5454116 -34.460026 4.552669 19 0 0 0 75.802628
-28.458633 -33.000023 4.6370163 18 0 0 0 85.960129
-20.179531 -31.882282 4.9513607 12 0 0 0 83.608871
-19.107178 -31.89299 4.8799567 12 0 0 0 83.226158
-17.771563 -31.384722 4.7357783 8 0 0 0 82.840546
-3.0791705 -31.226818 4.9131861 12 0 0 0 76.186287
-3.733505 -30.243881 4.7717657 35 0 0 0 76.574799
6.2907634 -28.055622 4.5133467 14 0 0 0 71.100311
6.9818244 -27.912498 4.5171833 15 0 0 0 70.710403
7.6738849 -27.767563 4.5234675 15 0 0 0 70.322769
8.3653326 -27.612999 4.530982 49 0 0 0 69.929695
9.0702496 -27.490902 4.5466504 22 0 0 0 69.533455
11.2028 -27.077446 4.6038494 39 0 0 0 68.371567
11.961473 -27.015224 4.6421094 25 0 0 0 67.97438
12.675638 -26.830103 4.6627827 46 0 0 0 67.583755
13.530096 -26.908525 4.7327294 12 0 0 0 67.199181
15.106735 -26.694477 4.8202324 9 0 0 0 66.411636
15.864444 -26.494907 4.8533249 10 0 0 0 66.016777
16.72979 -26.445229 4.9179807 11 0 0 0 65.627403
17.587322 -26.346628 4.9784446 10 0 0 0 65.24366
22.328182 -25.907883 4.5273757 7 0 0 0 63.282551
24.106802 -25.342476 4.6296306 14 0 0 0 62.500832
24.992294 -25.014112 4.6801109 37 0 0 0 62.112358
26.168291 -24.935642 4.7835441 46 0 0 0 61.717442
27.234686 -24.704981 4.8655825 23 0 0 0 61.32412
55.037441 -19.722361 4.8364768 11 0 0 0 55.066769
52.672009 -16.005196 4.5537958 5 0 0 0 54.291447
54.138351 -10.794079 4.5612211 3998 0 0 0 52.72744
30.898521 -7.748343 4.9977231 21 0 0 0 53.504311
17.323092 -5.7262716 4.678268 37 0 0 0 54.678318
-11.057754 -5.2474217 4.6405215 16 0 0 0 92.593636
19.426987 -5.3786516 4.6680322 39 0 0 0 53.89938
-11.037353 -4.9098363 4.580606 13 0 0 0 92.995483
16.562624 -4.5854053 4.8361206 19 0 0 0 53.89938
16.623201 -4.1651683 4.822288 42 0 0 0 53.504311
19.977026 -4.4871526 4.7399955 34 0 0 0 53.117722
17.245689 -3.873698 4.5322866 41 0 0 0 53.117722
16.787235 -3.3391285 4.8158331 50 0 0 0 52.72744
18.793497 -3.2604315 4.8869166 51 0 0 0 52.339432
-11.814131 -2.6698709 4.5943527 21 0 0 0 96.121422
16.917051 -2.9346285 4.8304615 51 0 0 0 52.339432
18.230999 -2.7031929 4.7230067 57 0 0 0 51.942513
19.632776 -2.4200537 4.5792675 32 0 0 0 51.551979
-12.240642 -1.222144 4.6672454 49 0 0 0 98.068382
14.521753 -1.4268725 4.831933 133 0 0 0 51.167912
14.543546 -0.7094596 4.8209753 60 0 0 0 50.382488
16.250254 -0.79387861 4.5773892 130 0 0 0 50.382488
14.888268 0.37530306 4.5594659 111 0 0 0 49.216438
15.060158 0.37741983 4.9850459 77 0 0 0 49.216438
14.104709 0.70128238 4.675488 149 0 0 0 48.816406
14.786441 0.73708814 4.5323186 79 0 0 0 48.816406
13.799479 1.2040663 4.9270525 160 0 0 0 48.237564
14.185411 1.0556784 4.708715 125 0 0 0 48.429001
14.868043 1.2921386 4.5682096 130.5 0 0 0 48.237564
19.686527 1.9482205 4.5741916 49 0 0 0 48.046127
20.303007 2.5144558 4.728334 24 0 0 0 47.652699
54.961838 10.920905 4.6026249 10 0 0 0 46.479759
-2.0439591 -41.548325 5.4747615 9 0 0 0 75.401443
-1.0219014 -41.492397 5.4634686 25 0 0 0 75.013565
-36.483055 -36.494751 5.4826283 11 0 0 0 87.136337
-34.302402 -36.039757 5.288125 12 0 0 0 86.744553
-32.339081 -35.690651 5.1206942 9 0 0 0 86.357582
-17.246853 -34.277077 5.0377731 18 0 0 0 82.04895
-2.5466006 -34.475639 5.4102097 21 0 0 0 75.802628
-7.9795675 -31.855152 5.135632 6 0 0 0 78.533928
-7.0835929 -31.540646 5.056694 11 0 0 0 78.145348
6.3974504 -28.529894 5.3129363 30 0 0 0 71.100311
7.0266538 -28.090862 5.2627378 26 0 0 0 70.710403
7.7524562 -28.050835 5.2898054 35 0 0 0 70.322769
8.4647894 -27.940207 5.3071022 30 0 0 0 69.929695
9.1887083 -27.84882 5.3315024 27 0 0 0 69.533455
9.9165697 -27.747902 5.3576479 29 0 0 0 69.148994
10.657034 -27.659151 5.3898358 21 0 0 0 68.759041
11.379887 -27.504295 5.41294 30 0 0 0 68.371567
12.081186 -27.284647 5.42698 29 0 0 0 67.97438
12.872414 -27.245461 5.4806409 47 0 0 0 67.583755
18.522203 -26.324253 5.0584984 22 0 0 0 64.841713
20.089619 -25.766012 5.1349187 48 0 0 0 64.070251
20.936028 -25.533607 5.1894412 55 0 0 0 63.676647
21.886269 -25.394707 5.2686009 40 0 0 0 63.282551
22.850098 -25.233088 5.3495717 28 0 0 0 62.892391
23.850321 -25.07213 5.4376035 40 0 0 0 62.500832
12.032685 -22.539207 5.2824636 15 0 0 0 66.809517
43.578365 -21.962982 5.2347441 15 0 0 0 57.017738
19.654615 -5.4409747 5.2236652 27 0 0 0 53.89938
16.418392 -4.5419097 5.2137856 24 0 0 0 53.89938
17.339735 -4.3407083 5.4684167 18 0 0 0 53.504311
18.441099 -4.1413083 5.3137908 79 0 0 0 53.117722
25.843008 -4.4886661 5.4167271 18 0 0 0 52.339432
16.931564 -2.9335532 5.257762 26 0 0 0 52.339432
17.058018 -1.6735402 5.243257 9 0 0 0 51.167912
16.924877 -1.24119 5.1912932 73 0 0 0 50.7794
14.426266 -0.69777429 5.4918938 99 0 0 0 50.382488
14.833498 -0.35256654 5.2759299 93 0 0 0 49.988621
15.6051 -0.37695473 5.1645942 84 0 0 0 49.988621
14.199957 0.18769373 5.4000669 109.5 0 0 0 49.407501
14.815266 0.19416633 5.2682409 97 0 0 0 49.407501
15.247463 0.006888831 5.0453548 79 0 0 0 49.59856
14.836594 0.74307114 5.2808504 130 0 0 0 48.816406
13.594668 1.3546572 5.195076 65 0 0 0 48.046127
25.682318 3.8162928 5.3523731 28 0 0 0 47.25835
-38.736137 -36.892441 5.6815262 13 0 0 0 87.531059
-13.600632 -32.844242 5.5516415 10 0 0 0 80.871712
-8.8135118 -31.848839 5.9848485 17 0 0 0 78.925926
-7.9554005 -31.758276 5.9304738 24 0 0 0 78.533928
-7.1031914 -31.627663 5.87289 14 0 0 0 78.145348
-3.0814698 -31.249756 5.6940417 14 0 0 0 76.186287
-3.7389855 -30.287975 5.5340562 14 0 0 0 76.574799
7.0551276 -28.203966 5.9993067 14 0 0 0 70.710403
13.64018 -27.126564 5.5227189 40 0 0 0 67.199181
14.419554 -27.00448 5.5685244 7 0 0 0 66.809517
15.204476 -26.866325 5.6155729 38 0 0 0 66.411636
16.03628 -26.780882 5.6784263 44 0 0 0 66.016777
16.778194 -26.520952 5.7092328 22 0 0 0 65.627403
19.319397 -26.072546 5.9036264 20 0 0 0 64.453018
20.156378 -25.850739 5.9636707 34 0 0 0 64.070251
24.84292 -24.863749 5.5226622 32 0 0 0 62.112358
27.406898 -24.860001 5.8123288 29 0 0 0 61.32412
40.34977 -16.727863 5.761817 20 0 0 0 55.853359
52.263878 -15.879566 5.8464727 9 0 0 0 54.291447
52.126781 -14.450199 5.7888451 5 0 0 0 53.89938
17.282095 -5.2409563 5.5250216 33 0 0 0 54.291447
17.920763 -4.0207167 5.6172795 65 0 0 0 53.117722
18.070143 -3.5901725 5.6342649 33 0 0 0 52.72744
17.312424 -3.4423668 5.8374577 58 0 0 0 52.72744
17.780947 -3.0832002 5.9667649 38 0 0 0 52.339432
-20.520353 -2.5490427 5.7870779 23 0 0 0 97.680153
18.992756 -2.811439 5.8691483 34 0 0 0 51.942513
25.766161 -2.5346746 5.9796638 26 0 0 0 51.167912
19.548853 -2.4084516 5.5343189 30 0 0 0 51.551979
14.505712 -1.0598022 5.530488 87 0 0 0 50.7794
20.121622 -1.4798664 5.6666627 59 0 0 0 50.7794
16.503845 -0.79895496 5.8706479 83 0 0 0 50.382488
15.637168 -0.37129858 5.9433966 101 0 0 0 49.988621
15.200143 0.7616204 5.7828379 94 0 0 0 48.816406
1.3770357 -56.57465 6.0473299 19 0 0 0 74.22831
-1.0188992 -41.368347 6.4713931 18 0 0 0 75.013565
-44.126221 -38.077984 6.1859937 31 0 0 0 88.300278
-31.038595 -37.842941 6.4082332 7 0 0 0 85.562447
-44.760895 -36.749149 6.1463366 6 0 0 0 88.698479
-31.344233 -36.358864 6.2851677 8 0 0 0 85.960129
-17.292133 -34.366909 6.0028768 45 0 0 0 82.04895
-24.261894 -32.731289 6.3497319 17 0 0 0 84.782356
-13.517735 -32.643764 6.3924747 23 0 0 0 80.871712
-12.544518 -32.528233 6.3089209 21 0 0 0 80.48233
-11.547748 -32.280128 6.2053208 25 0 0 0 80.100594
-10.554481 -31.953482 6.0923319 40 0 0 0 79.70649
-9.6491146 -31.811672 6.0195489 44 0 0 0 79.312813
-4.6133065 -31.081991 6.4694462 26 0 0 0 76.972153
-3.0825589 -31.260389 6.4688673 13 0 0 0 76.186287
19.722033 -29.540363 6.457418 19 0 0 0 65.24366
6.4000854 -28.541115 6.0348673 22 0 0 0 71.100311
9.2851696 -28.14016 6.1162667 5 0 0 0 69.533455
11.481024 -27.74782 6.1997395 7 0 0 0 68.371567
19.393309 -27.560244 6.1290665 34 0 0 0 64.841713
12.087687 -27.298729 6.1646776 23 0 0 0 67.97438
16.814442 -26.577477 6.4956384 27 0 0 0 65.627403
20.97588 -25.581326 6.0185485 52 0 0 0 63.676647
21.912474 -25.424208 6.1061325 37 0 0 0 63.282551
22.957581 -25.350763 6.221612 28 0 0 0 62.892391
24.149786 -25.385715 6.3731809 22 0 0 0 62.500832
25.142199 -25.162039 6.4697261 66 0 0 0 62.112358
55.871861 -20.019457 6.3517156 11 0 0 0 55.066769
17.794928 -3.9952068 6.0303264 30 0 0 0 53.117722
23.46987 2.9061637 6.0406184 34 0 0 0 47.652699
-37.101521 -37.126446 6.8666906 16 0 0 0 87.136337
-38.573856 -36.75087 6.9690108 7 0 0 0 87.531059
-34.386139 -36.140442 6.5286512 10 0 0 0 86.744553
-25.710062 -32.963169 6.5135427 30 0 0 0 85.174385
-10.654567 -32.256382 6.9855576 20 0 0 0 79.70649
-9.7260714 -32.065254 6.8916783 33 0 0 0 79.312813
-20.131138 -31.80562 6.8026142 16 0 0 0 83.608871
-19.057737 -31.810226 6.7027826 10 0 0 0 83.226158
-8.8241377 -31.886961 6.805994 20 0 0 0 78.925926
-7.938777 -31.691545 6.7219076 21 0 0 0 78.533928
-7.0790892 -31.519905 6.6478276 19 0 0 0 78.145348
-6.2234788 -31.27924 6.5641069 14 0 0 0 77.754448
-5.4139333 -31.188574 6.5162854 32 0 0 0 77.360802
6.4228973 -28.618784 6.7695675 31 0 0 0 71.100311
7.0596414 -28.200609 6.7106457 24 0 0 0 70.710403
7.8221459 -28.28232 6.7741408 38 0 0 0 70.322769
8.5393476 -28.167154 6.7953334 32 0 0 0 69.929695
9.2592754 -28.044861 6.8192077 48 0 0 0 69.533455
9.9954548 -27.951838 6.8546901 33 0 0 0 69.148994
10.730515 -27.834013 6.8888278 37 0 0 0 68.759041
11.4561 -27.673441 6.9171262 39 0 0 0 68.371567
18.565437 -27.808813 6.9042091 35 0 0 0 65.24366
12.131629 -27.384357 6.9178805 25 0 0 0 67.97438
19.17804 -27.253828 6.8818526 22 0 0 0 64.841713
19.337587 -26.096289 6.7087274 7 0 0 0 64.453018
20.256203 -25.977829 6.8039684 84 0 0 0 64.070251
26.326109 -25.083838 6.6132188 57 0 0 0 61.717442
27.367891 -24.823568 6.7192984 46 0 0 0 61.32412
-23.696802 -2.3544102 6.6597781 22 0 0 0 98.068382
20.331957 2.014312 6.7432141 51 0 0 0 48.046127
-79.866867 -45.268623 7.4884248 8 0 0 0 91.435791
-54.757263 -38.582436 7.1019216 4 0 0 0 89.881912
-31.413467 -36.439198 7.4895473 19 0 0 0 85.960129
-13.571724 -32.77396 7.2905908 26 0 0 0 80.871712
-12.591125 -32.648884 7.1931386 20 0 0 0 80.48233
-11.599848 -32.425583 7.0804229 23 0 0 0 80.100594
-7.1118975 -31.691679 7.4786282 18 0 0 0 78.145348
-6.2677169 -31.530266 7.4031668 36 0 0 0 77.754448
-5.4397621 -31.36974 7.3330584 24 0 0 0 77.360802
-4.6303205 -31.234022 7.273654 26 0 0 0 76.972153
-3.0842757 -31.333546 7.2545214 11 0 0 0 76.186287
6.3159542 -28.142778 7.3659863 8 0 0 0 71.100311
6.9565029 -27.788925 7.3168216 8 0 0 0 70.710403
8.4375334 -27.831381 7.4291296 11 0 0 0 69.929695
9.1670408 -27.765417 7.4698834 9 0 0 0 69.533455
9.8716059 -27.605492 7.4903955 6 0 0 0 69.148994
11.213911 -27.088661 7.4919534 16 0 0 0 68.371567
12.980437 -27.460203 7.0155802 41 0 0 0 67.583755
13.712174 -27.256481 7.0478559 23 0 0 0 67.199181
15.262218 -26.955946 7.1560655 25 0 0 0 66.411636
15.996835 -26.703152 7.1914372 9 0 0 0 66.016777
17.801414 -26.65473 7.4050164 5 0 0 0 65.24366
16.697969 -26.38269 7.2137809 6 0 0 0 65.627403
23.225988 -25.645975 7.1457195 21 0 0 0 62.892391
24.213354 -25.451529 7.2547388 12 0 0 0 62.500832
25.186268 -25.205124 7.3582802 52 0 0 0 62.112358
-2.0428555 -41.52433 7.529799 10 0 0 0 75.401443
-44.193989 -38.150127 7.6321487 20 0 0 0 88.300278
-36.253216 -36.277725 7.9796948 6 0 0 0 87.136337
-34.543304 -36.305691 7.7984924 7 0 0 0 86.744553
-32.62611 -36.020145 7.5646095 11 0 0 0 86.357582
-15.772174 -33.358902 7.5808425 5 0 0 0 81.658325
-10.66452 -32.305195 7.8283701 17 0 0 0 79.70649
-9.7344427 -32.11277 7.7228112 28 0 0 0 79.312813
-8.8530035 -32.012787 7.6453729 20 0 0 0 78.925926
-7.97718 -31.868267 7.5630164 29 0 0 0 78.533928
12.011545 -27.113077 7.5782599 18 0 0 0 67.97438
13.530455 -26.895092 7.6945944 7 0 0 0 67.199181
14.248534 -26.671494 7.7288256 13 0 0 0 66.809517
20.303343 -26.028055 7.6266594 65 0 0 0 64.070251
21.35174 -26.028324 7.77772 63 0 0 0 63.676647
22.287985 -25.848623 7.8850574 57 0 0 0 63.282551
23.12534 -25.525074 7.9571729 5 0 0 0 62.892391
26.331739 -25.088169 7.5100932 25 0 0 0 61.717442
27.468927 -24.914068 7.6570287 48 0 0 0 61.32412
28.409922 -24.523876 7.7483273 6 0 0 0 60.933559
20.870701 -4.1408978 7.5503631 61 0 0 0 52.72744
20.328655 1.5187494 7.7296939 69 0 0 0 48.429001
-38.762642 -36.930866 8.3279209 6 0 0 0 87.531059
-21.708927 -34.298508 8.3318796 6 0 0 0 83.608871
-19.20825 -33.921844 8.0044737 5 0 0 0 82.840546
-13.714788 -33.135689 8.2479343 19 0 0 0 80.871712
6.4139872 -28.578148 8.2073889 12 0 0 0 71.100311
7.061974 -28.208899 8.1496706 19 0 0 0 70.710403
7.7675171 -28.084139 8.1669321 22 0 0 0 70.322769
8.4714699 -27.942608 8.1844635 11 0 0 0 69.929695
9.1958389 -27.851973 8.2221537 22 0 0 0 69.533455
9.9043169 -27.69628 8.2460985 9 0 0 0 69.148994
10.64017 -27.598902 8.2928953 21 0 0 0 68.759041
11.380152 -27.489096 8.3418264 23 0 0 0 68.371567
12.127752 -27.374443 8.3953352 23 0 0 0 67.97438
12.880275 -27.247372 8.4512377 25 0 0 0 67.583755
17.68252 -26.476154 8.1380405 13 0 0 0 65.24366
18.564831 -26.371954 8.2437077 22 0 0 0 64.841713
20.35268 -26.090424 8.4581079 67 0 0 0 64.070251
24.310328 -25.543499 8.1460056 49 0 0 0 62.500832
25.234125 -25.243181 8.2451582 47 0 0 0 62.112358
26.461226 -25.201603 8.4406443 47 0 0 0 61.717442
31.007042 -24.214312 8.1192074 7 0 0 0 60.148071
31.915831 -23.686016 8.2013636 6 0 0 0 59.765419
-54.492325 -40.447128 8.8640575 7 0 0 0 89.481041
-54.931332 -38.719803 8.7781076 5 0 0 0 89.881912
-31.008663 -37.806446 8.8224649 13 0 0 0 85.562447
-32.620449 -36.013947 8.7661009 10 0 0 0 86.357582
-31.457447 -36.490231 8.6925468 12 0 0 0 85.960129
-12.759246 -35.687302 8.7165051 16 0 0 0 80.100594
13.623448 -27.079084 8.500658 36 0 0 0 67.199181
20.079166 -27.084574 8.616909 24 0 0 0 64.453018
14.421051 -26.993387 8.5826159 10 0 0 0 66.809517
16.037296 -26.769239 8.7518873 9 0 0 0 66.016777
16.898247 -26.697357 8.8614998 13 0 0 0 65.627403
17.672623 -26.460611 8.9245386 9 0 0 0 65.24366
21.338787 -26.011694 8.5996895 57 0 0 0 63.676647
22.267879 -25.824444 8.7158365 36 0 0 0 63.282551
23.283812 -25.698927 8.8635149 34 0 0 0 62.892391
27.452688 -24.889555 8.5589943 48 0 0 0 61.32412
-36.69532 -36.720211 9.3616409 14 0 0 0 87.136337
-34.659481 -36.427872 9.0692739 9 0 0 0 86.744553
-12.563486 -35.139267 9.4995117 53 0 0 0 80.100594
-11.602753 -35.148491 9.4233761 20 0 0 0 79.70649
-9.7067833 -35.101955 9.2742653 14 0 0 0 78.925926
-10.595778 -34.955631 9.3005028 16 0 0 0 79.312813
-13.184978 -34.206623 9.3317461 27 0 0 0 80.48233
-15.723488 -33.270535 9.3645115 14 0 0 0 81.658325
-14.689619 -33.164757 9.2317944 14 0 0 0 81.272781
-13.746889 -33.213039 9.1497431 15 0 0 0 80.871712
18.618568 -26.447445 9.0715275 11 0 0 0 64.841713
20.357117 -26.095278 9.282774 55 0 0 0 64.070251
24.366943 -25.60198 9.0333605 44 0 0 0 62.500832
25.30213 -25.310167 9.146678 55 0 0 0 62.112358
26.418621 -25.160027 9.3236046 49 0 0 0 61.717442
66.017456 -25.482903 9.3086967 7 0 0 0 55.460419
39.094425 -23.445826 9.3978472 11 0 0 0 58.193241
65.557526 -23.473492 9.1589174 6 0 0 0 55.066769
65.504478 -21.655912 9.0732994 8 0 0 0 54.678318
-79.909607 -45.293545 9.723897 8 0 0 0 91.435791
-31.446209 -36.477222 9.8744526 14 0 0 0 85.960129
-9.1069775 -36.385143 9.5513439 9 0 0 0 78.533928
16.973537 -26.805122 9.6791983 12 0 0 0 65.627403
39.271385 -24.882343 9.5843887 13 0 0 0 58.588726
-30.911482 -39.631927 10.305318 8 0 0 0 85.174385
-31.177725 -38.012573 10.080051 7 0 0 0 85.562447
-41.152206 -37.325245 10.015336 8 0 0 0 87.920326
-34.756516 -36.529926 10.335247 6 0 0 0 86.744553
7.2645097 -32.332821 10.097217 33 0 0 0 71.100311
8.0838757 -32.258415 10.133654 57 0 0 0 70.710403
8.8978367 -32.141052 10.163102 46 0 0 0 70.322769
9.7039461 -31.980207 10.185285 66 0 0 0 69.929695
10.525259 -31.852695 10.224608 72 0 0 0 69.533455
