# .PCD v0.7 - Point Cloud Data file format
VERSION 0.7
FIELDS x y z intensity normal_x normal_y normal_z curvature
SIZE 4 4 4 4 4 4 4 4
TYPE F F F F F F F F
COUNT 1 1 1 1 1 1 1 1
WIDTH 896
HEIGHT 1
VIEWPOINT 0 0 0 1 0 0 0
POINTS 896
DATA ascii
1.6335741 -5.0811119 -0.84489661 156 0 0 0 69.518196
3.2665739 -5.380199 -0.85441589 272.75 0 0 0 65.804169
3.6614437 -5.1371841 -0.85744131 283.5 0 0 0 64.63253
5.4385295 -5.4933758 -0.86930698 285 0 0 0 62.079712
5.7300534 -5.2442074 -0.87505978 279.33334 0 0 0 61.302216
8.7164831 -5.2658939 -0.9108693 204 0 0 0 58.174026
13.202457 -5.3143368 -0.93832654 102.5 0 0 0 55.635567
18.423775 -5.1296835 -0.80755144 55 0 0 0 53.885262
-12.624422 -4.5120554 -0.52541965 117 0 0 0 94.150116
-12.032141 -4.6359482 -0.81942922 368 0 0 0 93.758965
-11.717996 -4.8480015 -0.80532038 383 0 0 0 93.371071
-5.0263686 -4.542984 -0.74709558 580 0 0 0 87.896202
-4.8714647 -4.6241536 -0.74036747 92 0 0 0 87.508682
-4.4630547 -4.9061875 -0.7307896 545 0 0 0 86.336319
-3.7341514 -4.6416674 -0.79992408 301.5 0 0 0 85.347397
-3.2701154 -4.8625073 -0.7516526 322.75 0 0 0 83.980362
-2.7515287 -4.8059354 -0.66977006 318 0 0 0 82.808739
-2.3124802 -4.5982871 -0.75855988 314.79999 0 0 0 81.951859
-1.827046 -4.8400226 -0.81395757 277.25 0 0 0 80.27327
-1.2417616 -4.5982361 -0.86595142 110.5 0 0 0 78.705139
-0.779598 -4.6397219 -0.85530329 102.75 0 0 0 77.143799
-0.26221853 -4.627069 -0.84281063 43.200001 0 0 0 75.384911
0.24847826 -4.6579185 -0.84915012 44.5 0 0 0 73.622803
0.75273448 -4.5691981 -0.84381855 48.799999 0 0 0 71.862206
1.1499553 -4.5238853 -0.85123765 84.5 0 0 0 70.498062
1.8818382 -4.9987121 -0.84596395 109 0 0 0 68.740417
2.2496934 -4.8573036 -0.8494541 151 0 0 0 67.566116
2.7134364 -4.6131339 -0.85043693 163.33333 0 0 0 65.99884
3.8939695 -4.9316015 -0.85490191 307 0 0 0 63.852695
4.1820703 -4.6744285 -0.85470843 306 0 0 0 62.870045
5.990201 -4.9634867 -0.87748015 275 0 0 0 60.521339
6.2696533 -4.693397 -0.88504618 280.66666 0 0 0 59.741421
9.2845154 -4.7093282 -0.93419957 210.66667 0 0 0 57.001118
13.480623 -4.8560338 -0.94633406 88 0 0 0 55.047581
13.59982 -4.52388 -0.94758385 126 0 0 0 54.663898
18.436888 -4.6476903 -0.80398679 67 0 0 0 53.487019
-12.5589 -4.4885936 -0.84879023 181 0 0 0 94.150116
-5.0027137 -4.3037877 -0.72662592 482 0 0 0 88.279106
-4.2624564 -4.2044282 -0.77425396 360.20001 0 0 0 87.195282
-3.9359632 -4.430881 -0.79545987 359.5 0 0 0 86.140335
-3.1910324 -4.2029238 -0.78649139 242.33333 0 0 0 84.893303
-2.7421267 -4.3321624 -0.78571874 314.16666 0 0 0 83.526787
-2.2563236 -4.1754522 -0.86257726 143.2 0 0 0 82.422165
-1.7376217 -4.4333467 -0.86563778 118.8 0 0 0 80.468544
-0.73679799 -4.0552363 -0.84515744 26.200001 0 0 0 77.337463
-0.23719184 -4.1077576 -0.84447336 28.6 0 0 0 75.384911
0.26500314 -4.1129923 -0.84698236 25.200001 0 0 0 73.426193
0.71285468 -4.0501184 -0.84583652 26.75 0 0 0 71.667816
1.3589664 -4.4266872 -0.84474069 72 0 0 0 69.714455
1.7275016 -4.28268 -0.84393132 58.799999 0 0 0 68.347458
2.1373184 -4.0902977 -0.84448314 73.666664 0 0 0 66.781624
2.9311872 -4.4654531 -0.84936273 185 0 0 0 65.220154
3.2218697 -4.1998892 -0.84329748 220.60001 0 0 0 64.047096
4.3962703 -4.4525299 -0.85348928 308 0 0 0 62.079712
4.6794577 -4.1891608 -0.85853171 280.5 0 0 0 61.106995
6.6519914 -4.2511964 -0.89430457 280.66666 0 0 0 58.566772
9.815177 -4.2408934 -0.96217656 170 0 0 0 56.023102
13.707037 -4.187614 -0.94856769 103 0 0 0 54.271927
18.583748 -4.2010632 -0.80697346 68 0 0 0 53.095951
-4.5036216 -3.6852944 -0.63609397 624 0 0 0 88.67067
-4.3123803 -3.7021053 -0.80420345 30 0 0 0 88.28199
-3.6266778 -3.7874806 -0.82503957 277 0 0 0 86.72654
-3.2061193 -3.7859411 -0.83774233 191.75 0 0 0 85.743942
-2.7416329 -3.8613181 -0.8605606 132.2 0 0 0 84.371536
-2.0850372 -3.5351357 -0.83999217 70.5 0 0 0 83.009338
-1.7345638 -3.7286723 -0.84251833 55.833332 0 0 0 81.444542
-1.2270467 -3.9466164 -0.84702635 33.400002 0 0 0 79.295204
0.95886785 -3.9983296 -0.84603131 35 0 0 0 70.694283
1.2419121 -3.8939674 -0.8422333 37 0 0 0 69.519371
1.7447344 -3.6735411 -0.84006721 32.333332 0 0 0 67.369347
2.3855491 -3.9530969 -0.84577787 87 0 0 0 65.805496
2.6958127 -3.7061279 -0.84126598 101.4 0 0 0 64.438126
3.7033634 -3.7607918 -0.84332401 227.39999 0 0 0 62.084789
4.9445124 -3.9056399 -0.86248821 261 0 0 0 60.132328
5.1515355 -3.6716907 -0.86738902 279 0 0 0 59.349884
6.9127417 -3.839922 -0.8973664 298.5 0 0 0 57.58894
7.0644135 -3.5889649 -0.90017176 255 0 0 0 57.00116
10.156588 -3.8058732 -0.97809052 180 0 0 0 55.243813
13.907808 -3.6926978 -0.95404685 98 0 0 0 53.686142
18.602253 -3.7265222 -0.80464214 64 0 0 0 52.710567
-8.7509298 -3.1268754 -0.80958319 571 0 0 0 94.150116
-8.1406059 -3.1356294 -0.75768137 510 0 0 0 93.758965
-7.8289571 -3.2379191 -0.73475766 810 0 0 0 93.371071
-4.2191539 -3.4480174 -0.85848922 171 0 0 0 88.67067
-3.6913991 -3.1687729 -0.76218772 44 0 0 0 88.279106
-3.2784107 -3.2349346 -0.81611872 152 0 0 0 87.182213
-2.6703122 -3.1489758 -0.84524363 51.5 0 0 0 85.743866
-2.3352709 -3.3703411 -0.83938491 52.75 0 0 0 84.176605
2.2435381 -3.3472316 -0.83458382 42 0 0 0 65.023834
2.6988778 -3.1927085 -0.84046775 89.5 0 0 0 63.264057
3.230356 -3.2086639 -0.83909494 109.16666 0 0 0 61.88858
3.9730246 -3.4797223 -0.84493226 198 0 0 0 60.907539
4.2040634 -3.2463779 -0.85163128 202.5 0 0 0 59.936401
5.4104295 -3.2816324 -0.86938995 276.33334 0 0 0 58.174026
5.5822763 -3.0192411 -0.87301987 285 0 0 0 57.398399
7.2744365 -3.2541873 -0.90700036 293 0 0 0 56.216663
10.386281 -3.4601789 -0.98863184 194 0 0 0 54.663898
10.556008 -3.2297163 -0.99796093 174 0 0 0 54.271927
14.132591 -3.198761 -0.96236759 109 0 0 0 53.095951
18.648113 -3.2604451 -0.8040424 37 0 0 0 52.323158
-6.3214817 -2.6163869 -0.75438046 517 0 0 0 93.371071
-3.5502937 -2.9004707 -0.8307476 115 0 0 0 88.67067
-3.0947173 -2.698251 -0.80617565 46 0 0 0 88.151466
-2.9078467 -2.8890638 -0.8385551 64.333336 0 0 0 87.117332
2.8673911 -2.8545439 -0.84169221 63.75 0 0 0 61.88908
3.089798 -2.5851021 -0.83964777 42.666668 0 0 0 60.520401
3.6482544 -2.7515194 -0.844917 95.599998 0 0 0 59.740669
4.4371595 -2.9298799 -0.85394418 194.5 0 0 0 58.761391
4.5291071 -2.6795232 -0.84593999 200 0 0 0 57.978508
5.7379532 -2.7461178 -0.8764835 269.33334 0 0 0 56.606689
7.4766741 -2.911139 -0.91450065 219 0 0 0 55.440048
7.6406898 -2.6530976 -0.92317784 209 0 0 0 54.85574
14.311812 -2.6872921 -0.96883136 112.5 0 0 0 52.516861
18.75844 -2.8056803 -0.80682677 46 0 0 0 51.92638
-6.6057553 -2.3623607 -0.77454352 854 0 0 0 94.150116
-6.2117896 -2.3370917 -0.83787608 480.33334 0 0 0 93.889351
-5.9289584 -2.4524994 -0.86383998 476 0 0 0 93.371071
-3.4396911 -2.0531836 -0.81835073 33 0 0 0 91.031952
3.2961183 -2.2458467 -0.83349574 43.799999 0 0 0 58.958454
3.9258659 -2.2624416 -0.84025699 97 0 0 0 57.784325
4.7313704 -2.2715497 -0.8460021 183.39999 0 0 0 56.609913
5.9358926 -2.3176219 -0.87980366 235.66667 0 0 0 55.439575
6.0533881 -2.024538 -0.88228667 214 0 0 0 54.663898
7.902935 -2.3133836 -0.94172096 207.5 0 0 0 54.078594
8.0622072 -2.0392244 -0.95226216 181 0 0 0 53.487019
14.498316 -2.1711159 -0.97692496 94 0 0 0 51.92638
18.831923 -2.344234 -0.80843121 43 0 0 0 51.532082
-4.8923149 -1.8822283 -0.82456523 172.66667 0 0 0 93.760048
-4.2488351 -1.6354564 -0.82509845 77 0 0 0 93.760048
-3.7098286 -1.5851688 -0.824736 36 0 0 0 93.169258
3.4593801 -1.9408767 -0.83019096 47.5 0 0 0 57.58894
3.5701168 -1.6674614 -0.82634068 38.25 0 0 0 56.412788
4.14641 -1.74702 -0.83683234 69.400002 0 0 0 55.827526
4.9164085 -1.8560302 -0.8485353 135.5 0 0 0 55.243813
5.0345592 -1.6205238 -0.85523552 119 0 0 0 54.467911
6.1607647 -1.7263607 -0.88575834 182.33333 0 0 0 53.881405
8.232832 -1.759753 -0.96544862 191.5 0 0 0 52.903259
14.594118 -1.8189201 -0.98108828 109 0 0 0 51.532082
18.831467 -1.8746276 -0.80720592 39 0 0 0 51.14336
-10.388782 -1.0209308 -0.91408604 77 0 0 0 98.048706
-3.7847369 -1.4027897 -0.82528996 45.5 0 0 0 93.954544
3.7024665 -1.2482603 -0.82165158 20.799999 0 0 0 54.661743
4.3200998 -1.2174108 -0.83723867 45.400002 0 0 0 53.88081
5.1406274 -1.2407457 -0.85694456 102.5 0 0 0 53.294697
6.3418031 -1.2786227 -0.89763594 162 0 0 0 52.709888
8.4196625 -1.3688889 -0.97988772 178.5 0 0 0 52.124771
8.524621 -1.0632588 -0.98789006 215 0 0 0 51.532082
14.728176 -1.2842963 -0.98779798 98.5 0 0 0 50.951256
18.906061 -1.412884 -0.80979437 37 0 0 0 50.759151
-7.7870336 -0.76800919 -0.86853683 150 0 0 0 98.048706
-6.1979084 -0.61020511 -0.83772051 183 0 0 0 98.048706
-5.2558064 -0.51561737 -0.83138978 132 0 0 0 98.048706
3.8145275 -0.77620471 -0.82088864 14.6 0 0 0 52.708611
4.4134769 -0.72522235 -0.83616424 39.5 0 0 0 52.123047
5.2619843 -0.72922993 -0.86292309 108.75 0 0 0 51.731247
6.381947 -0.79974031 -0.89383835 193.66667 0 0 0 51.533939
8.5756817 -0.74781406 -0.99092162 184.5 0 0 0 50.951256
14.874701 -0.74483943 -0.99654472 113 0 0 0 50.358673
18.959352 -0.94808614 -0.81193382 23 0 0 0 50.358673
-7.9021053 -0.097834475 -0.87776959 127 0 0 0 99.412674
-6.2762027 -0.23098683 -0.84532058 109 0 0 0 99.028732
-5.2303581 -0.19096091 -0.82384729 100 0 0 0 99.028732
-4.5112686 -0.16543961 -0.81861138 37.5 0 0 0 99.028732
-4.4929338 -0.44157693 -0.81839037 38 0 0 0 98.048706
-3.9281931 -0.23997188 -0.80489779 13 0 0 0 98.635742
3.8598495 -0.29374498 -0.81841505 21.75 0 0 0 50.751137
4.4231167 -0.22515626 -0.82978952 57.200001 0 0 0 50.363873
5.2017031 -0.19971013 -0.84676915 143.75 0 0 0 50.169003
6.4017072 -0.24266924 -0.89197874 222.75 0 0 0 50.169003
8.5720615 -0.21575941 -0.98845798 213.33333 0 0 0 49.972286
19.052959 -0.24771851 -0.81666815 22 0 0 0 49.779091
-19.419998 0.4810057 -0.77734649 214 0 0 0 0
-18.656445 0.0042137969 -0.74504119 219 0 0 0 99.604782
-10.67658 0.0022987728 -0.93585902 60 0 0 0 99.604782
-8.5053711 0.41471833 -0.90469706 122 0 0 0 0.39340001
-8.3288708 0.20316696 -0.92743254 72 0 0 0 0
-6.6419373 0.32423127 -0.87019902 98.333336 0 0 0 0.39072999
-6.2592931 0.00014897507 -0.84236217 92 0 0 0 99.604782
-5.516243 0.33453849 -0.83201945 81 0 0 0 0.58609498
-5.3091278 0.068014875 -0.83645076 80 0 0 0 49.802391
-4.6730623 0.17208198 -0.82923549 34.75 0 0 0 25.194242
-4.1190853 0.24830529 -0.81446445 17.5 0 0 0 0.58557749
-3.9473228 0.0013700839 -0.80736208 13 0 0 0 99.604782
4.3809886 0.26958856 -0.82348841 44 0 0 0 48.610355
5.1375957 0.25061998 -0.83751661 107 0 0 0 48.805309
6.3338661 0.31075054 -0.88393211 193.66667 0 0 0 48.805309
8.473526 0.41646409 -0.97891992 175 0 0 0 48.803242
8.5264463 0.20769271 -0.98382109 189 0 0 0 49.195179
19.129581 0.4578428 -0.82161134 18 0 0 0 49.195179
-11.658506 0.71801597 -0.97569215 47 0 0 0 0.58609498
-8.4564009 0.61709654 -0.9008109 126 0 0 0 0.77879
4.2281723 0.7425071 -0.80620557 30.799999 0 0 0 46.850765
4.9578238 0.80518121 -0.81864607 81.5 0 0 0 47.048119
5.0926661 0.50395507 -0.83357382 89 0 0 0 48.025501
6.2319331 0.77398539 -0.87608224 198.66667 0 0 0 47.635815
8.3455544 0.72113812 -0.96692204 146 0 0 0 48.2215
-20.286024 1.0103195 -0.73846549 154 0 0 0 0.39340001
-3.8889258 1.3456372 -0.80588371 13.333333 0 0 0 5.0685635
3.9596205 1.3305625 -0.78438109 50.333332 0 0 0 44.50523
4.0964355 1.0962775 -0.79626656 41.5 0 0 0 45.483963
4.8008933 1.2798257 -0.81030756 119.5 0 0 0 45.480335
5.9309072 1.4227488 -0.85114145 183 0 0 0 45.868309
6.0803204 1.1420718 -0.86327207 163.5 0 0 0 46.655266
7.9423895 1.3879343 -0.9308269 123 0 0 0 46.850792
8.1443501 1.1124796 -0.94907796 127.5 0 0 0 47.440964
19.286076 1.4141709 -0.8324191 20 0 0 0 48.4175
-21.066698 1.5650541 -0.76998305 187 0 0 0 0.77879
-5.1339531 1.8619765 -0.82608855 75 0 0 0 5.2616148
-4.3803072 1.7609985 -0.82317221 27.200001 0 0 0 5.8489618
-3.7454078 1.765035 -0.8145771 16.833334 0 0 0 6.8241563
3.7305956 1.7413741 -0.77324384 60 0 0 0 42.749039
4.4289951 1.9942094 -0.79161942 152 0 0 0 42.944721
4.5918183 1.7312127 -0.80037338 141.25 0 0 0 43.922218
5.4737282 1.9832691 -0.81183016 212 0 0 0 44.11758
5.6717358 1.7394329 -0.82768112 215.33333 0 0 0 44.896927
7.6542611 1.7310001 -0.90599257 130.33333 0 0 0 46.065449
19.422924 1.9061707 -0.84121853 13 0 0 0 48.025501
-6.2274971 2.3521411 -0.86267734 84.666664 0 0 0 5.4586101
-5.0285234 2.102067 -0.82548958 183 0 0 0 6.04636
-4.9160957 2.3384662 -0.82573575 155 0 0 0 6.821105
-4.1290846 2.2015643 -0.81808591 45.75 0 0 0 7.602087
-3.7011137 2.2239635 -0.81730747 33 0 0 0 8.4441376
-3.3554645 2.3336525 -0.80799466 22.25 0 0 0 9.5553846
3.3415351 2.2844739 -0.75886548 37.200001 0 0 0 40.206203
3.7622771 2.2413378 -0.76319951 93 0 0 0 41.186714
4.2243109 2.2281888 -0.77811283 141.75 0 0 0 41.967274
5.2249269 2.2694967 -0.79407263 246.25 0 0 0 43.14053
6.8620138 2.4804864 -0.84116083 196 0 0 0 44.11758
7.1961536 2.2012873 -0.86828071 192.33333 0 0 0 44.896931
-8.0510616 2.8354642 -0.91176558 120 0 0 0 5.06703
-6.0452037 2.6232746 -0.85451835 86 0 0 0 6.2401199
-5.9291801 2.8316031 -0.85293144 104.5 0 0 0 6.821105
-4.7148337 2.7520547 -0.83109367 245.2 0 0 0 8.1879139
-3.7684085 2.7707796 -0.82266897 62.333332 0 0 0 9.9443159
-3.1064732 2.6366894 -0.8086561 18 0 0 0 11.112832
-2.932173 2.8088145 -0.80753738 32 0 0 0 12.08796
2.7816973 2.7958896 -0.73697978 46.333332 0 0 0 37.278568
3.0988503 2.5458145 -0.75044608 38.5 0 0 0 38.84016
3.7035294 2.7318811 -0.74838871 81 0 0 0 39.620453
4.7810569 2.7496586 -0.76788998 202 0 0 0 41.3797
6.3222356 2.8332465 -0.79746693 176.33333 0 0 0 42.94577
6.6631818 2.5980384 -0.82391828 265 0 0 0 43.724808
19.61507 2.9061871 -0.85675263 38 0 0 0 47.244152
-7.8859811 3.2136886 -0.9110198 213 0 0 0 5.8496399
-5.7299161 3.2661471 -0.85875803 139.5 0 0 0 7.992178
-4.5437627 3.1129885 -0.84070861 112 0 0 0 9.3646297
-4.3051472 3.3468413 -0.83415943 127.75 0 0 0 10.332602
-3.500463 3.0597813 -0.81954253 57 0 0 0 11.31099
-3.2466424 3.2809815 -0.81642705 69.400002 0 0 0 12.47665
-2.976016 3.4780135 -0.81146139 82 0 0 0 13.64577
2.2163887 3.1903439 -0.72197258 56 0 0 0 34.534691
2.7534175 3.2914524 -0.71762234 84.25 0 0 0 35.905731
3.2102089 3.1340332 -0.72724527 110 0 0 0 37.473557
3.8949008 3.4313879 -0.71916401 49 0 0 0 38.256248
4.240828 3.2030444 -0.73815525 125.8 0 0 0 39.425953
5.4079781 3.4748194 -0.73729432 113 0 0 0 40.592953
5.7524662 3.2065606 -0.75666046 88.25 0 0 0 41.576385
19.715414 3.4192369 -0.86554599 44 0 0 0 46.850792
-10.985307 3.8919244 -0.97876811 217 0 0 0 5.06703
-7.6074882 3.7654676 -0.91012067 193.66667 0 0 0 7.0166397
-5.5484605 3.6233461 -0.86466336 115 0 0 0 8.9708595
-5.347115 3.872874 -0.8631056 100.33334 0 0 0 9.750226
-4.0849576 3.5917819 -0.8337428 91 0 0 0 11.31099
-3.8636723 3.8360679 -0.83713353 117 0 0 0 12.280265
-2.7514844 3.639852 -0.81139845 61.75 0 0 0 14.629398
-2.2673986 3.7934318 -0.78877515 35.200001 0 0 0 16.386761
-1.7287029 3.8924165 -0.76309836 53 0 0 0 18.33477
-1.3150722 3.9635756 -0.75074655 54 0 0 0 19.898537
-0.64940387 3.979485 -0.72931397 18.75 0 0 0 22.428339
-0.30219001 3.9689038 -0.72232103 33.333332 0 0 0 23.793966
1.824507 3.9288805 -0.69473946 62.25 0 0 0 31.807228
2.2713428 3.7279904 -0.70273274 78.599998 0 0 0 33.558342
2.6126952 3.5487027 -0.71092707 84 0 0 0 34.92654
3.2556469 3.8731961 -0.69870746 111.6 0 0 0 35.905907
3.671798 3.5752609 -0.70923471 47 0 0 0 37.472717
4.8386135 3.8402071 -0.70681697 56 0 0 0 39.035351
5.1988058 3.6214409 -0.72611147 94 0 0 0 40.011856
19.878769 3.9541194 -0.87779516 30 0 0 0 46.45974
-11.299211 4.1589222 -0.71862662 455 0 0 0 5.2616148
-10.6323 4.0588093 -0.95547152 270 0 0 0 5.4562001
-10.27502 4.2096605 -0.93190366 280 0 0 0 5.8526001
-9.9414005 4.356442 -0.91070074 269 0 0 0 6.2401199
-7.300528 4.3001137 -0.91075921 217 0 0 0 8.1870003
-5.092514 4.1807866 -0.86327147 92 0 0 0 10.722179
-4.8826694 4.4209738 -0.86478257 79.5 0 0 0 11.503485
-3.6152344 4.0519528 -0.83678794 116 0 0 0 13.26219
-3.2504075 4.2211723 -0.82339984 78.800003 0 0 0 14.432673
-2.7204683 4.423563 -0.8054195 62 0 0 0 16.127417
-2.2345109 4.4804969 -0.77808982 45 0 0 0 17.554234
-1.974636 4.4935575 -0.76360816 40 0 0 0 18.330589
-1.0627034 4.0059772 -0.74693739 45.5 0 0 0 20.872835
-0.90655231 4.0028763 -0.74056172 31 0 0 0 21.452829
-0.1588774 4.4476557 -0.70158672 61.5 0 0 0 24.376961
0.22035734 4.3806958 -0.69400817 44.599998 0 0 0 25.749866
0.75258517 4.2853584 -0.6917299 71 0 0 0 27.702658
1.2771559 4.1586189 -0.69487089 87.199997 0 0 0 29.650808
1.5911691 4.0694871 -0.69940346 79 0 0 0 30.82696
2.2735076 4.4273224 -0.68245268 110.66666 0 0 0 32.390778
2.7090168 4.1906672 -0.68646812 96.800003 0 0 0 33.949669
3.9285033 4.4304614 -0.67405427 204 0 0 0 36.303608
4.2626524 4.2403612 -0.68605912 129.75 0 0 0 37.277885
4.587091 4.0290623 -0.69758618 84 0 0 0 38.256248
6.7451353 4.4339209 -0.73201901 282.5 0 0 0 40.398792
7.3156204 4.4273934 -0.77735585 175 0 0 0 40.988621
20.028603 4.4992933 -0.89006579 25 0 0 0 46.061367
-11.269653 4.6235647 -0.72865617 382 0 0 0 5.8526001
-9.5962601 4.6272092 -0.89434546 310 0 0 0 6.821105
-9.2053728 4.8584156 -0.87395287 496 0 0 0 7.4077101
-7.0814424 4.7720761 -0.92032593 479.5 0 0 0 9.1677446
-6.1898093 4.97751 -0.85579401 869 0 0 0 10.52704
-4.6142063 4.6032038 -0.85706353 132.5 0 0 0 12.28189
-4.3016262 4.8454266 -0.85425371 126 0 0 0 13.256419
-2.6677794 4.5046849 -0.81260079 53 0 0 0 16.38629
-1.6846823 4.5702915 -0.76005316 33.25 0 0 0 19.311462
-1.2031319 4.595891 -0.74383664 38.75 0 0 0 20.87352
-0.73048568 4.5755224 -0.72794056 65.5 0 0 0 22.428339
-0.38249901 4.502326 -0.71121264 66 0 0 0 23.600195
0.75752527 4.9498768 -0.67919397 119 0 0 0 27.312307
1.2387421 4.8325195 -0.67942822 123.4 0 0 0 28.871347
1.7574908 4.6347809 -0.67736161 111.25 0 0 0 30.630529
2.0456412 4.5246243 -0.67968434 106 0 0 0 31.61339
2.9389668 4.9189305 -0.64810741 175.5 0 0 0 33.366783
3.2575505 4.7525234 -0.65308547 188.33333 0 0 0 34.338257
3.6659305 4.5732975 -0.66625184 189.66667 0 0 0 35.510849
5.3270659 4.8989391 -0.65186769 300 0 0 0 37.865131
5.7763376 4.6842661 -0.67131162 305 0 0 0 38.84016
6.1990509 4.5339794 -0.69470209 265.5 0 0 0 39.622406
7.9711628 4.5547433 -0.83684784 67 0 0 0 41.384808
-8.7459211 5.1695538 -0.85387164 513 0 0 0 8.1870003
-8.3015785 5.4685445 -0.83618385 606 0 0 0 8.9708595
-6.8611193 5.1257935 -0.92501628 353.5 0 0 0 9.9430246
-6.194386 5.1102562 -0.7689743 465.5 0 0 0 10.722179
-4.0385213 5.0204148 -0.85101819 101 0 0 0 14.03438
-3.7195928 5.1109805 -0.83620173 137 0 0 0 14.827737
-3.2599633 5.2406039 -0.81830388 178.66667 0 0 0 15.998883
-2.7854474 5.3014445 -0.79559845 206.33333 0 0 0 17.164907
-2.2489667 5.3345528 -0.77109981 207.75 0 0 0 18.52907
-1.7426872 5.3728595 -0.7544086 188.33333 0 0 0 19.898537
-1.2441294 5.3492765 -0.73564804 158.5 0 0 0 21.261444
-0.75491589 5.2369266 -0.71015137 118.66666 0 0 0 22.622025
-0.29812387 5.1884365 -0.69986355 140.5 0 0 0 23.988577
0.20650032 5.0683966 -0.68534184 106 0 0 0 25.555296
0.5157913 5.0117183 -0.68202186 74 0 0 0 26.528139
1.8443861 5.427382 -0.64420348 213 0 0 0 30.040901
2.2925434 5.2118368 -0.64166856 167.5 0 0 0 31.415972
2.6834254 5.0449104 -0.64534014 173.5 0 0 0 32.58514
4.265049 5.4345527 -0.61837268 306.5 0 0 0 35.313812
4.7497578 5.1994009 -0.63241291 312.5 0 0 0 36.495228
9.554059 5.1417589 -0.99434137 210 0 0 0 41.766609
10.110476 5.4383593 -0.7679773 187 0 0 0 41.766609
20.058884 5.0280609 -0.89743388 35 0 0 0 45.675247
-12.898781 5.6713924 -0.85041046 313 0 0 0 6.2401199
-12.315109 5.7742114 -0.82038802 361 0 0 0 6.62886
-11.550795 5.7593718 -0.77728915 415 0 0 0 7.01335
-11.124804 5.8874273 -0.75789839 395 0 0 0 7.4077101
-10.149317 5.6858377 -0.69825411 244 0 0 0 7.8023
-9.5732918 5.66991 -0.66690809 571 0 0 0 8.1849899
-9.2428188 5.7806239 -0.653512 508 0 0 0 8.5737104
-8.969924 5.9169402 -0.64449662 517 0 0 0 8.9708595
-8.0414305 5.5806499 -0.82359302 649 0 0 0 9.3646297
-7.6763639 5.7501554 -0.80762023 691 0 0 0 9.9430246
-6.2053337 5.7899475 -0.92079067 440.33334 0 0 0 11.69831
0.33324718 5.9308305 -0.66141492 179.33333 0 0 0 25.750856
0.75662035 5.7884126 -0.65154976 160.66667 0 0 0 26.921495
1.2401501 5.6448231 -0.64716196 194 0 0 0 28.285612
1.5772207 5.5239053 -0.64436829 222 0 0 0 29.265829
3.2656925 5.9221873 -0.60180724 280.66666 0 0 0 32.779911
3.7235286 5.7029777 -0.60763764 270.66666 0 0 0 33.947983
4.0305371 5.5501862 -0.61302012 243 0 0 0 34.734928
7.603313 5.9914355 -0.6415692 265 0 0 0 39.032833
10.279053 5.8597078 -0.7923013 241 0 0 0 41.384808
20.114723 5.5719275 -0.90659195 36 0 0 0 45.292679
-13.666709 6.0138025 -0.54119223 435 0 0 0 6.2401199
-13.433229 6.305479 -0.53859907 481 0 0 0 6.62886
-8.7485409 6.2408714 -0.64603359 625.5 0 0 0 9.5547647
-7.1412807 6.0587206 -0.78993291 632 0 0 0 10.91732
-6.7288322 6.2937427 -0.77862471 726.66669 0 0 0 11.698311
-5.759439 6.0675359 -0.90947175 589 0 0 0 12.66856
-5.2717013 6.2741985 -0.89277357 606.33331 0 0 0 13.647446
-4.7584143 6.4167228 -0.87178838 561.5 0 0 0 14.63122
-4.4549832 6.4891038 -0.85988724 537 0 0 0 15.22077
-2.7008483 6.4660177 -0.76927543 297 0 0 0 18.531315
-2.3344874 6.4549217 -0.75464529 271 0 0 0 19.308504
-1.6335354 6.4083552 -0.72932726 204 0 0 0 20.872835
-1.2043858 6.3040147 -0.70898008 196 0 0 0 21.845037
-0.72066623 6.2077928 -0.69194442 168.33333 0 0 0 23.011446
-0.2559551 6.0624695 -0.67324525 212.66667 0 0 0 24.18368
0.042227741 6.0007105 -0.66686487 226 0 0 0 24.96862
2.2775369 6.3791595 -0.59940386 287 0 0 0 30.236835
2.7369127 6.1756725 -0.59947258 255.25 0 0 0 31.415972
5.6365919 6.4653583 -0.56243575 294.5 0 0 0 36.104263
6.1248665 6.3573627 -0.58061481 248 0 0 0 36.886196
6.6803885 6.4343877 -0.61214811 118 0 0 0 37.47047
7.1645031 6.2456183 -0.62889081 550.66669 0 0 0 38.257473
8.1654739 6.1096692 -0.67779452 653 0 0 0 39.425728
8.5599251 6.0786614 -0.69891232 509 0 0 0 39.81908
9.1277866 6.1453938 -0.73422599 396 0 0 0 40.204632
9.8952885 6.3087907 -0.78526294 325 0 0 0 40.592953
10.568993 6.3739772 -0.82762128 81 0 0 0 40.988621
20.333712 6.175365 -0.92408621 35 0 0 0 44.892048
-13.205237 6.5952229 -0.53653485 412 0 0 0 7.01335
-12.986918 6.8861165 -0.53518915 428 0 0 0 7.4077101
-8.5184641 6.5583553 -0.64773875 605 0 0 0 10.14115
-8.0835094 6.8739138 -0.64084345 495 0 0 0 10.91732
-6.2347336 6.5852547 -0.7681967 712.5 0 0 0 12.66856
-5.8061514 6.7613888 -0.75636268 845.5 0 0 0 13.453979
-5.3648472 6.8996501 -0.7431066 932.5 0 0 0 14.235195
-4.1365795 6.5203609 -0.84441042 552.5 0 0 0 15.80518
-3.7233057 6.5506253 -0.82502031 394 0 0 0 16.57909
-3.2228763 6.5651212 -0.80220491 322.66666 0 0 0 17.554235
-2.0937033 6.5309033 -0.7553519 250 0 0 0 19.896799
-1.9118392 6.5037708 -0.74709922 240 0 0 0 20.29558
0.84697986 6.966886 -0.61632657 258 0 0 0 26.724344
1.2551974 6.8043571 -0.60897493 250 0 0 0 27.703287
1.736621 6.6229386 -0.60421711 224 0 0 0 28.871405
2.0574708 6.514317 -0.60389042 281 0 0 0 29.649031
4.2993064 6.9242859 -0.52982825 270.33334 0 0 0 33.55965
4.7917366 6.7456532 -0.53954828 265 0 0 0 34.534691
5.1986618 6.5981102 -0.54924667 277.5 0 0 0 35.313812
20.602409 6.8150725 -0.94470745 27 0 0 0 44.506062
-12.651482 7.3118782 -0.53343463 453 0 0 0 7.9936447
-7.7353086 7.0784745 -0.6343919 663 0 0 0 11.503485
-7.319437 7.3836222 -0.63085997 542 0 0 0 12.28189
-5.0974536 7.0749488 -0.74289626 911 0 0 0 14.82643
-4.7351995 7.2969775 -0.74330276 759.66669 0 0 0 15.610377
-4.0575609 7.1695595 -0.70430624 453 0 0 0 16.57909
-0.6562106 7.4856606 -0.65520912 263 0 0 0 23.403271
-0.28454015 7.3542881 -0.64285201 266.33334 0 0 0 24.18368
0.24925601 7.1494231 -0.62630033 267.66666 0 0 0 25.359522
0.59421241 7.0487361 -0.62031388 327 0 0 0 26.14262
3.1917078 7.4039574 -0.5208568 237.33333 0 0 0 31.220613
3.740978 7.1639056 -0.52372187 247 0 0 0 32.390778
20.667339 7.4058008 -0.95647818 31 0 0 0 44.11758
-12.324073 7.736815 -0.53266823 450 0 0 0 8.5737104
-7.0154624 7.6145229 -0.62969708 631 0 0 0 12.8613
-6.7308211 7.8642054 -0.63130844 604 0 0 0 13.453979
-5.0290203 7.7643976 -0.56581384 800 0 0 0 15.6118
-4.865119 7.93045 -0.57035387 730 0 0 0 15.99856
-4.0145164 7.7531843 -0.75039297 566 0 0 0 17.16526
-3.8684213 7.9436941 -0.76095688 500 0 0 0 17.55757
-3.4233847 7.6423783 -0.65177208 589 0 0 0 18.070112
-2.7966828 7.8116188 -0.71688247 649.5 0 0 0 19.308504
-2.1920733 7.9051208 -0.71135932 254 0 0 0 20.48819
-1.7619917 7.8169022 -0.69592583 266.5 0 0 0 21.25885
-1.2527709 7.7242088 -0.68116921 242.66667 0 0 0 22.235062
-0.85101485 7.5790114 -0.66464376 239 0 0 0 23.008169
1.8965505 7.9505286 -0.52410161 210 0 0 0 28.48287
2.2666645 7.7836413 -0.52096301 239.33333 0 0 0 29.260124
2.725966 7.5811939 -0.51896155 240.5 0 0 0 30.236835
-11.883755 8.2939415 -0.53265673 432 0 0 0 9.3646297
-6.2727242 8.0940094 -0.62642336 593 0 0 0 14.235195
-5.8428526 8.3529682 -0.62573767 784.5 0 0 0 15.0236
-4.510478 8.231163 -0.57788676 696 0 0 0 16.771891
-4.3097105 8.3426838 -0.57923234 715 0 0 0 17.16526
-3.3566115 8.4173241 -0.78478312 445 0 0 0 18.73204
-2.5511305 8.0523567 -0.73199534 277 0 0 0 19.896799
0.94093889 8.4224672 -0.54097301 258 0 0 0 26.528139
1.2361022 8.2870874 -0.53562766 241 0 0 0 27.118176
1.6149421 8.0835705 -0.5278604 261.5 0 0 0 27.897034
20.726774 8.0081959 -0.96853983 32 0 0 0 43.724808
-11.672134 8.5768433 -0.53358173 536 0 0 0 9.7448997
-4.1303997 8.5007658 -0.58431959 883 0 0 0 17.55757
-3.7698486 8.8386126 -0.59689301 645 0 0 0 18.330589
-0.21079588 8.8914204 -0.56474793 232.5 0 0 0 24.376961
0.21995015 8.6923389 -0.55307686 262.5 0 0 0 25.16618
0.63863248 8.566452 -0.54764181 246.5 0 0 0 25.944416
20.788401 8.6258593 -0.98153657 20 0 0 0 43.34042
24.711567 8.854085 -0.50623846 91 0 0 0 44.11758
-3.6283345 9.1257944 -0.61196333 726 0 0 0 18.73204
-3.4470544 9.3332653 -0.62159306 620 0 0 0 19.113779
-1.6269075 9.4623337 -0.60644746 201.5 0 0 0 22.041142
-1.1370142 9.320013 -0.59424937 203 0 0 0 22.815535
-0.66289115 9.119154 -0.5796597 204 0 0 0 23.600195
20.741627 9.2113171 -0.99004316 23 0 0 0 42.944721
-3.1825852 9.7162952 -0.64153516 372 0 0 0 19.700014
-2.282557 9.6971064 -0.62788874 178 0 0 0 21.064871
20.693945 9.8069096 -0.99925703 31 0 0 0 42.55217
24.907986 9.6221848 -0.51565057 81 0 0 0 43.724808
-2.7962012 10.206606 -0.66760141 235 0 0 0 20.48819
25.026896 10.382548 -0.52383113 91 0 0 0 43.34042
25.165359 11.173089 -0.53291041 77 0 0 0 42.944721
-1.9494442 12.464907 -0.5002901 163 0 0 0 22.235001
23.236223 12.446033 -0.50854188 56 0 0 0 41.766609
25.429079 12.047046 -0.54531026 61 0 0 0 42.55217
-2.2794983 12.555838 -0.50519675 289 0 0 0 21.847281
25.661213 12.938751 -0.55755049 53 0 0 0 42.165512
26.124693 14.825559 -0.5838449 53 0 0 0 41.384808
26.26116 15.768637 -0.5957157 53 0 0 0 40.988621
15.84365 -20.373594 -0.42842767 18 0 0 0 64.046791
14.79841 -18.100681 -0.38602793 120 0 0 0 63.6586
18.568155 -17.73798 -0.43429247 16 0 0 0 61.690792
19.687401 -17.901808 -0.45277554 16 0 0 0 61.308311
20.338755 -17.600946 -0.4596045 18 0 0 0 60.907539
15.427517 -17.086054 -0.38197091 65 0 0 0 62.86763
17.225393 -17.286404 -0.40965194 15 0 0 0 62.079712
15.747686 -16.602682 -0.38072109 85 0 0 0 62.477512
8.052783 -12.795833 -0.23412682 395 0 0 0 65.614502
8.2664928 -12.447757 -0.2315542 285 0 0 0 65.220154
-5.1854444 -11.643152 -0.18824439 783 0 0 0 81.249641
0.53117198 -11.527214 -0.16649568 268 0 0 0 73.813011
-5.9848661 -11.154456 -0.18714973 449 0 0 0 82.417511
-5.451117 -11.475064 -0.18765292 235 0 0 0 81.645668
-0.30679148 -11.131959 -0.15930274 379 0 0 0 74.991829
1.3495203 -11.242893 -0.16266525 103 0 0 0 72.639763
-1.5981053 -10.565955 -0.15133472 326 0 0 0 76.944908
1.6788402 -10.690473 -0.28414556 271.5 0 0 0 72.059021
5.6544952 -10.670137 -0.32658777 425 0 0 0 66.787079
6.1481085 -10.940643 -0.34102249 374.5 0 0 0 66.385521
25.496811 -10.598944 -0.49498692 16 0 0 0 55.831089
-1.7429572 -10.363314 -0.31860766 150.33333 0 0 0 77.210777
4.7443862 -10.130912 -0.29896846 380 0 0 0 67.561775
5.1915178 -10.406474 -0.1705115 491 0 0 0 67.172287
-3.17626 -9.5331783 -0.14044891 577 0 0 0 79.689453
-2.7897863 -9.7528706 -0.20323002 407.5 0 0 0 79.001114
1.9320618 -9.9101124 -0.14134835 754 0 0 0 71.47406
3.8594017 -9.6440706 -0.23321567 478.33334 0 0 0 68.48233
4.344985 -9.9067936 -0.28775918 354 0 0 0 67.956169
7.2057705 -9.7856483 -0.18283097 39 0 0 0 64.438957
25.291536 -9.7922697 -0.48732615 15 0 0 0 55.440048
-3.3696227 -9.341114 -0.25883493 681.5 0 0 0 80.078178
1.3355639 -9.2714062 -0.35731795 369 0 0 0 72.250916
3.6140752 -9.4883375 -0.39170393 381 0 0 0 68.740417
6.3265667 -9.2166786 -0.34743884 1911.3334 0 0 0 64.957458
6.6398244 -9.0262222 -0.44027606 204 0 0 0 64.438957
25.168703 -9.0402317 -0.48178354 18 0 0 0 55.047581
-4.7565942 -8.5989809 -0.25707489 511 0 0 0 82.618103
-4.4752131 -8.8439541 -0.13860364 465 0 0 0 82.028992
0.71577567 -8.7462101 -0.332434 79.5 0 0 0 73.233047
1.8749745 -8.5271273 -0.11752999 501 0 0 0 71.07917
2.2552114 -8.7089367 -0.23193043 327.25 0 0 0 70.498062
3.1379375 -8.8932219 -0.24599142 182.5 0 0 0 69.125687
7.4276419 -8.6751537 -0.31044629 1062.5 0 0 0 63.264999
-5.3623052 -8.2112293 -0.13733935 429 0 0 0 83.783478
0.95666671 -8.0717249 -0.30529583 154 0 0 0 72.639763
2.4754581 -8.3040771 -0.32856444 526 0 0 0 69.9142
2.6361086 -8.3382196 -0.1896946 798.66669 0 0 0 69.647873
24.963711 -8.2800579 -0.47493759 33 0 0 0 54.663898
-6.7582369 -7.6204643 -0.39194632 166.5 0 0 0 86.140335
-6.1476889 -7.8516302 -0.26204997 49 0 0 0 85.151245
0.51754177 -7.5053334 -0.096183091 500 0 0 0 73.430519
1.2789483 -7.593183 -0.099360727 330 0 0 0 71.867134
-7.6266413 -7.2435369 -0.40555292 84 0 0 0 87.508682
-7.1390805 -7.4780045 -0.39819863 187 0 0 0 86.728226
-4.3648243 -7.2455988 -0.1133131 294 0 0 0 83.199966
-2.1047287 -7.15766 -0.45914906 478.5 0 0 0 79.098862
-1.8598089 -7.303689 -0.46416068 285 0 0 0 78.510651
-1.4301972 -7.0392089 -0.090019956 88 0 0 0 77.726631
-0.92511123 -7.2384276 -0.18123604 49 0 0 0 76.559921
-0.38261324 -7.0955973 -0.26188579 73.5 0 0 0 75.389481
0.13737921 -7.0217576 -0.087410852 178 0 0 0 74.212112
0.66492474 -7.1315637 -0.26314726 273 0 0 0 73.035568
1.3594183 -7.3567333 -0.4003754 159.33333 0 0 0 71.60508
1.5593725 -7.1282082 -0.27072036 149 0 0 0 71.07917
4.4227476 -7.4612212 -0.22514981 194 0 0 0 65.996498
4.5664344 -7.2917991 -0.32891688 85 0 0 0 65.614502
24.465164 -7.4528928 -0.46253991 27 0 0 0 54.271927
-16.187092 -6.7016029 -0.27023163 716 0 0 0 93.371071
-4.1314898 -6.8533912 -0.49573117 386 0 0 0 83.199966
-3.8450565 -6.9412804 -0.49115768 371 0 0 0 82.618103
-3.1113889 -6.5238767 -0.3555122 825.5 0 0 0 81.645668
-2.815299 -6.7297029 -0.35887888 472.5 0 0 0 80.859283
-2.4900019 -6.8806129 -0.44962561 656 0 0 0 80.078178
-1.3514897 -6.6369891 -0.24795996 28 0 0 0 77.726631
-0.7063185 -6.8439264 -0.084733136 41 0 0 0 76.169441
-0.1027411 -6.755033 -0.2805596 318.79999 0 0 0 74.755692
0.29287246 -6.6817694 -0.32703447 174.25 0 0 0 73.817162
24.224766 -6.7338686 -0.45576176 35 0 0 0 53.885262
-4.055654 -6.0360184 -0.2697134 669 0 0 0 83.979347
-3.7608688 -6.2352314 -0.26993489 445 0 0 0 83.199966
-2.7087686 -6.0514469 -0.40400472 98 0 0 0 81.249641
-1.6671257 -6.2023916 -0.23326582 157 0 0 0 78.706146
-1.421327 -6.197907 -0.075593814 1561 0 0 0 78.112167
-0.62238526 -6.3964496 -0.27315536 72.75 0 0 0 76.067886
-0.33620819 -6.1401744 -0.22195852 26 0 0 0 75.389481
0.12065815 -6.3949714 -0.3888849 25 0 0 0 74.212112
23.894318 -6.0134258 -0.44760376 31 0 0 0 53.487019
-4.1155486 -5.9655509 -0.44560334 189.5 0 0 0 84.177254
-3.6769741 -5.7701712 -0.41850749 329 0 0 0 83.587601
-2.3964577 -5.7217574 -0.22214027 140.66667 0 0 0 80.856522
-1.9794222 -5.9055853 -0.22513811 599 0 0 0 79.689453
-1.3328314 -5.5810885 -0.34644771 119.66666 0 0 0 78.244995
-0.61906773 -5.945962 -0.21468379 68 0 0 0 76.169441
-4.3700857 -5.0430632 -0.40692529 52 0 0 0 85.944351
-3.79848 -5.363265 -0.16148472 90.5 0 0 0 84.37516
-2.7088273 -5.1170459 -0.34656057 391.33334 0 0 0 82.292229
-2.1155214 -5.4143329 -0.25363863 81 0 0 0 80.468925
-1.7266814 -5.1405849 -0.38986751 219 0 0 0 79.689453
-1.1097043 -5.1945777 -0.4038527 52.333332 0 0 0 77.855141
23.691711 -5.3466668 -0.44231212 25 0 0 0 53.095951
-12.655373 -4.5256419 -0.1986858 76 0 0 0 94.150116
-4.5217795 -4.9694223 -0.082305402 64 0 0 0 86.336319
-4.1465836 -4.9036608 -0.077186398 162.5 0 0 0 85.74395
-3.7400622 -4.7621574 -0.14592776 355.5 0 0 0 85.153938
-3.2367516 -4.7066908 -0.34230691 148.39999 0 0 0 84.136642
-2.6243846 -4.8638496 -0.46686614 306 0 0 0 82.417511
-2.4719625 -4.8610983 -0.19277675 210 0 0 0 82.028992
23.558292 -4.7108922 -0.43868104 24 0 0 0 52.710567
-4.1452584 -4.2517438 -0.26974544 1205.8 0 0 0 86.882973
-3.5872238 -4.3462815 -0.47672167 441 0 0 0 85.543549
-3.3077481 -4.2856994 -0.41275755 94 0 0 0 85.02227
23.499733 -4.1008306 -0.43682069 26 0 0 0 52.323158
-4.2970319 -3.7678123 -0.34343249 661 0 0 0 88.116447
-3.9983695 -3.9801984 -0.20046933 847 0 0 0 87.115089
23.392918 -3.4916148 -0.43427035 29 0 0 0 51.92638
23.364779 -2.9017739 -0.43353766 38 0 0 0 51.532082
22.999537 -2.2834811 -0.42630193 77 0 0 0 51.14336
23.170692 -1.7258837 -0.43001449 86 0 0 0 50.759151
23.380205 -1.1638119 -0.43476883 40 0 0 0 50.358673
23.412127 -0.58835214 -0.43618834 41 0 0 0 49.970432
23.414928 -0.011989663 -0.43725216 62 0 0 0 49.587753
-18.794947 0.00096942304 -0.29155347 20 0 0 0 99.604782
22.992781 0.55430967 -0.43001309 79 0 0 0 49.195179
23.072519 1.124962 -0.43309912 97 0 0 0 48.803242
-21.105165 1.5651221 -0.25777045 43 0 0 0 0.77879
22.987526 1.6888615 -0.43308058 128 0 0 0 48.4175
23.025137 2.2626479 -0.43579465 147 0 0 0 48.025501
23.050413 2.8395648 -0.43849659 142 0 0 0 47.637779
23.128479 3.4290431 -0.44254506 165 0 0 0 47.244152
-11.330973 4.1719246 -0.42840362 500 0 0 0 5.2616148
23.486015 4.0750237 -0.45263872 115 0 0 0 46.850792
-11.22137 4.6044416 -0.43159449 401 0 0 0 5.8526001
23.470541 4.6701832 -0.45531586 147 0 0 0 46.45974
-14.25811 5.262414 -0.18104106 294 0 0 0 5.2616148
-6.2583432 5.1028237 -0.23372629 841 0 0 0 10.62461
23.610716 5.3052931 -0.46152747 73 0 0 0 46.061367
-13.896878 5.7140737 -0.17985457 450 0 0 0 5.8526001
-13.666971 6.0122814 -0.17939571 446 0 0 0 6.2401199
-13.443419 6.3086953 -0.17915958 497 0 0 0 6.62886
-9.3300877 6.1585894 -0.26636052 586.5 0 0 0 8.9708595
8.1557283 6.2607746 -0.30390361 612.75 0 0 0 39.229279
8.6463451 6.1398849 -0.31506866 629 0 0 0 39.81908
9.1981497 6.1928482 -0.3302272 592.5 0 0 0 40.204632
9.9678688 6.355258 -0.35478848 536 0 0 0 40.592953
20.827446 6.3285627 -0.41343141 215 0 0 0 44.892048
23.136721 6.4101071 -0.45883137 51 0 0 0 45.292679
24.004381 6.0177183 -0.4733777 90 0 0 0 45.675247
-13.222446 6.6023111 -0.17909274 482 0 0 0 7.01335
-12.997748 6.8903427 -0.17908724 457 0 0 0 7.4077101
-11.306688 6.7107096 -0.15815778 407 0 0 0 8.1849899
7.2707801 6.8807254 -0.25208071 1030.3334 0 0 0 37.603207
7.6503954 6.8296032 -0.42806378 313.5 0 0 0 38.062462
8.222374 6.808847 -0.31521407 532 0 0 0 38.647488
-12.762487 7.1689029 -0.17903072 532 0 0 0 7.8023
-4.1067376 7.0521851 -0.29823783 1115 0 0 0 16.38629
6.6762366 7.4530163 -0.41505828 172 0 0 0 36.303608
7.3034997 7.3812551 -0.30492139 353.5 0 0 0 37.078999
21.571131 7.1382751 -0.43341249 104 0 0 0 44.506062
-12.326054 7.7365398 -0.17988907 535 0 0 0 8.5737104
-5.0073133 7.731916 -0.33947316 254 0 0 0 15.6118
-4.7777514 7.7852073 -0.11577386 272 0 0 0 15.99856
-4.3310328 7.8963566 -0.22494271 297 0 0 0 16.771891
6.5240493 7.6553464 -0.41691747 424 0 0 0 35.904919
7.1044474 7.5435882 -0.43143833 620 0 0 0 36.693394
-11.896349 8.3013115 -0.18141511 503 0 0 0 9.3646297
-10.375042 8.0104046 -0.3215127 664.5 0 0 0 10.14115
-8.6339264 8.1140699 -0.43492395 345 0 0 0 11.69598
-8.2549963 8.2778902 -0.33563662 508.33334 0 0 0 12.217247
-6.2133284 8.4399519 -0.26148686 461 0 0 0 14.63122
-4.2087078 8.1425638 -0.11904331 360 0 0 0 17.16526
-3.9361076 8.2668581 -0.19412117 408.33334 0 0 0 17.685003
5.2803278 8.4713154 -0.41029468 206 0 0 0 33.564114
5.6344938 8.3327751 -0.41450435 243 0 0 0 34.139923
6.318933 8.2008438 -0.42908916 330.33334 0 0 0 35.12085
9.363492 8.141283 -0.21997957 308 0 0 0 38.256248
-11.676521 8.5785933 -0.1823132 494 0 0 0 9.7448997
-9.8419914 8.6763868 -0.3778758 604.33331 0 0 0 11.179767
-5.8272729 8.7096529 -0.22064485 746 0 0 0 15.351112
-3.7077937 8.6942787 -0.240936 612.25 0 0 0 18.333273
4.3979716 8.9100008 -0.40622967 206 0 0 0 32.002048
4.7256279 8.7417841 -0.40710628 202 0 0 0 32.58514
5.0650887 8.5920849 -0.40945059 185 0 0 0 33.169449
-9.5774021 9.0124559 -0.16785398 606 0 0 0 11.69598
-7.2298589 9.1219063 -0.29262015 157 0 0 0 14.03438
-3.5863864 9.0197496 -0.3679412 491 0 0 0 18.73204
3.2911558 9.4504738 -0.40635902 171 0 0 0 30.03628
3.7473726 9.2620134 -0.40700313 180 0 0 0 30.828613
4.1914983 9.0473986 -0.40720797 186 0 0 0 31.61339
8.8759317 9.4037619 -0.22883768 184 0 0 0 36.693394
-9.1909542 9.5370274 -0.1717412 422 0 0 0 12.47582
-8.8355618 9.7847614 -0.38501811 346 0 0 0 12.994929
-8.2813578 9.956069 -0.17088412 116 0 0 0 13.64577
-3.5075409 9.5058813 -0.38671237 513 0 0 0 19.113779
-2.4906106 9.5231075 -0.13900793 2019 0 0 0 20.680799
2.2620196 9.9174576 -0.41044629 172 0 0 0 28.288185
2.7260509 9.7175903 -0.40843654 209 0 0 0 29.06567
3.0686255 9.5640182 -0.4073208 220 0 0 0 29.649031
6.365778 9.6519308 -0.1971675 215 0 0 0 33.945393
6.6923847 9.6195469 -0.20093553 189 0 0 0 34.33445
-8.7782383 10.048351 -0.17581403 421 0 0 0 13.26219
-8.3168659 10.000814 -0.48762918 102 0 0 0 13.64577
-6.2566113 10.257953 -0.4552362 494 0 0 0 15.99856
-5.3540468 10.423543 -0.44676366 325 0 0 0 17.16526
1.3068275 10.327579 -0.41759375 222 0 0 0 26.724344
1.7820041 10.078953 -0.41164851 171 0 0 0 27.508184
7.6814594 10.200865 -0.2229567 439 0 0 0 34.92654
8.2966537 10.206046 -0.23160127 358 0 0 0 35.509472
8.8385553 10.336915 -0.24123226 257 0 0 0 35.904919
-3.7064126 10.902431 -0.44555256 524 0 0 0 19.503229
0.43698889 10.872791 -0.43480682 197 0 0 0 25.363739
0.81831145 10.633716 -0.42688912 175 0 0 0 25.944416
6.8069496 10.880678 -0.22196367 173 0 0 0 33.564114
9.7908564 10.886943 -0.26286399 42 0 0 0 36.303608
-3.8574746 11.358264 -0.1734871 348 0 0 0 19.503229
-3.3467259 11.18599 -0.45407987 490 0 0 0 20.096189
-0.23858806 11.338808 -0.45213354 147.5 0 0 0 24.376961
0.17393889 11.062617 -0.44169801 191 0 0 0 24.96862
5.7925234 11.329696 -0.21776229 112 0 0 0 32.197014
6.1955228 11.086143 -0.21816896 114 0 0 0 32.778301
6.5187492 11.01588 -0.22073087 329 0 0 0 33.169449
-2.8615994 11.619774 -0.46867687 303.5 0 0 0 20.872835
-1.273844 11.919625 -0.47590217 146 0 0 0 23.008169
-0.81518316 11.634332 -0.46374616 152.5 0 0 0 23.600195
4.8254819 11.862295 -0.21701695 134 0 0 0 30.82696
5.2385025 11.627247 -0.21702078 121.5 0 0 0 31.41744
-2.4987829 12.050974 -0.48479038 160 0 0 0 21.452829
-1.5897862 12.076877 -0.48298919 127 0 0 0 22.6229
3.8082337 12.306757 -0.21587417 109.5 0 0 0 29.45743
4.2606344 12.157314 -0.217033 121 0 0 0 30.03628
4.5582638 12.046677 -0.21773526 121 0 0 0 30.437389
2.7893195 12.832592 -0.21768992 111 0 0 0 28.0935
3.2317863 12.610849 -0.21684051 126 0 0 0 28.674191
-4.8820319 13.353392 -0.21064462 149 0 0 0 19.113779
1.9032133 13.463381 -0.22368871 97 0 0 0 26.920549
2.3493161 13.124088 -0.22014263 109.5 0 0 0 27.508184
1.2812442 13.971441 -0.22976287 135 0 0 0 26.14262
1.592289 13.675255 -0.22588885 107 0 0 0 26.528139
-2.5988944 14.39843 -0.22734272 342 0 0 0 21.847281
0.95813537 14.280412 -0.23395702 114 0 0 0 25.74621
-4.6387639 14.95502 -0.23844281 240 0 0 0 19.896799
-4.2182283 14.874585 -0.23646365 331 0 0 0 20.29558
-3.2442975 14.840557 -0.23528296 286 0 0 0 21.25885
-2.2823825 14.713312 -0.23330566 324 0 0 0 22.235001
-1.9218189 14.776084 -0.23484394 361 0 0 0 22.6229
0.26846147 14.850101 -0.2416691 94 0 0 0 24.96862
0.62219357 14.611757 -0.23863243 95 0 0 0 25.363739
-1.5977516 15.221107 -0.24349873 117 0 0 0 23.008169
-0.28614324 15.280043 -0.24775949 90.5 0 0 0 24.376961
-0.87329882 15.797123 -0.25561517 130 0 0 0 23.797119
-1.2797339 16.025866 -0.25890511 142 0 0 0 23.403271
-1.743045 -34.987442 0.27816549 34 0 0 0 75.389481
50.355541 -31.933086 0.37603095 223 0 0 0 58.56506
-27.258663 -25.948696 0.29246664 10 0 0 0 87.508682
22.242563 -22.296616 0.2314609 85 0 0 0 62.079712
22.613529 -21.582327 0.22829579 106 0 0 0 61.690792
25.353344 -21.919601 0.23849471 36 0 0 0 60.907539
27.527164 -21.529411 0.24316931 35 0 0 0 60.132328
25.802485 -21.223763 0.23594795 36 0 0 0 60.521339
29.813519 -21.041601 0.24805984 30 0 0 0 59.352688
23.009659 -20.905632 0.22552119 95 0 0 0 61.308311
14.79671 -18.090822 0.18563883 157 0 0 0 63.6586
15.112029 -17.578056 0.18324547 160 0 0 0 63.264999
15.823516 -17.515713 0.18473721 211 0 0 0 62.86763
-43.455616 -16.768356 0.35909569 24 0 0 0 93.758965
-4.6169176 -16.596241 0.15420195 49 0 0 0 78.901642
15.701781 -16.547409 0.17850463 168 0 0 0 62.477512
-3.226649 -16.090357 0.14885366 443 0 0 0 77.726631
-3.9505479 -15.671663 0.14695872 93 0 0 0 78.510651
7.8368735 -13.151238 0.13734508 230 0 0 0 65.996498
-9.4651194 -12.741354 0.14277931 109 0 0 0 84.764328
-4.1724386 -12.553671 0.29183522 185.5 0 0 0 79.689453
8.0495834 -12.784906 0.1354927 438 0 0 0 65.614502
8.7625523 -12.509704 0.13547884 205 0 0 0 64.826103
-4.3461027 -12.077307 0.28358614 849 0 0 0 80.078178
8.2596645 -12.43193 0.13375007 420 0 0 0 65.220154
-8.1542397 -11.552423 0.30716306 160 0 0 0 84.37516
-5.3824706 -11.576133 0.33490494 594.33331 0 0 0 81.513664
-4.9199934 -11.820852 0.28266829 595.5 0 0 0 80.856522
0.84956163 -11.997115 0.41856667 69 0 0 0 73.430519
1.1159472 -11.677822 0.11657712 378 0 0 0 73.035568
-6.2653146 -11.021047 0.43731731 293 0 0 0 82.818703
-5.8714461 -11.275515 0.2806299 965.5 0 0 0 82.223251
1.3538026 -11.259953 0.11389171 420 0 0 0 72.639763
-6.7103558 -10.563875 0.43179968 107 0 0 0 83.587601
-6.2506747 -10.999558 0.12129056 231 0 0 0 82.818703
5.6219773 -10.603245 0.26480407 405 0 0 0 66.787079
6.13311 -10.908106 0.27467692 339.5 0 0 0 66.385521
0.47484988 -10.36008 0.236257 134.5 0 0 0 73.813011
1.7785593 -10.464897 0.2411665 548 0 0 0 71.867134
4.764843 -10.168091 0.25162661 358.5 0 0 0 67.561775
5.1992955 -10.41851 0.25933462 451.5 0 0 0 67.172287
1.9389179 -9.9345436 0.10535716 184 0 0 0 71.47406
3.8072226 -9.6217918 0.23539078 544.25 0 0 0 68.546852
4.3550663 -9.9233894 0.24430339 376.5 0 0 0 67.956169
7.2672086 -9.864193 0.11511944 274 0 0 0 64.438957
-2.3602669 -9.3089037 0.34084338 18 0 0 0 78.510651
2.3350053 -9.4818192 0.34642127 585 0 0 0 70.694283
2.7466493 -9.1831484 0.22100765 615 0 0 0 69.908272
3.2982216 -9.3347969 0.22699107 677.5 0 0 0 69.125687
1.8817014 -8.5493183 0.095809698 458 0 0 0 71.07917
2.6882305 -8.9957314 0.21711405 674.5 0 0 0 69.9142
-2.6008282 -8.4832077 0.31741008 58 0 0 0 79.296089
1.6895366 -8.1597633 0.30080947 80.5 0 0 0 71.276611
2.0487306 -8.3337288 0.09454526 85 0 0 0 70.694283
0.71829134 -7.6323867 0.21687233 83 0 0 0 73.035278
1.1281359 -7.8551226 0.18951477 734 0 0 0 72.250916
-4.3653145 -7.2465491 0.303251 410 0 0 0 83.199966
-0.20649798 -7.1323543 0.20207743 85.666664 0 0 0 74.993195
31.082602 -7.0033827 0.18909 15 0 0 0 53.095951
-16.199078 -6.7099228 0.15739621 916 0 0 0 93.371071
-1.5838324 -6.6679001 0.36525249 154 0 0 0 78.244995
-1.1738065 -6.5938096 0.19263119 1052.6666 0 0 0 77.338417
-0.70954138 -6.8897147 0.083246954 8 0 0 0 76.169441
0.13305417 -6.7947063 0.082268871 342 0 0 0 74.212112
-6.2771025 -6.2617779 0.206504 68 0 0 0 87.115089
-0.78077787 -6.0820174 0.077735864 20 0 0 0 76.559921
-0.49698225 -6.3078551 0.079092279 144 0 0 0 75.775551
-2.6079352 -5.829751 0.079043902 818 0 0 0 81.249641
-2.2823675 -5.8491726 0.23455893 83 0 0 0 80.468925
-1.6785319 -5.9630461 0.23212479 46 0 0 0 78.901642
-1.1106009 -5.6799941 0.17091668 174.66667 0 0 0 77.599861
29.81464 -5.9521899 0.18012936 15 0 0 0 52.710567
-3.6821201 -5.0659099 0.30952835 43.5 0 0 0 84.569748
-3.4003391 -5.3395605 0.23253575 90 0 0 0 83.589661
-2.6514227 -5.0632935 0.14649805 490 0 0 0 82.223251
-2.1285479 -5.4530163 0.075509489 87 0 0 0 80.468925
-1.6523019 -5.3583531 0.073948279 20 0 0 0 79.296089
28.956081 -5.0442991 0.17350173 23 0 0 0 52.323158
-4.6655941 -4.6511631 0.16187134 597 0 0 0 87.118454
-4.2429295 -4.8964729 0.07948406 80.666664 0 0 0 85.941406
-3.1144512 -4.8859119 0.074575566 149 0 0 0 83.587601
-4.9336414 -4.4575448 0.24631359 48 0 0 0 87.896202
28.516655 -4.2483644 0.16911636 25 0 0 0 51.92638
-4.4535689 -3.6434972 0.21750911 507.33334 0 0 0 88.670677
28.025213 -3.4732482 0.16470513 27 0 0 0 51.532082
27.634712 -2.7368159 0.16097569 13 0 0 0 51.14336
27.252201 -2.0236318 0.15747689 26 0 0 0 50.759151
27.07234 -1.3417797 0.15502052 18 0 0 0 50.358673
26.703676 -0.66567063 0.15190825 39 0 0 0 49.970432
24.552433 -0.0078627998 0.14122082 90 0 0 0 49.587753
24.638638 0.59854561 0.1404561 126 0 0 0 49.195179
24.551043 1.2014565 0.13905807 114 0 0 0 48.803242
23.434523 1.725992 0.13344465 100 0 0 0 48.4175
24.239431 2.3861122 0.13605998 67 0 0 0 48.025501
24.335796 3.0019155 0.13579679 116 0 0 0 47.637779
24.373934 3.6176023 0.13539045 110 0 0 0 47.244152
24.670406 4.2844119 0.1361645 102 0 0 0 46.850792
24.691658 4.9169164 0.13592052 115 0 0 0 46.45974
-14.217794 5.2453103 0.18649191 234.5 0 0 0 5.2616148
-9.7463255 5.4590268 0.41731417 561 0 0 0 7.8023
-6.3497038 5.1136789 0.10790466 3504 0 0 0 10.52704
-13.901869 5.7144804 0.18399368 244 0 0 0 5.8526001
-9.5349989 5.9647408 0.14078058 483 0 0 0 8.5737104
24.684973 5.550426 0.13566872 76 0 0 0 46.061367
-13.687486 6.0197549 0.18235093 456 0 0 0 6.2401199
-13.447478 6.3090029 0.18047565 550 0 0 0 6.62886
-9.1962137 6.068964 0.27349448 967 0 0 0 8.9708595
20.961729 6.3730569 0.12048945 80 0 0 0 44.892048
23.161524 6.4211936 0.12939206 78 0 0 0 45.292679
25.174273 6.3146811 0.13759761 94 0 0 0 45.675247
-13.113703 6.7466078 0.17804781 505.5 0 0 0 7.2105303
7.305151 6.8568497 0.20086104 884.75 0 0 0 37.669575
8.7524452 6.7145357 0.078191809 483.5 0 0 0 39.229279
21.010248 6.9571924 0.12095239 263 0 0 0 44.506062
-12.67178 7.3205352 0.17501062 466.5 0 0 0 7.9936447
-4.1124506 7.0647779 0.29814065 845.66669 0 0 0 16.38629
8.7339945 7.4098978 0.36766288 440.5 0 0 0 38.451866
9.2481499 7.2734766 0.37628016 497 0 0 0 39.032833
8.7575359 7.6212449 0.081213474 300 0 0 0 38.256248
9.3979073 7.7754126 0.083277799 141 0 0 0 38.647488
21.312901 7.6441069 0.12258326 188 0 0 0 44.11758
-11.899477 8.302001 0.17017053 544 0 0 0 9.3646297
-10.388049 8.0185242 0.15498756 731 0 0 0 10.14115
-8.2702503 8.158453 0.27940643 823.5 0 0 0 12.08796
-6.1852903 8.4030533 0.24855793 630.5 0 0 0 14.63122
8.2717285 8.3494005 0.23035628 377 0 0 0 37.078999
21.569038 8.3403769 0.12435839 122 0 0 0 43.724808
-11.682849 8.5817814 0.16894349 411 0 0 0 9.7448997
-9.8850403 8.6409245 0.15240735 620.5 0 0 0 11.114155
-5.8048143 8.754406 0.24818954 872.75 0 0 0 15.416285
-9.5810032 9.0145111 0.15097311 672 0 0 0 11.69598
-7.1763887 9.0540009 0.27291059 284.5 0 0 0 14.03438
8.2403069 9.1784296 0.24153256 113.5 0 0 0 36.303608
8.827795 9.3534336 0.24920127 104.5 0 0 0 36.693394
21.983826 9.1281958 0.12690191 29 0 0 0 43.34042
-9.2189655 9.5677528 0.31503147 496.5 0 0 0 12.47582
-8.9920187 9.7975817 0.14874336 511 0 0 0 12.8613
-8.2076569 9.8675575 0.30089813 226.5 0 0 0 13.64577
-2.4944804 9.5358381 0.10058258 166 0 0 0 20.680799
-8.7810106 10.050132 0.14793891 579 0 0 0 13.26219
5.3934035 10.254153 0.088268682 26 0 0 0 32.391979
5.6947699 10.205986 0.088231206 127 0 0 0 32.778301
6.2011352 10.29115 0.29029697 127.66666 0 0 0 33.301006
15.258121 10.240862 0.10666648 332 0 0 0 40.204632
6.6378722 10.61657 0.091084398 71 0 0 0 33.564114
9.2850666 10.853968 0.27252775 320.5 0 0 0 35.904919
22.464039 10.651034 0.1309647 107 0 0 0 42.55217
24.151051 10.728706 0.13705011 6 0 0 0 42.944721
-3.832402 11.279655 0.11781181 374 0 0 0 19.503229
22.612589 11.410748 0.13285553 108 0 0 0 42.165512
-7.2792325 11.963416 0.14434065 516 0 0 0 15.99856
22.99386 12.321122 0.13593154 131 0 0 0 41.766609
-5.4294066 12.851386 0.13611469 348 0 0 0 18.330589
5.9682174 12.795023 0.454595 43 0 0 0 31.61339
6.3291306 12.745855 0.10133455 45 0 0 0 32.002048
6.6700439 12.631947 0.4583028 20 0 0 0 32.391979
7.0096312 12.516935 0.45952934 42 0 0 0 32.778301
