# .PCD v0.7 - Point Cloud Data file format
VERSION 0.7
FIELDS x y z intensity normal_x normal_y normal_z curvature
SIZE 4 4 4 4 4 4 4 4
TYPE F F F F F F F F
COUNT 1 1 1 1 1 1 1 1
WIDTH 922
HEIGHT 1
VIEWPOINT 0 0 0 1 0 0 0
POINTS 922
DATA ascii
-23.72213 -9.9082527 -0.4181006 75 0 0 0 93.454079
-4.9037585 -9.7815914 -0.28860936 473 0 0 0 82.105682
-2.2241054 -9.9348831 -0.26505563 456.5 0 0 0 78.192093
-0.23617595 -9.5669508 -0.1305995 435.33334 0 0 0 75.059944
-1.3671758 -9.2445736 -0.12678614 360 0 0 0 77.019638
-0.11545693 -9.1089888 -0.34496897 399 0 0 0 74.860931
0.454014 -9.3363113 -0.12662321 568 0 0 0 73.881073
0.79237938 -9.2752142 -0.12594566 656 0 0 0 73.296646
1.2399874 -9.1879101 -0.12526698 679.5 0 0 0 72.514389
1.7019223 -9.1981506 -0.12670594 501 0 0 0 71.734253
2.2542002 -9.0521669 -0.12628216 548.33331 0 0 0 70.751587
3.4793856 -9.0715961 -0.13305567 490 0 0 0 68.795769
3.7147813 -9.0194912 -0.13374747 505 0 0 0 68.406799
-1.635605 -8.805666 -0.33874917 307.5 0 0 0 77.608688
-1.1913295 -8.7981005 -0.22617339 400 0 0 0 76.824661
-0.76357377 -8.8734894 -0.11905767 481 0 0 0 76.036041
0.28626478 -8.8746119 -0.26394078 431.66666 0 0 0 74.14489
0.75666738 -8.8789539 -0.33658865 347 0 0 0 73.296646
1.1927617 -8.8543377 -0.33754897 660.5 0 0 0 72.514389
1.7388748 -8.8047323 -0.33929625 628 0 0 0 71.538414
2.2561002 -8.6213055 -0.33662617 562 0 0 0 70.554024
2.7081521 -8.6003008 -0.23086788 518.5 0 0 0 69.774277
3.1310635 -8.580884 -0.27256617 541 0 0 0 69.053627
3.5568881 -8.6414318 -0.35486731 454 0 0 0 68.406799
4.0124207 -8.5368872 -0.358623 571 0 0 0 67.620605
-21.1129 -8.2181215 -0.36422235 163 0 0 0 93.851318
-1.0408032 -8.4503489 -0.3200973 444 0 0 0 76.629684
-0.72213656 -8.3832521 -0.31589186 401 0 0 0 76.036041
-0.40807676 -8.2735596 -0.31035134 386 0 0 0 75.457985
4.3518667 -8.4398603 -0.36135256 627.5 0 0 0 67.036995
4.7404056 -8.4203978 -0.36839834 607 0 0 0 66.455391
-20.959251 -7.5725098 -0.35773861 118 0 0 0 94.243752
0.19126171 -7.9789953 -0.49284557 533 0 0 0 74.276787
1.9163396 -7.7060833 -0.49019143 262 0 0 0 70.751251
14.157799 -7.6252885 -0.25069523 377 0 0 0 57.440918
14.936491 -7.5777817 -0.26290873 292 0 0 0 57.043072
-22.866728 -7.0149956 -0.38675231 27 0 0 0 95.024643
-21.929829 -7.3204751 -0.3725563 145 0 0 0 94.637154
3.2194047 -7.0728168 -0.099221967 2516 0 0 0 67.819641
3.7364209 -7.0322509 -0.10265661 223 0 0 0 66.843132
10.498495 -6.3429513 -0.48238632 241 0 0 0 58.221779
26.585873 -6.0588374 -0.45248961 65 0 0 0 53.132088
2.440511 -5.2013578 -0.34470889 426 0 0 0 67.620605
3.2150264 -5.2604771 -0.37284559 429.5 0 0 0 65.859772
8.3552551 -5.0489092 -0.13774149 886 0 0 0 58.221779
8.8974037 -5.083293 -0.27199882 665.5 0 0 0 57.826859
2.3033116 -4.9102521 -0.45737836 511 0 0 0 67.620605
2.9277673 -4.9232311 -0.1338869 959.5 0 0 0 66.056755
3.252192 -4.8712792 -0.19179599 818.75 0 0 0 65.225861
3.7631814 -4.8572845 -0.22176443 1047.1111 0 0 0 64.098694
4.2435493 -4.8358512 -0.2349 1055.5 0 0 0 63.119583
4.6680651 -4.820199 -0.16371052 1073.5 0 0 0 62.337406
5.1829314 -4.850934 -0.17499891 1129.75 0 0 0 61.553806
5.7449784 -4.8703818 -0.1883027 1059.75 0 0 0 60.766907
6.2099857 -4.8850031 -0.19984086 721 0 0 0 60.172859
6.7158294 -4.8913956 -0.21313515 904.5 0 0 0 59.593506
7.3180652 -4.9298782 -0.23002261 860.5 0 0 0 59.00058
7.7454548 -4.9445176 -0.12736484 665 0 0 0 58.6134
10.452538 -4.9882655 -0.17097539 574 0 0 0 56.648727
10.951778 -4.8999829 -0.17861453 662 0 0 0 56.264313
11.509016 -4.8136106 -0.1873585 571 0 0 0 55.866798
12.091678 -4.7117739 -0.19654945 630 0 0 0 55.487339
12.743714 -4.6085081 -0.20696971 541 0 0 0 55.093071
13.431754 -4.4874854 -0.21793027 383 0 0 0 54.699242
14.241632 -4.3722854 -0.23112778 340 0 0 0 54.305832
15.322182 -4.2950959 -0.24929848 323 0 0 0 53.9226
16.561972 -4.2067432 -0.27030706 241 0 0 0 53.527802
-3.197855 -3.6158564 -0.22465624 284.16666 0 0 0 86.280273
19.214741 -3.8875663 -0.31519026 181 0 0 0 52.745167
-3.290194 -3.3323648 -0.20288339 445 0 0 0 87.164276
23.973783 -3.0365756 -0.39623338 114 0 0 0 51.56918
29.109968 -2.2434585 -0.4854596 8 0 0 0 50.793633
-19.4835 -0.067650035 -0.30852294 278 0 0 0 99.690781
-19.32976 0.66098529 -0.2883321 266 0 0 0 0
-20.950258 1.228137 -0.31595278 172 0 0 0 0.39030001
5.4117126 3.4242094 -0.2326812 874 0 0 0 40.628639
5.6643338 3.2540855 -0.2613602 639.14288 0 0 0 41.302338
5.3550491 3.6249738 -0.19471706 760.5 0 0 0 40.145386
-11.27324 4.1166387 -0.45520514 177 0 0 0 5.0717502
-10.716869 4.3599777 -0.43777248 199.5 0 0 0 5.6617098
-6.3464837 4.4880438 -0.47101822 38 0 0 0 9.3722897
-1.6123222 4.3842082 -0.49988329 149 0 0 0 19.132019
-1.1832886 4.4845152 -0.38320693 106 0 0 0 20.642437
-0.93373698 4.4773235 -0.43362996 63.5 0 0 0 21.477341
15.482106 4.23281 -0.24593273 308 0 0 0 45.325741
-10.219616 4.5993457 -0.42314166 203 0 0 0 6.2420001
-6.1672916 4.5893512 -0.46564832 128 0 0 0 9.7573299
-5.7672992 4.7395539 -0.45160055 141.33333 0 0 0 10.53852
-5.2723322 4.8971686 -0.43445206 145 0 0 0 11.515005
-4.9649043 4.9598908 -0.4230687 170 0 0 0 12.09173
-3.7079203 4.6017933 -0.49548101 201.5 0 0 0 13.86058
-3.2763071 4.732214 -0.48251116 173.75 0 0 0 15.036455
-2.8979409 4.9194508 -0.47888476 432 0 0 0 16.198425
-2.1754119 4.8258424 -0.44183201 129 0 0 0 17.959471
-1.7833132 4.7480798 -0.3239238 208.44444 0 0 0 19.005178
-1.2834581 4.6014619 -0.21087806 193.57143 0 0 0 20.420197
-0.72732741 4.6275272 -0.36550447 83.818184 0 0 0 22.255201
-0.25046977 4.5814905 -0.38714048 100.78571 0 0 0 23.876226
0.24277462 4.6584663 -0.37582257 108.18182 0 0 0 25.562878
0.72918421 4.6986976 -0.32548952 151.5 0 0 0 27.174448
1.2475133 4.8318558 -0.30647385 191.77777 0 0 0 28.723158
1.7851503 4.8835325 -0.37204033 321.25 0 0 0 30.266846
2.2841506 4.9225144 -0.34006777 426.625 0 0 0 31.586449
2.7868314 4.9236541 -0.35575843 485.625 0 0 0 32.852142
3.1850357 4.9699502 -0.40269792 345 0 0 0 33.712559
4.0899506 4.9988046 -0.39142883 285 0 0 0 35.538601
-4.6821189 5.0291638 -0.41382229 200 0 0 0 12.683331
-4.2276306 5.1304493 -0.39978328 252.33333 0 0 0 13.664543
-3.7180197 5.2469931 -0.38621426 266.66666 0 0 0 14.840297
-3.2472651 5.3742566 -0.37676796 344 0 0 0 16.007261
-2.7479045 5.1824164 -0.44247696 237 0 0 0 16.920099
-2.3142264 5.1449828 -0.38129196 375.66666 0 0 0 17.96138
-1.6902626 5.4555469 -0.20146713 132 0 0 0 19.916985
-1.0825016 5.2602191 -0.18728408 252 0 0 0 21.477341
-0.723221 5.1176782 -0.12451906 337.57144 0 0 0 22.478689
-0.22670874 5.1921 -0.11598398 416.125 0 0 0 24.015949
0.28626826 5.2361255 -0.13783556 277.66666 0 0 0 25.580711
0.82599908 5.1981301 -0.13769948 246.66667 0 0 0 27.208649
1.3021685 5.3340683 -0.10067529 345.16666 0 0 0 28.506895
1.7434055 5.1612344 -0.15572301 364.75 0 0 0 29.876492
2.0774217 5.082263 -0.19239894 338 0 0 0 30.85075
2.6869166 5.0719705 -0.15568414 434.66666 0 0 0 32.412914
3.3549864 5.2333646 -0.16943991 546.66669 0 0 0 33.712555
3.8237953 5.1407118 -0.24857633 621.125 0 0 0 34.808632
4.3562346 5.1875997 -0.24677651 843 0 0 0 35.738422
4.7776103 5.1486974 -0.25371745 654.5 0 0 0 36.524441
5.3032327 5.1740203 -0.27231672 970.33331 0 0 0 37.30592
5.7716031 5.1629043 -0.33425832 704.75 0 0 0 37.994854
6.1926455 5.2020426 -0.201958 529.25 0 0 0 38.479218
6.7622633 5.2661161 -0.21702737 661.5 0 0 0 39.070889
7.1386366 5.2804871 -0.22573529 491 0 0 0 39.46516
7.7021403 5.405828 -0.35738504 331 0 0 0 39.846447
10.349047 5.4981456 -0.45492604 144 0 0 0 41.803181
-7.7818131 5.5179267 -0.35623512 158 0 0 0 9.3722897
-7.3261347 5.6037569 -0.34353858 219.5 0 0 0 9.9538555
-6.7274227 5.6819878 -0.32670254 132 0 0 0 10.73259
-6.1790981 5.7542295 -0.31214696 128 0 0 0 11.515005
-5.6915522 5.8396378 -0.30062768 190.5 0 0 0 12.290055
-5.2084823 5.8889933 -0.28893989 203 0 0 0 13.075375
-4.7659845 5.9463453 -0.27938071 311.5 0 0 0 13.86058
-4.3370037 5.9839001 -0.27026212 195 0 0 0 14.644395
-2.7488256 5.5742974 -0.37305075 253 0 0 0 17.370514
-2.4607954 5.8750172 -0.22871764 207 0 0 0 18.359819
-1.2577579 5.7738628 -0.066138998 265 0 0 0 21.28093
-0.86372459 5.5880103 -0.061632577 469 0 0 0 22.252951
0.10115964 5.5204911 -0.058986552 478 0 0 0 24.99235
0.64741236 5.5158863 -0.059448455 373.33334 0 0 0 26.555891
1.8777349 5.537993 -0.064167202 634.5 0 0 0 29.87598
2.2731333 5.5449042 -0.066556089 514 0 0 0 30.853415
2.7967997 5.5964341 -0.070931293 560.33331 0 0 0 32.022533
3.3148525 5.5613937 -0.074500918 551 0 0 0 33.190819
3.8070369 5.5689788 -0.079031259 452.5 0 0 0 34.17416
4.7379756 5.5009151 -0.088027589 577 0 0 0 35.93824
10.860373 5.7706442 -0.17772271 214 0 0 0 41.803181
11.581579 5.7919698 -0.18928319 251 0 0 0 42.198406
12.394247 5.8206825 -0.20248725 375 0 0 0 42.588753
14.457672 5.9383826 -0.23681141 185 0 0 0 43.375721
25.610321 5.6597486 -0.42593247 56 0 0 0 46.10519
-15.555369 6.1248903 -0.24429791 202 0 0 0 5.4653201
-4.0337715 6.0159125 -0.26440278 189 0 0 0 15.2321
-3.7414837 6.043766 -0.25899112 318 0 0 0 15.815386
-3.2715733 6.0795217 -0.25078365 273.66666 0 0 0 16.786417
-2.8556123 6.1842499 -0.24714521 172 0 0 0 17.762161
-2.2473636 6.4591656 -0.082381189 459 0 0 0 19.327465
-1.638545 6.0993333 -0.073246822 582.5 0 0 0 20.504879
13.660865 6.0083528 -0.22419603 203 0 0 0 42.97504
16.406206 6.2700205 -0.27087337 106 0 0 0 43.75774
17.86574 6.3282499 -0.29551637 168 0 0 0 44.144127
19.792555 6.4669681 -0.32859188 56 0 0 0 44.54126
21.17066 6.3457603 -0.35141614 77 0 0 0 44.93182
-17.790092 6.5129766 -0.28160137 173 0 0 0 5.0717502
-15.560335 6.5696959 -0.24756338 60 0 0 0 5.8580999
-14.868949 6.7080383 -0.23812266 81 0 0 0 6.2420001
-4.2006698 6.9934654 -0.10499986 307 0 0 0 16.00584
-3.7278566 6.9448886 -0.10036829 210 0 0 0 16.786417
-3.18332 6.9099102 -0.095704958 173.5 0 0 0 17.762161
-2.7955561 6.9404955 -0.093574762 204 0 0 0 18.55406
-10.155006 7.2180834 -0.17513391 75 0 0 0 9.3722897
-9.795929 7.3274488 -0.17156813 148 0 0 0 9.7573299
-8.2834759 7.3665962 -0.15288576 188 0 0 0 11.12421
-7.731297 7.3989978 -0.14667778 193 0 0 0 11.70644
-7.3838954 7.4178653 -0.14289959 194 0 0 0 12.09173
-6.7844124 7.3259802 -0.13499144 193.5 0 0 0 12.683331
-6.1911569 7.1946754 -0.12683235 294 0 0 0 13.27247
-5.7116218 7.1448126 -0.1212416 242 0 0 0 13.86058
-5.2789979 7.1216974 -0.11669162 213 0 0 0 14.45083
-4.8377209 7.0459557 -0.11149226 187.5 0 0 0 15.03503
-4.4414873 7.0034533 -0.10725376 284 0 0 0 15.62493
28.460329 7.0249481 -0.47939011 19 0 0 0 45.71772
-24.759346 -41.445606 0.36870402 11 0 0 0 83.274719
-24.678104 -39.103493 0.35441968 27 0 0 0 83.663124
-21.910591 -29.653406 0.28936142 18 0 0 0 84.836929
-54.797134 -29.48015 0.45797604 8 0 0 0 91.883919
-23.400656 -28.625109 0.28967342 22 0 0 0 85.62291
-22.469873 -28.902506 0.28737953 41 0 0 0 85.225571
-54.93198 -27.840248 0.45342559 5 0 0 0 92.265686
-6.0362639 -26.963957 0.22825843 7 0 0 0 78.192093
-28.907227 -26.31905 0.30300179 12 0 0 0 87.971519
-53.979794 -24.112926 0.43634492 8 0 0 0 93.056992
-28.657383 -23.633278 0.28935528 21 0 0 0 88.75425
-53.86869 -22.497658 0.43113917 18 0 0 0 93.454079
-28.332798 -22.22331 0.28144506 16 0 0 0 89.149399
-31.165878 -18.795696 0.28329104 12 0 0 0 91.111229
-22.733385 -16.95212 0.22925603 57 0 0 0 89.547081
-22.626003 -16.025455 0.22484048 74 0 0 0 89.938354
-23.275013 -15.643454 0.22687709 81 0 0 0 90.333565
-52.800346 -14.792535 0.40652168 11 0 0 0 95.409683
-22.321867 -14.222647 0.21607041 93 0 0 0 90.725456
-24.38821 -13.908294 0.22676359 126 0 0 0 91.507202
-0.9192425 -12.472632 0.43522832 346 0 0 0 75.842194
-2.2029424 -11.119833 0.11498963 107 0 0 0 77.805023
-1.9270006 -11.149828 0.11488548 142 0 0 0 77.412354
-1.1037292 -11.23667 0.25594598 816.5 0 0 0 76.229889
-0.54576033 -11.101804 0.39081213 323 0 0 0 75.457985
-1.5682037 -10.614063 0.1108435 358 0 0 0 77.019638
-0.78422236 -10.667788 0.11071615 472 0 0 0 75.842194
-0.25977647 -10.520319 0.37193587 560 0 0 0 75.054832
-1.2789766 -10.410142 0.10919955 287 0 0 0 76.629684
-0.50198603 -10.248338 0.10770217 648 0 0 0 75.457985
-0.083526105 -10.182929 0.19416821 619 0 0 0 74.796295
0.3715986 -10.229568 0.36284387 632 0 0 0 74.078934
0.73349571 -10.024743 0.35694656 452 0 0 0 73.494247
-4.9211278 -9.8225327 0.11205317 547 0 0 0 82.105682
0.36137182 -9.889719 0.10524668 591.5 0 0 0 74.078934
0.8349669 -9.7435322 0.22790062 736 0 0 0 73.296646
1.9125847 -9.6734896 0.35093313 617 0 0 0 71.543503
2.314476 -9.80194 0.35771477 549.5 0 0 0 70.94899
2.6919632 -9.7831383 0.36011344 782 0 0 0 70.356796
3.2334459 -9.8424196 0.3669461 222 0 0 0 69.576225
3.6345787 -9.8306332 0.37084913 497.5 0 0 0 68.989166
4.0083637 -9.73036 0.37218988 757 0 0 0 68.406799
0.92893738 -9.4849291 0.10272568 683 0 0 0 73.099045
1.254723 -9.2995872 0.21844149 569.25 0 0 0 72.514389
1.6847473 -9.3113451 0.18114908 550.66669 0 0 0 71.797844
2.2061872 -9.3342495 0.10321124 675.5 0 0 0 70.94899
2.7179391 -9.4189816 0.1047001 377 0 0 0 70.164566
3.2097797 -9.3747873 0.10543686 485.5 0 0 0 69.379395
3.7300639 -9.3738413 0.1066822 476.5 0 0 0 68.601288
-21.126387 -8.2276554 0.18973166 170 0 0 0 93.851318
2.5057395 -8.310626 0.31322345 317 0 0 0 69.972328
-20.968241 -7.5799403 0.18714108 117 0 0 0 94.243752
-22.870457 -7.0205665 0.19803576 30 0 0 0 95.024643
-21.952333 -7.3322926 0.19281992 141 0 0 0 94.637154
3.3204215 -7.0640907 0.28391349 811 0 0 0 67.620605
3.6533971 -7.0425658 0.32725018 995.79999 0 0 0 66.998322
3.9319806 -6.9823217 0.092057645 900 0 0 0 66.455391
5.7191648 -6.8390121 0.32013714 1169.5 0 0 0 63.516075
6.2620583 -6.7830534 0.32989544 496.5 0 0 0 62.727112
6.8419762 -6.7183647 0.34093419 464 0 0 0 61.945755
7.3074098 -6.6673083 0.35028332 503 0 0 0 61.357471
7.8839641 -6.6212106 0.27652106 301.33334 0 0 0 60.701691
8.3590565 -6.5674582 0.24033338 99.5 0 0 0 60.172859
8.7679701 -6.5483818 0.38291904 81 0 0 0 59.785912
8.7019253 -6.4968519 0.10905524 44 0 0 0 59.785912
9.1218443 -6.4702129 0.39034075 116 0 0 0 59.4011
9.7883072 -6.4124613 0.40648234 69 0 0 0 58.806992
10.49434 -6.3378568 0.42380998 778 0 0 0 58.221779
11.529844 -6.2109823 0.28638977 55 0 0 0 57.440918
12.193484 -6.1871018 0.29732221 47.5 0 0 0 57.043072
2.8594933 -5.085784 0.22225201 470 0 0 0 66.455391
7.4368353 -5.0067639 0.095967501 1096 0 0 0 59.00058
8.8089495 -5.0298018 0.10330348 895 0 0 0 57.826859
22.110153 -5.0359607 0.18421373 14 0 0 0 53.132088
2.8502436 -4.8813691 0.33142704 684.83331 0 0 0 66.189636
3.2034686 -4.8645101 0.17968939 569 0 0 0 65.329887
3.7177444 -4.8453226 0.13912828 958.20001 0 0 0 64.175682
4.3018265 -4.8988857 0.080937847 1133 0 0 0 63.119579
4.7102118 -4.8615932 0.082391322 1074 0 0 0 62.337402
5.2593627 -4.7988906 0.084448136 764 0 0 0 61.356724
6.8430958 -4.8559651 0.092285022 578 0 0 0 59.4011
7.7887192 -4.970118 0.097633936 947 0 0 0 58.6134
8.2313652 -4.9722695 0.099976838 617 0 0 0 58.221779
8.7430811 -4.9942956 0.35437009 906 0 0 0 57.826859
10.414469 -4.9690075 0.25597182 442.5 0 0 0 56.648727
10.912777 -4.8814178 0.26360935 654.5 0 0 0 56.264313
11.439647 -4.784658 0.42710522 622 0 0 0 55.866798
11.519757 -4.8157268 0.11780769 557 0 0 0 55.866798
12.066671 -4.7008386 0.28218889 531.5 0 0 0 55.487339
12.69162 -4.5884647 0.2921451 474 0 0 0 55.093071
13.47899 -4.5006399 0.12875202 299 0 0 0 54.699242
13.856761 -4.6292391 0.49644369 253 0 0 0 54.699242
14.257754 -4.3745365 0.13334692 255 0 0 0 54.305832
15.307716 -4.2882161 0.13979204 320 0 0 0 53.9226
16.511679 -4.1909904 0.14727589 232 0 0 0 53.527802
-3.2405274 -3.6827371 0.22651593 482 0 0 0 86.243217
19.187675 -3.8787229 0.16407323 179 0 0 0 52.745167
20.980009 -3.7074156 0.17554054 113 0 0 0 52.355621
-3.3243012 -3.385587 0.22150132 489 0 0 0 87.121086
22.703278 -3.4396465 0.18659291 104 0 0 0 51.967499
23.928989 -3.0268581 0.19442677 127 0 0 0 51.56918
28.948835 -2.2262459 0.22740348 48 0 0 0 50.793633
34.023159 -1.7783209 0.26106918 13 0 0 0 50.406471
-49.642376 -1.3986892 0.37139297 49 0 0 0 99.30584
43.797989 -1.2134297 0.3261112 36 0 0 0 50.008953
-19.486095 -0.071158201 0.16805917 305 0 0 0 99.690781
53.513744 -0.17040402 0.3912203 20 0 0 0 49.614479
-19.354048 0.65865326 0.18148068 327 0 0 0 0
50.186127 1.0707498 0.37012076 19 0 0 0 49.226151
5.3963242 3.4154437 0.24114697 831 0 0 0 40.628639
5.5587687 3.3284867 0.24423392 911.33331 0 0 0 41.020741
49.436909 3.4844029 0.36786646 11 0 0 0 48.443279
5.3074365 3.6417625 0.24232692 868 0 0 0 40.045738
25.87006 3.7523155 0.21290906 68 0 0 0 47.277473
15.446803 4.22577 0.14665614 342 0 0 0 45.325741
-0.69130635 4.9480367 0.29706588 333.16666 0 0 0 22.512636
-1.1510683 5.3742652 0.23260486 304 0 0 0 21.346399
-0.75600666 5.0396471 0.27615082 280 0 0 0 22.355112
-0.28888839 5.1497397 0.28104132 326.90909 0 0 0 23.821863
0.36567718 5.4272642 0.2771149 243.75 0 0 0 25.77457
5.1827111 5.3158507 0.090742677 542.5 0 0 0 36.914177
5.5007796 5.2389579 0.091784649 459 0 0 0 37.503979
6.3081546 5.4361978 0.096808501 266 0 0 0 38.282871
6.6250143 5.2934947 0.097668529 761 0 0 0 38.87323
-1.3118455 5.6936307 0.36415929 504 0 0 0 21.08452
-0.75947034 5.867445 0.077780157 206 0 0 0 22.645424
-0.17461963 5.8647766 0.077821612 395 0 0 0 24.207935
0.18782343 5.9727678 0.078844413 596 0 0 0 25.189991
0.76609898 5.8713713 0.078765616 489.25 0 0 0 26.752745
1.2759744 5.8135705 0.079249412 456.33334 0 0 0 28.11557
1.7402658 5.8261409 0.080421306 446.33334 0 0 0 29.289
2.2396069 5.8667321 0.082115054 521 0 0 0 30.461878
2.6161795 5.9532642 0.083899699 512 0 0 0 31.24482
7.9390969 5.8710814 0.10747326 444 0 0 0 39.46516
11.940169 5.9728479 0.13062961 539 0 0 0 42.198406
12.545263 5.8936963 0.13394494 334 0 0 0 42.588753
25.490746 5.637557 0.21477441 30 0 0 0 46.10519
-16.048983 6.3175855 0.16555779 2588 0 0 0 5.4653201
-1.5602584 6.108099 0.23573709 780 0 0 0 20.6987
0.23804259 6.4804826 0.29703879 701.33331 0 0 0 25.255869
0.74593097 6.2789531 0.23930518 639 0 0 0 26.555891
1.1991383 6.1613545 0.23818295 603.66669 0 0 0 27.726868
1.7005316 6.231081 0.24441199 507.66666 0 0 0 28.898224
2.2239437 6.2709193 0.25105271 531.33331 0 0 0 30.07221
2.7685201 6.2941031 0.20298456 524 0 0 0 31.244619
3.2295706 6.0735774 0.086909197 532 0 0 0 32.412914
3.7472782 6.1040936 0.08918193 534.5 0 0 0 33.386131
4.2040014 6.1427689 0.09140522 643 0 0 0 34.17416
4.7624764 6.1087995 0.093712419 615 0 0 0 35.148647
5.2658978 6.108418 0.095829211 775 0 0 0 35.93824
5.5791454 6.1562238 0.097474739 569 0 0 0 36.328392
6.7061739 6.0692778 0.10221315 485 0 0 0 37.898849
10.878789 6.1299057 0.12504417 317 0 0 0 41.416992
11.660753 6.1962852 0.1298762 253 0 0 0 41.803181
15.288658 6.2813311 0.15206864 269 0 0 0 43.375721
18.107473 6.4168062 0.17006841 127 0 0 0 44.144127
-18.123453 6.632524 0.18132389 168 0 0 0 5.0717502
-1.8818089 6.7091842 0.25531289 759 0 0 0 20.31106
-0.027088732 6.6004963 0.24751687 709 0 0 0 24.599609
0.7306844 6.8065128 0.4234131 795 0 0 0 26.36223
1.176766 6.9041214 0.43284413 556.66669 0 0 0 27.337408
1.7051882 6.883152 0.43830833 420 0 0 0 28.50564
3.220438 6.698503 0.33959255 635.33331 0 0 0 31.765905
3.7143574 6.5748467 0.28087044 596.33331 0 0 0 32.802811
4.2403889 6.5289335 0.28865546 577 0 0 0 33.778114
4.7206802 6.5361233 0.29783314 620 0 0 0 34.567337
5.29807 6.6181803 0.31128994 765 0 0 0 35.342392
5.722888 6.630219 0.32015678 655 0 0 0 35.93824
6.1704149 6.6327858 0.32968009 724 0 0 0 36.524441
6.7855191 6.6061363 0.3426407 543.5 0 0 0 37.30592
7.3303785 6.6270266 0.35564649 582 0 0 0 37.898849
7.7417574 6.6584353 0.36608449 612 0 0 0 38.282871
8.1915359 6.7000523 0.37786022 768 0 0 0 38.675568
8.7443438 6.7980828 0.39354703 460 0 0 0 39.070889
9.2478514 6.8297219 0.40686354 441 0 0 0 39.46516
15.113245 6.647655 0.15229221 132 0 0 0 42.97504
18.00045 6.8807111 0.17089254 119 0 0 0 43.75774
20.766666 6.7880483 0.18799214 55 0 0 0 44.54126
22.544273 6.760386 0.19923149 43 0 0 0 44.93182
-2.2549019 7.3663607 0.089804336 391 0 0 0 19.92086
2.2197361 7.0595474 0.4562076 649 0 0 0 29.485544
2.761255 7.189383 0.47376195 623.66669 0 0 0 30.461878
3.1252537 7.0803127 0.47614104 763 0 0 0 31.24482
3.6891336 7.1271725 0.49279168 575.5 0 0 0 32.214653
4.0057645 7.0851564 0.4994396 519 0 0 0 32.809429
-17.847687 7.5379767 0.18122472 113 0 0 0 5.8580999
-17.205563 7.7655973 0.17712642 78 0 0 0 6.2420001
-3.0890055 7.9754667 0.095600069 143 0 0 0 18.748301
-2.7591796 7.9784818 0.09489096 237 0 0 0 19.327465
-4.1969466 8.3315268 0.10096546 178 0 0 0 17.17618
-3.7533083 8.1758385 0.098645762 242 0 0 0 17.762161
-3.3504801 8.0634193 0.096822605 234 0 0 0 18.359819
32.697018 8.0744133 0.26756811 33 0 0 0 45.71772
-4.7339821 8.6015873 0.10442296 58.5 0 0 0 16.591536
-5.9169674 9.3713522 0.11339832 113 0 0 0 15.62493
-5.407064 9.0392227 0.10947879 63 0 0 0 16.00584
-6.928009 9.8798637 0.12056084 143 0 0 0 14.83796
-6.4181628 9.6410589 0.11697825 145 0 0 0 15.2321
-8.9968948 10.497998 0.13413149 92 0 0 0 13.27247
-8.3175259 10.194153 0.12908411 120 0 0 0 13.66554
-7.8084531 10.058776 0.12580538 120 0 0 0 14.05562
-7.3835979 10.00416 0.12341246 130 0 0 0 14.45083
-10.263665 10.862755 0.14274392 65 0 0 0 12.48838
-9.6439152 10.716187 0.13865061 74 0 0 0 12.87828
-3.1796963 10.503493 0.38569742 125 0 0 0 19.92086
-3.7638292 11.440458 0.41975221 90 0 0 0 19.522909
-12.177842 11.699761 0.15738796 46 0 0 0 11.70644
-11.40459 11.501965 0.15206715 58 0 0 0 12.09173
-13.494574 12.352131 0.1679204 31 0 0 0 11.32357
-4.3015757 12.085608 0.44471103 57 0 0 0 19.132019
-14.743149 12.852856 0.17748028 51 0 0 0 10.92485
-28.901682 -61.289799 0.50433266 6 0 0 0 81.710327
-5.2935953 -26.670097 0.90384316 87 0 0 0 77.805023
-4.623539 -26.699219 0.90095377 51 0 0 0 77.412354
-3.9671078 -26.79163 0.90064502 73 0 0 0 77.019638
-3.3243153 -26.992874 0.90435362 74 0 0 0 76.629684
-22.791929 -16.989559 0.93953627 53 0 0 0 89.547081
-22.621981 -16.016699 0.91689873 80 0 0 0 89.938354
-23.302217 -15.655837 0.92807674 98 0 0 0 90.333565
-24.295261 -15.472863 0.95119023 83 0 0 0 90.725456
-1.1103903 -11.294286 0.67568618 467 0 0 0 76.229889
-0.54738468 -11.154655 0.80457377 332.5 0 0 0 75.457985
-0.27150497 -11.074027 0.93592513 182 0 0 0 75.054832
-0.13429207 -10.846502 0.64753926 477.5 0 0 0 74.860931
0.25848916 -10.686717 0.63864505 442 0 0 0 74.276787
0.60451609 -10.629798 0.7255311 469 0 0 0 73.752129
1.0424944 -10.659659 0.63988858 671 0 0 0 73.099045
1.831677 -10.608518 0.91078132 116 0 0 0 71.925011
2.3522804 -10.5263 0.91249806 447 0 0 0 71.146721
2.9336433 -10.651863 0.93391144 395 0 0 0 70.356796
3.1768651 -10.523232 0.9293679 523 0 0 0 69.972328
4.3665614 -10.59246 0.96728587 102 0 0 0 68.406799
1.7502714 -10.148812 0.61670458 557 0 0 0 71.925011
2.1446872 -10.187511 0.62311232 652.5 0 0 0 71.345108
2.6464207 -10.266166 0.72305727 572.66669 0 0 0 70.619766
3.2970123 -10.309769 0.73803443 501 0 0 0 69.70826
3.7718191 -10.329746 0.74830669 546.66669 0 0 0 69.053627
4.0998068 -10.308823 0.80148977 485.5 0 0 0 68.601288
1.2426594 -9.2039022 0.67504764 469 0 0 0 72.514389
-21.134424 -8.2265797 0.75626516 181 0 0 0 93.851318
-21.012123 -7.5916858 0.74552214 128 0 0 0 94.243752
-22.889351 -7.022049 0.79624075 15 0 0 0 95.024643
-21.844444 -7.2921147 0.76731342 84 0 0 0 94.637154
3.3344221 -7.0915356 0.76802951 636 0 0 0 67.620605
3.5406752 -7.0755672 0.77499521 674.5 0 0 0 67.23037
4.7357869 -6.944067 0.71771342 768.16669 0 0 0 65.080215
5.2075367 -6.885325 0.73589039 198.66667 0 0 0 64.291168
5.716105 -6.8337522 0.75834727 361 0 0 0 63.516071
6.2703314 -6.7909207 0.67143369 426.5 0 0 0 62.727112
6.8000278 -6.7314525 0.65358692 356 0 0 0 62.01096
7.2280293 -6.7006736 0.75353795 158.33333 0 0 0 61.488361
7.6653404 -6.6555138 0.73325157 108.5 0 0 0 60.962559
8.1558933 -6.5697365 0.75511009 890.25 0 0 0 60.372059
8.7512808 -6.5346971 0.78596902 81.5 0 0 0 59.785912
9.1508904 -6.4895091 0.80601823 177 0 0 0 59.4011
9.5757198 -6.443553 0.82820785 147.5 0 0 0 59.00058
10.052497 -6.4128537 0.70542794 52 0 0 0 58.6134
11.462776 -6.1761856 0.76641399 29 0 0 0 57.440918
12.255828 -6.2199864 0.80675828 52 0 0 0 57.043072
12.823155 -6.1168275 0.83253855 71 0 0 0 56.648727
14.290278 -5.9742208 0.90392721 61 0 0 0 55.866798
14.998532 -5.8420181 0.93773699 36 0 0 0 55.487339
16.031631 -5.7950692 0.990834 34 0 0 0 55.093071
2.6852908 -5.0597501 0.50125623 368 0 0 0 66.84362
8.7369232 -5.1340213 0.60478306 508.5 0 0 0 58.024319
19.342319 -5.4201183 0.66903657 21 0 0 0 53.9226
20.727232 -5.2631183 0.70999199 24 0 0 0 53.527802
22.296587 -5.082581 0.7568441 14 0 0 0 53.132088
2.4873867 -4.975111 0.89663404 168 0 0 0 67.23037
2.7022769 -4.8034101 0.75219297 418.66666 0 0 0 66.451927
3.1799126 -4.8749604 0.70152718 744.33331 0 0 0 65.404488
3.7728302 -4.8171864 0.92247123 1257.6 0 0 0 64.021255
4.2745743 -4.7467098 0.86696029 1363 0 0 0 62.924198
4.7459812 -4.6624556 0.90126854 1455.5 0 0 0 61.945755
5.1896486 -4.6214027 0.85390311 1449.5 0 0 0 61.160015
5.6672277 -4.5679369 0.8929252 1346.75 0 0 0 60.372059
6.0612369 -4.5300245 0.83360201 1193 0 0 0 59.785912
13.916767 -4.6492691 0.85796732 255 0 0 0 54.699242
6.3362947 -4.4973702 0.85493559 1336 0 0 0 59.4011
6.6504335 -4.4788146 0.88097245 1276 0 0 0 59.00058
7.1934023 -4.4659762 0.82536995 1065 0 0 0 58.417587
7.7668695 -4.436326 0.87021637 854.5 0 0 0 57.826859
8.1888666 -4.4140587 0.78976387 849 0 0 0 57.440918
8.6923695 -4.4132118 0.82574713 796 0 0 0 57.043072
9.2833338 -4.4295983 0.86914265 657 0 0 0 56.648727
9.942688 -4.4484878 0.78299737 348.5 0 0 0 56.264313
14.132271 -4.3388643 0.68303895 171.5 0 0 0 54.305832
-3.3140707 -3.5984747 0.6120016 346.75 0 0 0 86.606827
19.14847 -3.8744051 0.65201259 201 0 0 0 52.745167
23.82682 -3.0183771 0.79387832 183 0 0 0 51.56918
28.837973 -2.2230799 0.9493317 102 0 0 0 50.793633
-19.495745 -0.067884676 0.65537411 270 0 0 0 99.690781
-19.368294 0.6627028 0.66242594 295 0 0 0 0
5.4327965 3.4391947 0.71998769 754.33331 0 0 0 40.628639
5.2407146 3.6695609 0.7361182 749.875 0 0 0 39.900593
7.3233094 3.7456474 0.77560091 708.66669 0 0 0 42.066666
7.7987442 3.6717997 0.94992489 1107 0 0 0 42.588753
8.2301016 3.7084777 0.8460719 846 0 0 0 42.846279
8.9151545 3.6704531 0.8225739 781 0 0 0 43.375721
9.517911 3.6462519 0.86720657 664 0 0 0 43.75774
10.133862 3.7367933 0.78294253 523.5 0 0 0 43.950935
10.77132 3.8213222 0.6822933 412 0 0 0 44.144127
11.658636 3.8149173 0.72929865 407 0 0 0 44.54126
13.447945 4.0352201 0.82901609 251 0 0 0 44.93182
15.335487 4.1920466 0.73778129 479 0 0 0 45.325741
-0.6775775 5.1755414 0.58521265 527 0 0 0 22.644445
-0.35621637 5.1851559 0.58346176 456.5 0 0 0 23.625315
0.36481786 5.4274316 0.74417192 590 0 0 0 25.774572
-1.3472189 5.8522544 0.52201861 588 0 0 0 21.08452
-0.15685633 5.8087955 0.83121741 432.28571 0 0 0 24.265497
0.1864595 5.7056623 0.73598337 407.42856 0 0 0 25.218225
0.72386807 5.7027645 0.79747701 394.18182 0 0 0 26.69906
1.1015934 5.9450817 0.82400709 466 0 0 0 27.598236
25.224781 5.5737329 0.85854614 28 0 0 0 46.10519
-1.5723039 6.1555042 0.55011314 1098 0 0 0 20.6987
-1.1747272 6.1355705 0.69307983 684 0 0 0 21.672951
-0.33059123 6.0537353 0.77628994 454.66666 0 0 0 23.822784
0.1310413 6.4993463 0.56473595 224 0 0 0 24.99235
0.73877788 6.2229395 0.54664433 395 0 0 0 26.555367
1.4269588 6.4723191 0.90071326 459 0 0 0 28.111589
-18.1441 6.6441383 0.66121286 354 0 0 0 5.0717502
-1.8908851 6.7407742 0.60261697 139 0 0 0 20.31106
0.80431229 6.7299123 0.58818775 569 0 0 0 26.55694
4.6573229 6.9759073 0.51396054 569 0 0 0 33.974792
-18.070124 7.1218634 0.66421199 383 0 0 0 5.4653201
-0.20197059 7.2634873 0.8027007 206 0 0 0 24.21356
1.4353766 7.3187771 0.73489684 338.5 0 0 0 27.7257
1.6085796 7.2535553 0.73244697 183 0 0 0 28.111589
2.9767954 7.2218719 0.86475652 499 0 0 0 30.85075
3.1812661 7.052278 0.73176736 575 0 0 0 31.375977
4.3280993 7.0326543 0.50641525 648.5 0 0 0 33.386131
4.9587579 7.0428815 0.52692223 593 0 0 0 34.373528
5.2464485 7.0728297 0.53800297 529 0 0 0 34.76115
5.6989279 7.1127825 0.55555642 547 0 0 0 35.342392
6.3233976 7.1380301 0.57927293 557.5 0 0 0 36.133316
6.8144498 7.1425061 0.59808433 499 0 0 0 36.72049
7.2212505 7.2032266 0.61654615 588 0 0 0 37.107861
7.5826964 7.1989031 0.63091141 450 0 0 0 37.503979
8.1399031 7.353147 0.65988421 437 0 0 0 37.898849
8.6224604 7.4103165 0.68237752 569 0 0 0 38.282871
12.721184 7.1599669 0.505207 322 0 0 0 41.416992
14.049751 7.4567928 0.54685229 181 0 0 0 41.803181
19.305285 7.3738446 0.69729179 53 0 0 0 43.75774
3.2802336 7.9427557 0.73867708 621 0 0 0 30.85075
3.8919907 7.746839 0.74546468 512 0 0 0 32.02113
4.2207499 7.6777177 0.7532934 595.5 0 0 0 32.608803
4.6866298 7.6092086 0.767959 516 0 0 0 33.386131
5.2609453 7.6653404 0.79774129 443.5 0 0 0 34.17416
5.7080297 7.6906762 0.82083625 504 0 0 0 34.76115
6.2485499 7.7939806 0.85462004 488 0 0 0 35.342392
6.7634001 7.8258858 0.88330615 525 0 0 0 35.93824
7.1917691 7.9167747 0.91194689 435 0 0 0 36.328392
7.5870857 7.9481506 0.93568474 569 0 0 0 36.72049
9.2024364 7.5211792 0.71142101 388 0 0 0 38.675568
9.6861477 7.5255117 0.73280013 432 0 0 0 39.070889
10.210044 7.535965 0.75659519 352 0 0 0 39.46516
15.152882 7.5695796 0.57960171 178 0 0 0 42.198406
16.085646 7.5466013 0.60581005 184 0 0 0 42.588753
2.8480487 8.3120613 0.75398529 617.5 0 0 0 29.87598
3.084965 8.0241346 0.73874784 633 0 0 0 30.46467
8.0306568 8.0068846 0.96429485 488 0 0 0 37.107861
8.541007 8.1046171 0.99956393 575 0 0 0 37.503979
18.292019 8.0370874 0.67622149 148 0 0 0 42.97504
20.127575 8.2585154 0.73260206 82 0 0 0 43.375721
25.098381 8.882163 0.88715559 55 0 0 0 44.144127
27.331097 8.922987 0.95448577 67 0 0 0 44.54126
-0.0098302634 9.0982981 0.550062 576 0 0 0 24.599609
0.21389671 9.105979 0.55089498 550 0 0 0 24.99235
2.7378137 9.4541998 0.83979702 266.5 0 0 0 29.092625
99.530678 9.4674768 0.70759261 8 0 0 0 48.054138
2.4214969 9.6819077 0.85061234 161 0 0 0 28.50942
-16.80592 11.988934 0.70021188 345 0 0 0 9.3722897
96.066338 11.519886 0.68815047 5 0 0 0 47.672401
-15.734095 13.727493 0.70627975 25 0 0 0 10.92485
-5.2623324 13.743317 0.50494409 34 0 0 0 18.748301
-17.48168 14.522021 0.76619256 35 0 0 0 10.54033
-15.931325 14.6031 0.72940981 44 0 0 0 11.32357
-15.93889 15.345508 0.74552387 22 0 0 0 11.70644
-14.101332 15.720369 0.71188104 25 0 0 0 12.87828
-18.048565 18.261675 0.85924524 31 0 0 0 12.09173
-18.360502 19.513214 0.89464092 35 0 0 0 12.48838
-18.587471 22.921608 0.98015964 21 0 0 0 13.66554
-17.839785 23.133247 0.97000998 28 0 0 0 14.05562
-17.615318 24.038465 0.98825943 38 0 0 0 14.45083
-9.809988 24.003321 0.8631776 34 0 0 0 18.359819
-11.18804 25.5832 0.9267236 28 0 0 0 17.959471
-21.36083 -37.816734 1.4197668 5 0 0 0 82.891846
-24.194023 -36.321709 1.4257776 21 0 0 0 84.058784
-26.966618 -24.544676 1.1954752 8 0 0 0 87.971519
-28.65696 -23.624533 1.2166175 10 0 0 0 88.75425
-28.371021 -22.245285 1.1819167 25 0 0 0 89.149399
3.455683 -17.441027 1.4815195 79 0 0 0 71.543503
1.3652673 -13.925602 1.1732163 163 0 0 0 73.099045
0.97002602 -13.215046 1.2723134 259 0 0 0 73.494247
0.62030542 -12.695968 1.3773826 187 0 0 0 73.881073
-1.1827585 -12.050935 1.0197288 16 0 0 0 76.229889
-0.00083487504 -12.112738 1.1671712 164 0 0 0 74.66703
0.29840779 -12.240803 1.0309203 275 0 0 0 74.276787
-0.54057622 -11.055279 1.3394369 155.5 0 0 0 75.457985
-0.26823989 -10.940795 1.1906136 55 0 0 0 75.054832
0.26015997 -10.640743 1.2893071 209.5 0 0 0 74.276787
2.3518836 -10.515816 1.4378433 251 0 0 0 71.146721
2.6310811 -10.554768 1.1839557 190 0 0 0 70.751251
3.765363 -10.574019 1.2207195 119 0 0 0 69.182556
2.2044554 -10.456802 1.2944937 358.5 0 0 0 71.345108
2.559972 -10.262526 1.4120131 237 0 0 0 70.751251
4.1046276 -10.433305 1.4031268 143.66667 0 0 0 68.666115
0.85140646 -9.2674704 1.3044393 736.25 0 0 0 73.197845
1.1293931 -9.2009516 1.1280994 449 0 0 0 72.706512
-21.162889 -8.2376909 1.3134488 123 0 0 0 93.851318
-21.010199 -7.5910392 1.2926276 173 0 0 0 94.243752
-22.944939 -7.0391412 1.385955 16 0 0 0 95.024643
-21.85317 -7.2950773 1.331911 84 0 0 0 94.637154
3.258446 -7.2311916 1.1995894 59.333332 0 0 0 67.882668
3.5307212 -7.0526075 1.0620141 130 0 0 0 67.23037
3.1017513 -6.8087549 1.3792113 27 0 0 0 67.819641
4.3501716 -6.8167191 1.335566 50.5 0 0 0 65.565239
4.6878572 -6.930511 1.1932859 115.33334 0 0 0 65.144325
5.0861115 -6.8966465 1.1510367 128 0 0 0 64.485939
6.2878332 -6.8085632 1.0137329 261 0 0 0 62.727112
6.7197113 -6.7612877 1.0414122 275 0 0 0 62.141369
7.0280256 -6.7329659 1.0624084 206 0 0 0 61.750141
14.450142 -6.0379639 1.303789 15 0 0 0 55.866798
15.421313 -5.5717859 1.3630471 31 0 0 0 55.093071
3.1651316 -5.0319772 1.2492856 7 0 0 0 65.662796
19.187981 -5.3769956 1.1521957 35 0 0 0 53.9226
20.702154 -5.2568464 1.2324616 53 0 0 0 53.527802
22.150066 -5.049335 1.308688 17 0 0 0 53.132088
2.4085641 -4.7312121 1.2866247 454.5 0 0 0 67.1147
2.6705291 -4.7060962 1.139012 404.28571 0 0 0 66.396957
3.3990204 -4.8589191 1.2458029 1237.3334 0 0 0 64.887871
3.721204 -4.7985764 1.2754104 1221.1111 0 0 0 64.098709
4.2410359 -4.7303696 1.233081 1328.9091 0 0 0 62.959721
4.7623305 -4.6783013 1.2348471 1298.8334 0 0 0 61.945755
5.2221169 -4.6489415 1.2918587 1266.8334 0 0 0 61.160019
5.7268691 -4.6148891 1.2658675 1256 0 0 0 60.372059
6.2509432 -4.5733252 1.1968071 1129.8 0 0 0 59.631989
6.6810822 -4.5764995 1.2887113 994.33331 0 0 0 59.134083
7.255568 -4.54422 1.2194589 911.33331 0 0 0 58.482861
7.7618322 -4.5568113 1.3157589 890 0 0 0 58.024319
8.2332354 -4.5650373 1.3743105 821.5 0 0 0 57.633888
8.9665756 -4.5500369 1.3425407 697 0 0 0 57.043072
9.5467434 -4.5528774 1.4102179 610 0 0 0 56.648727
10.122617 -4.526649 1.3405641 559.5 0 0 0 56.264313
13.879783 -4.6342664 1.220422 185 0 0 0 54.699242
8.2581034 -4.4512534 1.0242221 890 0 0 0 57.440918
8.7988739 -4.4671178 1.075344 762 0 0 0 57.043072
9.4241638 -4.496604 1.1356643 671 0 0 0 56.648727
14.081961 -4.3208108 1.2283241 10 0 0 0 54.305832
19.186693 -3.8822401 1.1328927 223 0 0 0 52.745167
23.720081 -3.0050657 1.3762994 132 0 0 0 51.56918
34.167316 -1.7922001 1.1168004 12 0 0 0 50.406471
43.669975 -1.2180154 1.4165742 13 0 0 0 50.008953
-19.51973 -0.068063878 1.1344931 267 0 0 0 99.690781
5.5141373 3.4907994 1.0526175 579 0 0 0 40.628639
5.1902318 3.6750207 1.2420698 936.09088 0 0 0 39.816498
7.2358737 3.7401681 1.3017555 752.75 0 0 0 42.000793
7.7744079 3.661792 1.2659676 964.5 0 0 0 42.588753
8.3557377 3.6855834 1.3439124 675.5 0 0 0 42.97504
8.8443127 3.6420484 1.1678637 789.5 0 0 0 43.375721
9.4974346 3.6382344 1.1131632 550 0 0 0 43.75774
9.8171091 3.7618203 1.4086224 476 0 0 0 43.75774
10.526546 3.7364717 1.2185124 417 0 0 0 44.144127
11.474186 3.7567737 1.0196939 315 0 0 0 44.54126
11.855902 3.88098 1.3560605 345 0 0 0 44.54126
13.122608 3.9401565 1.1517409 188 0 0 0 44.93182
5.1609058 4.0309901 1.3810362 208 0 0 0 39.070889
15.268687 4.1762314 1.324266 362 0 0 0 45.325741
0.36308163 5.4126987 1.2095141 671.25 0 0 0 25.77457
-0.10676786 5.868577 1.0888097 631.5 0 0 0 24.406586
0.17546676 5.7038097 1.060299 615.5 0 0 0 25.189991
0.6809442 5.7768383 1.0815885 585.66669 0 0 0 26.555891
25.077795 5.5408373 1.4831572 79 0 0 0 46.10519
-0.33701926 6.2139635 1.1516985 631 0 0 0 23.816259
0.1967603 6.2309685 1.3083302 506.5 0 0 0 25.189991
0.58475393 6.2420211 1.3165141 604 0 0 0 26.167521
1.1836301 6.083869 1.0732706 365 0 0 0 27.727449
-18.167351 6.653132 1.1330363 292 0 0 0 5.0717502
-18.072624 7.1233058 1.137273 309 0 0 0 5.4653201
1.4259871 7.2779145 1.3703938 113 0 0 0 27.7257
1.6445574 7.4136415 1.402723 103 0 0 0 28.111589
2.9043629 7.3032403 1.2587683 559.25 0 0 0 30.657711
3.1709666 7.1877108 1.0631913 323 0 0 0 31.24482
-1.3359537 7.5724244 1.223503 1050.3334 0 0 0 21.868561
2.6064358 7.6233625 1.4877441 257 0 0 0 29.87598
15.338596 7.6616721 1.0066738 121 0 0 0 42.198406
16.206741 7.6028504 1.0490197 102 0 0 0 42.588753
-0.81828111 8.1156397 1.2972319 252.66667 0 0 0 23.037897
9.1423941 8.2552385 1.0437665 445 0 0 0 37.898849
9.7204485 8.3506403 1.0841215 331 0 0 0 38.282871
10.284491 8.4030418 1.1219321 373 0 0 0 38.675568
5.3555703 8.7674475 1.2953603 131 0 0 0 33.321026
5.632412 8.6487179 1.2595966 311.5 0 0 0 33.778114
10.946642 8.5021725 1.1689934 304 0 0 0 39.070889
11.956953 8.8215389 1.2501787 263 0 0 0 39.46516
15.352437 8.6346579 1.0338871 144 0 0 0 41.416992
16.876606 8.9513483 1.1177542 95 0 0 0 41.803181
5.1354518 9.0593386 1.398263 47 0 0 0 32.809429
8.2097616 9.0282488 1.3321667 387 0 0 0 36.328392
3.8570409 9.9906425 1.1716849 52 0 0 0 30.46467
22.036341 9.6773415 1.3969493 57 0 0 0 42.97504
32.739731 9.8043737 1.126941 52 0 0 0 44.93182
4.7801137 10.089972 1.220741 28 0 0 0 31.63829
5.1636949 10.237583 1.2529039 53 0 0 0 32.02113
5.5341158 10.329483 1.2799053 40 0 0 0 32.40818
6.7891212 10.131351 1.331389 329 0 0 0 33.974792
7.2468309 10.257036 1.3701026 183 0 0 0 34.373528
40.647419 10.026604 1.3697908 31 0 0 0 45.71772
3.7885177 10.571387 1.2265718 72 0 0 0 30.07021
7.9163342 10.635121 1.4444659 125 0 0 0 34.76115
8.3830338 10.700422 1.4801407 54 0 0 0 35.146179
-16.500263 14.400453 1.273236 19 0 0 0 10.92485
-16.38875 15.025473 1.2917696 19 0 0 0 11.32357
-18.065052 18.279358 1.4872806 20 0 0 0 12.09173
-16.513876 19.362761 1.4716561 16 0 0 0 13.27247
-17.422937 25.041647 1.0101883 40 0 0 0 14.83796
-17.18453 26.038839 1.0318824 32 0 0 0 15.2321
-17.011038 27.205132 1.0600649 34 0 0 0 15.62493
-16.815212 28.420355 1.0898262 38 0 0 0 16.00584
-16.444868 29.417356 1.1114167 16 0 0 0 16.39101
-16.213375 30.751902 1.1453047 78 0 0 0 16.792061
-15.902976 32.04565 1.1775422 60 0 0 0 17.17618
-15.504142 33.267757 1.2072109 46 0 0 0 17.56485
-24.754642 -41.421238 1.5731591 9 0 0 0 83.274719
-54.208073 -29.151253 1.9903389 17 0 0 0 91.883919
-18.785511 -28.206234 1.9447232 16 0 0 0 84.058784
-53.86356 -27.28726 1.9530648 5 0 0 0 92.265686
-3.9986894 -27.004711 1.5755275 8 0 0 0 77.019638
-3.3616424 -27.295727 1.5870653 5 0 0 0 76.629684
-21.851091 -26.721193 1.979519 30 0 0 0 85.62291
-19.615475 -26.539392 1.8944284 16 0 0 0 84.836929
-4.649929 -26.851442 1.572717 8 0 0 0 77.412354
-53.453617 -25.45459 1.9155451 9 0 0 0 92.66301
-53.165783 -23.73844 1.8842638 8 0 0 0 93.056992
-52.966713 -22.110384 1.8578187 13 0 0 0 93.454079
-22.815466 -17.007097 1.6371908 62 0 0 0 89.547081
3.4200509 -17.261358 1.8938197 93 0 0 0 71.543503
2.8591778 -16.544395 1.8084843 117 0 0 0 71.925011
-22.656345 -16.041019 1.5979202 80 0 0 0 89.938354
-23.294573 -15.650723 1.6149242 86 0 0 0 90.333565
-24.276724 -15.461088 1.6552323 80 0 0 0 90.725456
-51.992134 -14.556581 1.7492304 5 0 0 0 95.409683
2.2000542 -14.885719 1.8089619 76.5 0 0 0 72.322258
4.4557414 -14.749561 1.6626825 48 0 0 0 69.972328
4.6721067 -14.202324 1.614449 96 0 0 0 69.576225
0.67714846 -13.806547 1.8345127 90 0 0 0 73.881073
3.7256043 -13.511396 1.8599699 117 0 0 0 70.356796
4.6053495 -13.991447 1.9530963 181 0 0 0 69.576225
0.97980058 -13.316023 1.773191 204 0 0 0 73.494247
3.6875956 -13.382972 1.5013911 280 0 0 0 70.356796
0.0013098735 -12.283271 1.7861631 174.5 0 0 0 74.66703
-0.68762642 -11.245464 1.639852 73 0 0 0 75.650085
-0.27431154 -11.268919 1.6407971 156.5 0 0 0 75.054832
-0.79363883 -10.821418 1.715405 193 0 0 0 75.842194
0.25987649 -10.591327 1.675846 143 0 0 0 74.276787
1.7809377 -10.304528 1.6548046 47 0 0 0 71.925011
2.524765 -10.121673 1.650991 206 0 0 0 70.751251
0.75746852 -9.2722149 1.7819575 486.66666 0 0 0 73.362511
-21.163528 -8.242239 1.8793572 151 0 0 0 93.851318
-21.037813 -7.6052046 1.8516512 106 0 0 0 94.243752
-22.973284 -7.0522771 1.9863878 16 0 0 0 95.024643
-21.964104 -7.336381 1.9154613 71 0 0 0 94.637154
8.4368563 -5.0938711 1.8050722 611 0 0 0 58.221779
2.3203619 -4.6604686 1.7764326 318.92307 0 0 0 67.261459
2.6175787 -4.6507225 1.6500953 247 0 0 0 66.455391
3.3684113 -4.8140726 1.5959754 1017.5 0 0 0 64.887871
3.6683512 -4.7890644 1.6003562 1053.25 0 0 0 64.195511
4.2753744 -4.7447119 1.6523479 698.40002 0 0 0 62.924885
4.8328061 -4.7073326 1.6335583 880.66669 0 0 0 61.88055
5.1005421 -4.653883 1.6984453 155 0 0 0 61.357471
5.7476068 -4.6695876 1.6073042 827 0 0 0 60.438457
6.8835797 -4.6334825 1.5256625 1058 0 0 0 59.00058
8.4907455 -4.5743375 1.5282162 321 0 0 0 57.440918
10.707401 -4.7863631 1.8501768 43 0 0 0 56.264313
12.637507 -4.5652442 1.7811444 84 0 0 0 55.093071
13.795959 -4.6050329 1.7452016 207 0 0 0 54.699242
13.982675 -4.2878036 1.9355549 329 0 0 0 54.305832
19.231991 -3.8880103 1.6244264 33 0 0 0 52.745167
23.626938 -2.9892838 1.964489 130 0 0 0 51.56918
28.705547 -2.2131596 1.6504872 121 0 0 0 50.793633
33.832603 -1.7750075 1.9361579 6 0 0 0 50.406471
5.1493998 3.8223667 1.7487872 681.09998 0 0 0 39.461693
5.5774975 3.7266562 1.8282224 275 0 0 0 40.245033
7.2795877 3.7622676 1.6140075 1095 0 0 0 42.000793
7.5865941 3.8042598 1.7765552 826 0 0 0 42.198406
8.0216169 3.7772009 1.6350691 747 0 0 0 42.588753
9.25352 3.8102572 1.5913314 501 0 0 0 43.375721
10.941776 3.885103 1.5513489 386 0 0 0 44.144127
12.100412 3.9627769 1.6971284 284 0 0 0 44.54126
5.123858 4.2102604 1.8900719 30 0 0 0 38.675568
13.384668 4.0182748 1.5141348 214 0 0 0 44.93182
15.231519 4.1657839 1.7054151 313 0 0 0 45.325741
0.33641088 5.365696 1.6402283 130 0 0 0 25.711082
-18.27422 6.1880803 1.6077654 80 0 0 0 4.6858101
-18.172857 6.6520262 1.6125183 187 0 0 0 5.0717502
-18.076187 7.1215491 1.6185696 227 0 0 0 5.4653201
1.3472108 7.3587346 1.7491579 239 0 0 0 27.534506
-1.3344702 7.5602536 1.7867256 1303.3334 0 0 0 21.868561
0.95223486 7.8806252 1.755275 374 0 0 0 26.55694
1.1144322 7.6542511 1.806559 275.33334 0 0 0 26.943213
2.3642483 7.8485713 1.9149801 364 0 0 0 29.289339
2.5745261 7.6324553 1.7518044 987.33331 0 0 0 29.811235
-0.81985897 8.1354074 1.7028512 35 0 0 0 23.037899
5.2855945 8.3438959 1.5738201 447.33334 0 0 0 33.582352
5.7639856 8.1778498 1.5938548 353 0 0 0 34.373528
4.9027314 8.6533833 1.5836797 256 0 0 0 32.809429
8.2801914 8.8867674 1.7760963 124.5 0 0 0 36.524441
11.313093 9.2416611 1.9457455 173 0 0 0 38.675568
9.8138494 9.7721176 1.5063521 73 0 0 0 37.107861
10.431309 9.8863811 1.5615119 175 0 0 0 37.503979
10.690947 9.6463022 1.7408025 184 0 0 0 37.898849
11.201734 9.6172428 1.7856247 170 0 0 0 38.282871
16.702808 9.9421721 1.6221726 93 0 0 0 41.020741
5.1581583 10.230608 1.6763041 19 0 0 0 32.02113
18.075384 10.16476 1.7276552 61 0 0 0 41.416992
25.211113 10.338729 1.5760545 40 0 0 0 43.375721
3.623004 10.950301 1.5423733 33 0 0 0 29.681749
9.4894209 10.956596 1.9324778 25 0 0 0 35.93824
14.072015 11.48105 1.962157 18 0 0 0 38.675568
9.1032152 11.617068 1.9673644 7 0 0 0 35.146179
-17.059954 14.166313 1.8392214 37 0 0 0 10.54033
-16.982336 14.818988 1.8685858 42 0 0 0 10.92485
-16.849051 15.445146 1.8941932 54 0 0 0 11.32357
-16.606989 15.988334 1.9097816 8 0 0 0 11.70644
3.4241571 19.399498 1.6429158 142 0 0 0 27.343309
-18.361376 19.515139 1.5488279 38 0 0 0 12.48838
-10.16281 24.875164 1.5499399 64 0 0 0 18.359819
-17.452452 25.085653 1.758453 28 0 0 0 14.83796
-9.5284843 25.057644 1.5465556 54 0 0 0 18.748301
-17.396141 26.362514 1.8159722 30 0 0 0 15.2321
-11.438344 26.161203 1.6446744 60 0 0 0 17.959471
-17.099173 27.348286 1.8535887 27 0 0 0 15.62493
-9.5630064 27.146839 1.6581531 25 0 0 0 19.132019
-8.1608982 27.374678 1.6464516 72 0 0 0 19.92086
-8.9770422 27.626593 1.6734421 33 0 0 0 19.522909
-16.829399 28.446018 1.8984925 28 0 0 0 16.00584
-16.621174 -60.185829 2.0284011 13 0 0 0 78.971138
-21.839317 -36.545288 2.4342906 9 0 0 0 83.274719
-23.039003 -29.623362 2.149159 8 0 0 0 85.225571
-4.3897562 -29.679678 2.4748061 34 0 0 0 77.019638
-6.3022432 -28.151041 2.380594 19 0 0 0 78.192093
-5.6052289 -28.264734 2.3780398 34 0 0 0 77.805023
-3.4836063 -28.326094 2.355926 18 0 0 0 76.629684
-4.689188 -27.106035 2.2719016 88 0 0 0 77.412354
-32.927059 -25.815145 2.3901997 7 0 0 0 89.149399
-26.280613 -25.124071 2.0823271 16 0 0 0 87.596092
-26.577927 -24.191122 2.0586085 22 0 0 0 87.971519
-17.527225 -23.724607 2.4313922 14 0 0 0 84.836929
-28.161482 -23.216335 2.089766 10 0 0 0 88.75425
-27.084686 -23.466068 2.0526969 14 0 0 0 88.367485
-21.799973 -19.852131 2.4295874 46 0 0 0 87.971519
-22.80085 -17.002409 2.3446512 52 0 0 0 89.547081
-22.70775 -16.083342 2.2946181 90 0 0 0 89.938354
-24.329414 -15.500604 2.3773534 74 0 0 0 90.725456
-23.363914 -15.703202 2.3208611 66 0 0 0 90.333565
4.410531 -14.590889 2.0198801 179 0 0 0 69.972328
3.9174612 -14.205834 2.318265 140 0 0 0 70.356796
4.2581372 -14.087502 2.3153541 142 0 0 0 69.972328
4.4579415 -13.544301 2.2444255 169 0 0 0 69.576225
2.0083108 -10.137418 2.1453433 73 0 0 0 71.543503
0.45952493 -9.348053 2.2890952 446.5 0 0 0 73.881073
0.68772334 -9.3338451 2.2894952 272 0 0 0 73.494247
-21.353062 -8.9243784 2.4768085 5 0 0 0 93.454079
4.1395307 -8.7921371 2.1381202 409 0 0 0 67.620605
-21.187376 -8.2515602 2.4340789 151 0 0 0 93.851318
-21.063536 -7.6145401 2.3982761 119 0 0 0 94.243752
-21.952522 -7.3325706 2.4770479 85 0 0 0 94.637154
28.261353 -7.168623 2.3953376 50 0 0 0 53.527802
38.417843 -5.8250017 2.2131689 16 0 0 0 51.967499
8.4087362 -5.0759058 2.1608973 650 0 0 0 58.221779
12.404812 -4.4813738 2.2394805 466.5 0 0 0 55.093071
13.10047 -4.3720913 2.1718943 404 0 0 0 54.699242
14.043158 -4.3063507 2.3076522 287 0 0 0 54.305832
15.086382 -4.2237649 2.2653124 169 0 0 0 53.9226
16.405998 -4.16151 2.2343185 223 0 0 0 53.527802
28.603531 -2.2005589 2.3595808 62 0 0 0 50.793633
43.543362 -1.2149742 2.4795504 15 0 0 0 50.008953
4.9999824 3.9097369 2.4378581 721 0 0 0 39.070889
5.1467342 3.8534672 2.2301841 521.16669 0 0 0 39.397285
5.778686 3.6573677 2.2865119 555.57141 0 0 0 40.631065
4.9652462 4.0827508 2.309535 455.66666 0 0 0 38.675568
5.0669703 4.1653252 2.0318935 416 0 0 0 38.675568
15.165873 4.15026 2.2802711 424 0 0 0 45.325741
-17.311743 5.8579421 2.412684 29 0 0 0 4.6858101
24.903778 5.5065422 2.1089318 86 0 0 0 46.10519
-18.304548 6.1988125 2.0772998 138 0 0 0 4.6858101
-17.203573 6.2928562 2.4182532 171 0 0 0 5.0717502
-18.160786 6.6480188 2.0787382 152 0 0 0 5.0717502
-17.115637 6.7386012 2.4280727 111 0 0 0 5.4653201
-18.104738 7.1333022 2.0913067 315 0 0 0 5.4653201
1.3403269 7.3258739 2.2926252 139.66667 0 0 0 27.534506
11.175769 7.0413933 2.4173255 35 0 0 0 40.628639
-1.3348072 7.5573177 2.257514 1204.5 0 0 0 21.868561
0.9465099 7.8435149 2.2328651 270 0 0 0 26.55694
1.1067373 7.6102557 2.2704096 254 0 0 0 26.943211
2.375802 7.8853488 2.229043 354 0 0 0 29.289339
2.5639548 7.8093543 2.1225731 139 0 0 0 29.681749
8.2838955 8.6743488 2.3479939 524 0 0 0 36.72049
10.935081 8.9339876 2.2323053 218 0 0 0 38.675568
8.5133047 9.362359 2.0056551 7 0 0 0 36.328392
10.429743 9.412961 2.2216728 277 0 0 0 37.898849
10.590025 9.095685 2.2075789 249 0 0 0 38.282871
11.633455 9.0352097 2.326674 40 0 0 0 39.070889
10.423463 9.881711 2.2706118 223 0 0 0 37.503979
18.572729 9.8515167 2.2620082 204 0 0 0 41.803181
9.5124121 10.982594 2.2972231 27 0 0 0 35.93824
14.976548 11.61647 2.0457168 54 0 0 0 39.070889
-16.343452 13.568904 2.277077 68 0 0 0 10.54033
-16.229231 14.159081 2.3081009 64 0 0 0 10.92485
-16.103029 14.758426 2.3401639 84 0 0 0 11.32357
-16.002028 15.403588 2.3788404 54 0 0 0 11.70644
-18.043327 18.251837 2.122442 28 0 0 0 12.09173
4.942709 19.48872 2.1656544 88 0 0 0 28.50942
5.4560537 19.491245 2.1803153 31 0 0 0 28.89591
-18.380058 19.529272 2.216037 16 0 0 0 12.48838
5.9922247 19.543907 2.2020466 86 0 0 0 29.289339
6.5148807 19.524424 2.2173524 40 0 0 0 29.681749
-7.6529655 25.639641 2.2097185 67 0 0 0 19.92086
-9.8210421 27.871565 2.4363689 51 0 0 0 19.132019
-8.9600506 27.559137 2.3901236 39 0 0 0 19.522909
-10.704675 28.163635 2.4831436 33 0 0 0 18.748301
-16.305191 30.928644 2.0063074 21 0 0 0 16.792061
-15.916584 32.075001 2.0539186 19 0 0 0 17.17618
-22.321033 -41.876488 2.7096879 18 0 0 0 82.503967
-21.761454 -27.991739 2.915211 18 0 0 0 85.225571
-3.4155371 -27.772869 2.9901044 88 0 0 0 76.629684
-5.4488158 -27.47646 2.9929266 66 0 0 0 77.805023
-4.7256422 -27.316553 2.962477 79 0 0 0 77.412354
-4.0160723 -27.154577 2.9338064 70 0 0 0 77.019638
-21.612978 -26.439585 2.808985 20 0 0 0 85.62291
-27.500122 -23.834148 2.9900954 11 0 0 0 88.367485
-23.345625 -22.32789 2.6585524 15 0 0 0 87.596092
-17.758423 -20.673859 2.9109631 19 0 0 0 86.020882
