# .PCD v0.7 - Point Cloud Data file format
VERSION 0.7
FIELDS x y z intensity normal_x normal_y normal_z curvature
SIZE 4 4 4 4 4 4 4 4
TYPE F F F F F F F F
COUNT 1 1 1 1 1 1 1 1
WIDTH 921
HEIGHT 1
VIEWPOINT 0 0 0 1 0 0 0
POINTS 921
DATA ascii
9.4416962 5.3956881 -0.40668616 262 0 0 0 41.367126
10.092284 5.439599 -0.43072796 239 0 0 0 41.752769
10.823265 5.3233967 -0.45493898 295 0 0 0 42.342335
11.235213 5.0194716 -0.46457961 131 0 0 0 42.922871
20.871841 5.2655911 -0.31271076 33 0 0 0 45.659962
-29.009819 5.7132077 -0.48700753 43 0 0 0 2.7388301
5.1687803 5.51334 -0.086407952 404 0 0 0 36.67844
8.4927807 5.7312851 -0.13000828 412 0 0 0 40.196873
8.6427078 5.5256538 -0.25551322 277 0 0 0 40.57999
9.3611794 5.6628971 -0.1411854 475 0 0 0 40.971512
9.8003778 5.6017241 -0.14675529 306 0 0 0 41.367126
10.431548 5.6238394 -0.15588774 216 0 0 0 41.752769
11.246209 5.707387 -0.16828492 265 0 0 0 42.147449
12.016668 5.7284546 -0.17966023 139 0 0 0 42.53722
13.137227 5.8672504 -0.19721861 209 0 0 0 42.922871
14.352562 5.9880028 -0.21619098 194 0 0 0 43.322941
20.551828 5.726491 -0.30991256 39 0 0 0 45.268806
15.51116 6.025341 -0.23388784 143 0 0 0 43.704102
16.900826 6.0885687 -0.25542408 94 0 0 0 44.089699
18.095335 6.0184059 -0.2733261 46 0 0 0 44.486073
-44.491364 -26.665934 0.40273222 10 0 0 0 90.960922
-39.375351 -24.93433 0.36511248 15 0 0 0 90.575882
-39.756577 -22.520796 0.35928896 16 0 0 0 91.356247
-34.139633 -17.183422 0.30680746 23 0 0 0 92.113457
-34.163822 -16.156759 0.30402717 34 0 0 0 92.50988
-38.541206 -15.960708 0.33255339 21 0 0 0 93.299507
-35.545353 -15.753836 0.31204814 39 0 0 0 92.903023
-57.915764 -10.03295 0.45809668 6 0 0 0 96.808792
-62.517384 -9.2544661 0.4903748 24 0 0 0 97.193161
-62.118801 -7.6415257 0.48636991 18 0 0 0 97.581619
-8.0761013 -7.6915436 0.25322428 166.5 0 0 0 87.451561
-7.7093029 -7.7115631 0.24842697 731 0 0 0 87.057091
-7.2782536 -7.6466131 0.24140754 751 0 0 0 86.660866
-6.7265067 -7.6061935 0.23374066 1103 0 0 0 86.074074
-6.1730828 -7.5229073 0.2255767 77.5 0 0 0 85.48336
-5.7651782 -7.5114865 0.25899532 216 0 0 0 84.957924
-5.324234 -7.4297671 0.17568541 412.66666 0 0 0 84.439171
-4.8274207 -7.4168091 0.20818248 288.75 0 0 0 83.725258
-4.3442817 -7.3792434 0.23770048 182.33333 0 0 0 83.012428
-3.7681787 -7.3274274 0.36581549 258.33334 0 0 0 82.105049
-3.3457003 -7.293014 0.39023367 227 0 0 0 81.381989
-2.5946872 -7.2347546 0.46923354 143 0 0 0 80.013687
-2.2811053 -7.1791668 0.27562594 188.66667 0 0 0 79.434525
-1.7943993 -7.1295795 0.27029362 289.55554 0 0 0 78.455887
-1.2382371 -7.0821209 0.2650409 405.33334 0 0 0 77.28743
-0.70497143 -7.0409756 0.43564031 810 0 0 0 76.113281
-0.35565108 -7.0097446 0.43246409 1711 0 0 0 75.336929
31.485355 -7.0408387 0.29350832 42 0 0 0 53.059601
-0.69955188 -6.9965014 0.43299401 478 0 0 0 76.107185
-0.012128672 -6.9880466 0.43093359 975 0 0 0 74.547798
0.41464311 -6.9651299 0.43063951 2006.5 0 0 0 73.570801
0.75345761 -6.9196053 0.42992058 1450 0 0 0 72.787285
1.1784519 -6.8763199 0.43119553 840.66669 0 0 0 71.816643
1.6929384 -6.821373 0.43453348 547.66669 0 0 0 70.640205
7.9512911 -6.2181292 0.24115124 55.5 0 0 0 60.081646
8.3147945 -6.1783786 0.24671511 68.5 0 0 0 59.695679
8.69944 -6.1373444 0.25263312 67 0 0 0 59.31208
9.1297722 -6.109581 0.25991976 513 0 0 0 58.912689
9.5892153 -6.0802746 0.26757777 56 0 0 0 58.526672
-7.9144669 -5.6749496 0.185515 594.33331 0 0 0 89.659576
-3.0957673 -5.6204386 0.080997996 1418.5 0 0 0 82.563797
-2.6814508 -5.6599069 0.080022283 1440 0 0 0 81.578835
-2.2288575 -5.711915 0.21208863 809.625 0 0 0 80.454979
-0.63213456 -5.6072321 0.14662404 926 0 0 0 76.306732
-0.20899922 -5.5481243 0.16771162 767.55554 0 0 0 75.112709
0.12319847 -5.5102139 0.075931475 701 0 0 0 74.158524
-8.1986561 -5.4814501 0.22792195 709 0 0 0 90.184479
-6.0857854 -5.2518387 0.48901898 8 0 0 0 88.221672
-5.7927594 -5.2522793 0.47661304 6 0 0 0 87.826256
-2.115983 -5.2787209 0.49767798 1292.5 0 0 0 80.602074
-1.7548494 -5.2926431 0.48882833 1034.6666 0 0 0 79.627586
-1.2652205 -5.2901192 0.47800818 633.25 0 0 0 78.261787
-0.92574638 -5.2851934 0.47203657 492 0 0 0 77.287361
0.23617423 -5.4488602 0.22848035 506.28571 0 0 0 73.822678
0.72196484 -5.4228115 0.14422068 786.5 0 0 0 72.39846
1.2537396 -5.3448596 0.14499678 922 0 0 0 70.837814
1.772337 -5.2587276 0.22734572 837.45453 0 0 0 69.325859
2.2557178 -5.1974292 0.20502496 797.5 0 0 0 67.98542
2.7238343 -5.1309638 0.2239396 967.88892 0 0 0 66.736191
3.2054284 -5.0915532 0.23094209 1072 0 0 0 65.559189
3.7357907 -5.0626106 0.2404 1249.7778 0 0 0 64.38768
4.2146168 -5.0330234 0.2496835 1455.1666 0 0 0 63.415939
4.6137075 -5.0128431 0.22410035 1468.8 0 0 0 62.667419
18.803633 -5.1905003 0.19269152 9 0 0 0 53.847969
20.142542 -5.0299582 0.20293204 13 0 0 0 53.45422
4.9078217 -4.9891529 0.30679792 1521.5 0 0 0 62.142452
5.3265166 -4.9662786 0.27418017 1418 0 0 0 61.458817
5.8449264 -4.9338031 0.28631985 1257.1666 0 0 0 60.674076
7.9806509 -4.7938104 0.34328032 574 0 0 0 58.13607
8.0203028 -4.6397071 0.18728669 781 0 0 0 57.873444
8.6907501 -4.6522813 0.23836543 756.5 0 0 0 57.357262
9.1971855 -4.6350479 0.24712043 747.5 0 0 0 56.96048
9.676157 -4.5806808 0.25524962 702 0 0 0 56.567219
10.250401 -4.54528 0.12632588 630 0 0 0 56.183849
26.819395 -4.6280408 0.25502208 18 0 0 0 52.284912
10.107291 -4.4842372 0.4017781 709 0 0 0 56.183849
10.712485 -4.4387431 0.27368006 661 0 0 0 55.787273
11.308486 -4.3610411 0.13385889 494 0 0 0 55.40876
11.926822 -4.2648597 0.13840516 522 0 0 0 55.015659
12.73666 -4.2045288 0.31207931 190.5 0 0 0 54.622726
12.773786 -3.8709557 0.3111566 488.5 0 0 0 54.230221
17.744888 -3.5153465 0.18282397 204 0 0 0 52.673512
22.629827 -3.3351274 0.22127886 148 0 0 0 51.897713
22.953499 -2.8080423 0.22367913 16 0 0 0 51.500271
27.582264 -2.6874437 0.26041007 102 0 0 0 51.111351
32.624134 -2.3706865 0.3004902 50 0 0 0 50.726608
37.818909 -1.8152701 0.34191182 25 0 0 0 50.34024
30.254898 -0.70731097 0.28196457 170 0 0 0 49.943581
30.347647 0.036719602 0.28304198 100 0 0 0 49.549911
29.97925 0.77353883 0.28055033 164 0 0 0 49.162201
-5.2382183 2.767694 0.21588358 586.70001 0 0 0 7.4855623
-5.1391935 3.0108602 0.30350024 603.5 0 0 0 8.1888704
4.3824925 3.3936486 0.29136658 970.625 0 0 0 39.221237
4.5810647 3.2811983 0.22568007 1009 0 0 0 39.798779
4.4031639 3.6776857 0.22883199 424.33334 0 0 0 38.629581
14.511076 4.4397411 0.16278973 358 0 0 0 44.875721
27.380722 4.1036429 0.26347068 20 0 0 0 47.217041
-6.9411888 4.55652 0.10263745 788 0 0 0 8.9653397
-6.0099845 4.5988402 0.098168015 786 0 0 0 10.1358
-5.6363821 4.6449866 0.096609123 1080 0 0 0 10.717285
-5.2787657 4.8000069 0.095798776 728 0 0 0 11.499016
-4.5147772 4.6270313 0.17104985 754 0 0 0 12.47185
-4.2220945 4.7220063 0.18521883 738 0 0 0 13.176549
-3.7884433 4.7147169 0.088859208 770.66669 0 0 0 14.039763
-3.2063239 4.85285 0.13530178 624.16669 0 0 0 15.535831
-2.7384295 4.8332324 0.25244558 715.22223 0 0 0 16.635328
-2.2762098 4.8220067 0.23837318 521.90912 0 0 0 17.831413
-1.8755434 4.9153175 0.17555594 321.85715 0 0 0 19.055441
-1.3295565 4.9253912 0.11313304 226 0 0 0 20.67144
-0.83034158 4.9658527 0.081145495 300 0 0 0 22.225098
-0.090205379 4.9952726 0.080498122 186 0 0 0 24.567841
0.031925954 4.9529452 0.080116063 160 0 0 0 24.96034
-8.412879 5.246654 0.11366033 185 0 0 0 8.5721903
-7.6395636 5.2934523 0.1099259 635 0 0 0 9.3589602
-7.2633128 5.2966528 0.10805581 517 0 0 0 9.7433701
-5.2361279 5.1235113 0.097481795 381 0 0 0 12.07545
-4.1791496 5.4913363 0.26574203 734 0 0 0 14.43285
-3.8314703 5.4293108 0.25774848 765.5 0 0 0 15.016305
-1.5961536 5.0956287 0.17243405 354.66666 0 0 0 20.025476
-1.1240648 5.1843605 0.18233939 287.75 0 0 0 21.448544
-0.70101082 5.1883721 0.18118323 237.5 0 0 0 22.712622
-0.28228706 5.2610154 0.18262397 332.125 0 0 0 23.984562
0.22280055 5.231616 0.20007254 296.44446 0 0 0 25.526627
0.7642839 5.146338 0.16876252 291 0 0 0 27.173414
1.2798201 5.1754909 0.21559455 365.91666 0 0 0 28.667578
1.7500426 5.1709476 0.20242205 452.875 0 0 0 29.988935
2.2808359 5.3326235 0.15895802 511.66666 0 0 0 31.209951
2.8218091 5.3687215 0.14846547 741 0 0 0 32.456276
3.2281451 5.3716516 0.089009263 379 0 0 0 33.350494
3.7014976 5.4398627 0.13244461 616 0 0 0 34.234062
4.2541227 5.3885341 0.23123863 964.59998 0 0 0 35.34243
4.8330736 5.4230385 0.096579432 515 0 0 0 36.287079
5.4025826 5.4842858 0.19655009 698 0 0 0 37.064861
5.6245122 5.4336867 0.10127602 358 0 0 0 37.4603
-29.305574 5.7651472 0.23428965 140 0 0 0 2.7388301
-9.3944302 5.8679042 0.39570472 353 0 0 0 8.5721903
-8.7397671 5.7560654 0.37654912 595 0 0 0 8.9653397
-8.2174616 5.8493333 0.36502534 555 0 0 0 9.5511646
-7.6676426 5.8901362 0.35213482 350 0 0 0 10.1358
-7.2217994 5.8296561 0.34001404 581 0 0 0 10.52521
-6.7904878 5.7568784 0.32815072 467 0 0 0 10.90936
-6.2985983 5.7425747 0.31641352 605 0 0 0 11.499016
-5.7707386 5.6580896 0.30256817 578 0 0 0 12.07545
-4.7597599 5.9598188 0.47390428 989 0 0 0 14.0381
-4.3869247 5.7731133 0.39578331 819.33331 0 0 0 14.43014
-3.8864815 5.8106594 0.43858713 903.5 0 0 0 15.40926
-3.0080333 5.773675 0.4117783 406 0 0 0 17.15435
-2.1225648 5.6577644 0.38550001 486 0 0 0 19.108219
-1.7388141 5.6590958 0.37879115 632.75 0 0 0 20.087805
-1.2225943 5.6700478 0.37209764 357 0 0 0 21.448418
-0.7215302 5.6574583 0.36678839 406 0 0 0 22.81168
-0.29572517 5.5624928 0.35924494 361.5 0 0 0 23.983414
0.38859856 5.5365801 0.35825768 450 0 0 0 25.938259
0.74018258 5.5757546 0.36262798 362.66666 0 0 0 26.914274
2.2948301 5.7377191 0.39464188 405.66666 0 0 0 30.818871
2.7236168 5.6917329 0.35177115 447 0 0 0 31.85869
3.2896221 5.7549911 0.35715669 571 0 0 0 33.000786
3.7667623 5.7659049 0.35246366 597 0 0 0 33.940956
4.0428977 5.5604043 0.26572028 743 0 0 0 34.723152
4.7537274 5.605382 0.18949261 762 0 0 0 35.897839
5.1829948 5.6199946 0.22722547 791.33331 0 0 0 36.547985
6.2354312 5.6691499 0.23378029 863.59998 0 0 0 37.928791
8.7525024 5.8025398 0.21042526 414.33334 0 0 0 40.324581
9.2818203 5.7737484 0.26347423 402 0 0 0 40.775749
9.820488 5.7766662 0.27368724 263.5 0 0 0 41.169319
10.26384 5.7012959 0.28197098 386.5 0 0 0 41.559948
11.094812 5.805521 0.29671729 356.5 0 0 0 41.950111
11.61003 5.8914194 0.46995309 138 0 0 0 42.147449
12.492097 5.9567757 0.15066876 270 0 0 0 42.53722
24.504051 5.5466433 0.24332435 104 0 0 0 46.046726
-5.1918049 6.0368805 0.49256676 766 0 0 0 13.451984
3.9448295 6.0268426 0.45315734 637 0 0 0 33.938381
4.3360138 6.109458 0.46969274 510.5 0 0 0 34.529739
4.7566209 6.2002435 0.48812082 726 0 0 0 35.107471
13.640977 6.0942144 0.15960959 223 0 0 0 42.922871
14.561641 6.0780716 0.16652101 209 0 0 0 43.322941
15.685113 6.0960364 0.17512019 333 0 0 0 43.704102
17.193205 6.1971459 0.18692322 148 0 0 0 44.089699
34.427708 6.0256214 0.32193434 52 0 0 0 46.824791
23.742861 6.617517 0.23883398 67 0 0 0 45.268806
27.315895 6.8914738 0.26749277 37 0 0 0 45.659962
21.084009 7.0131965 0.21865551 72 0 0 0 44.486073
38.879463 7.7924423 0.35983956 25 0 0 0 46.437969
-8.1098471 -7.7223334 0.66739553 171 0 0 0 87.451561
-7.7199082 -7.7208357 0.65153444 131 0 0 0 87.057091
-7.3040724 -7.6724 0.63314295 165 0 0 0 86.660866
-6.74334 -7.6237297 0.60971087 136 0 0 0 86.074074
-6.1947322 -7.5479498 0.58629036 129 0 0 0 85.48336
-5.7261848 -7.5229063 0.56879914 234.5 0 0 0 84.893311
-5.2876167 -7.5058527 0.55334508 1491 0 0 0 84.309021
-4.8382387 -7.4324789 0.53573358 249.5 0 0 0 83.725258
-4.3109016 -7.3899269 0.51808536 497 0 0 0 82.9487
-3.9329886 -7.3516917 0.50578773 192 0 0 0 82.370079
-1.0612043 -7.1005654 0.79443294 572.66669 0 0 0 76.895393
-0.70446754 -7.0569725 0.78568572 566.22223 0 0 0 76.111244
-0.2173318 -7.0252838 0.81336594 922.79999 0 0 0 75.021278
-0.010947769 -6.9901137 0.60474926 766 0 0 0 74.547798
0.33115408 -6.9729009 0.77431113 1366 0 0 0 73.763901
0.67258859 -6.9532151 0.77542454 1614.5555 0 0 0 72.984093
1.1838841 -6.898006 0.77713615 987.66669 0 0 0 71.81665
1.7008432 -6.8460064 0.7835331 868 0 0 0 70.640205
2.2267523 -6.7847304 0.79313034 523.44446 0 0 0 69.467735
2.7742186 -6.7340035 0.80867809 641 0 0 0 68.298958
3.2489791 -6.6910648 0.73455942 388 0 0 0 67.317856
3.9581354 -6.633357 0.76210511 260.5 0 0 0 65.951195
4.2778401 -6.6019592 0.77581751 414.5 0 0 0 65.36319
4.7235436 -6.5591669 0.7967298 264 0 0 0 64.584091
5.0766907 -6.5285621 0.8148219 297 0 0 0 63.994862
5.3095474 -6.4919562 0.82588089 375 0 0 0 63.613167
5.6979537 -6.4630432 0.84785283 297.75 0 0 0 63.020313
6.2388449 -6.4108191 0.87943983 208.5 0 0 0 62.240196
6.8103948 -6.3408747 0.80070627 306.5 0 0 0 61.458817
7.2976336 -6.3093147 0.82909507 82 0 0 0 60.86924
7.8644567 -6.2531395 0.77845365 99.666664 0 0 0 60.214069
8.3648911 -6.2157059 0.76387501 104 0 0 0 59.695679
8.7530842 -6.1742163 0.91764355 64 0 0 0 59.31208
9.1394072 -6.11625 0.80419314 412 0 0 0 58.912689
9.6090727 -6.0919509 0.97293186 385 0 0 0 58.526672
-8.2035913 -5.6315761 0.72103566 520.5 0 0 0 89.987122
-7.8188148 -5.5109925 0.81339055 215 0 0 0 89.789772
11.627076 -5.8565912 0.78431576 272 0 0 0 56.96048
12.351925 -5.8444571 0.82160383 47 0 0 0 56.567219
13.056389 -5.7883654 0.85725713 26 0 0 0 56.183849
13.726401 -5.6851511 0.89047474 15 0 0 0 55.787273
14.595648 -5.627964 0.74474621 15 0 0 0 55.40876
15.547416 -5.5590429 0.78356016 17.5 0 0 0 55.015659
-8.381937 -5.406404 0.68179697 589.66669 0 0 0 90.445412
-7.3231692 -5.4355927 0.88763434 839 0 0 0 89.399193
-6.7507858 -5.3600831 0.87514645 1033.3334 0 0 0 88.87072
-6.2691417 -5.3212943 0.76986289 1057 0 0 0 88.350372
-5.6897235 -5.2874708 0.76115888 1175.5 0 0 0 87.638908
-5.1529336 -5.2834001 0.81415927 1217 0 0 0 86.858978
-4.7066183 -5.2671652 0.75684601 1215.2858 0 0 0 86.157906
-4.2065177 -5.2566543 0.7469427 1440.1666 0 0 0 85.285263
-3.7013407 -5.2529888 0.71442044 1442.4445 0 0 0 84.310425
-3.2312186 -5.2624793 0.73103225 1419.8572 0 0 0 83.306107
-2.7964303 -5.2727199 0.75598937 1513.3077 0 0 0 82.306023
-2.270447 -5.2704434 0.72770441 1338.8462 0 0 0 81.006966
-1.7488741 -5.2760282 0.75853866 1119.8889 0 0 0 79.627579
-1.2646374 -5.2916369 0.74363798 823.16669 0 0 0 78.261787
-0.92197174 -5.266789 0.73157591 900.33331 0 0 0 77.287361
2.7851477 -5.1441517 0.75398701 520.33331 0 0 0 66.607277
18.968531 -5.2395988 0.68607694 61 0 0 0 53.847969
20.261372 -5.0634303 0.72606319 134 0 0 0 53.45422
6.9156098 -4.8845868 0.52268809 58 0 0 0 59.31208
7.8006072 -4.7707543 0.63911003 562.33331 0 0 0 58.26627
8.0963802 -4.5952225 0.68855298 428.5 0 0 0 57.742126
8.6208677 -4.6161251 0.59906042 591 0 0 0 57.357262
12.656907 -4.1796169 0.80431068 319 0 0 0 54.622726
12.724583 -3.8574057 0.80280799 385 0 0 0 54.230221
17.727402 -3.5151594 0.63467854 118 0 0 0 52.673512
22.59597 -3.3342111 0.7920953 112 0 0 0 51.897713
22.824251 -2.7963128 0.79760408 14 0 0 0 51.500271
27.398636 -2.674397 0.94713032 84 0 0 0 51.111351
-5.6072049 2.760006 0.69417113 404.66666 0 0 0 7.01685
-5.3349123 2.8687687 0.74814981 775.75 0 0 0 7.6026998
-4.1313128 2.9786575 0.81910479 20 0 0 0 9.7433701
-3.6777539 2.9818568 0.87899047 347.20001 0 0 0 10.677817
-3.2226963 2.9614966 0.86859441 305.33334 0 0 0 11.691161
-2.8581512 2.9285629 0.87756163 307.14285 0 0 0 12.582245
-5.2747726 3.0892217 0.75512236 557.75 0 0 0 8.1888704
-3.8643718 3.0010428 0.78870964 426 0 0 0 10.330505
-2.6980505 3.004847 0.75696766 387 0 0 0 13.25563
2.3426516 3.1833618 0.9051919 347.75 0 0 0 34.915314
2.5892446 3.1975696 0.92363054 416.66666 0 0 0 35.631992
4.3156672 3.3148963 0.80318445 1001.4445 0 0 0 39.28384
4.5275049 3.2445159 0.56966013 1108.5 0 0 0 39.798779
4.3322549 3.6213748 0.71475875 228.5 0 0 0 38.629581
14.325768 4.3808546 0.71914721 433 0 0 0 44.875721
27.291264 4.0856137 0.95269132 156 0 0 0 47.217041
96.317947 4.8444262 0.81182641 407 0 0 0 48.780647
-10.737844 5.0113268 0.85140973 296.5 0 0 0 6.6231599
-0.87276423 5.8411498 0.69672906 291.79999 0 0 0 22.459366
-0.23835063 5.9367547 0.52789319 476.33334 0 0 0 24.178223
0.27433005 5.918942 0.52693337 490.75 0 0 0 25.548042
8.7451887 5.9009867 0.64696473 370 0 0 0 40.196873
9.2730265 5.9275017 0.67328256 170 0 0 0 40.57999
24.415377 5.5224099 0.86855048 145 0 0 0 46.046726
-9.7805796 6.1082964 0.97445661 229 0 0 0 8.5721903
-7.7572589 6.4225712 0.73568249 357 0 0 0 10.717285
-7.187964 6.4080257 0.58536881 441 0 0 0 11.30778
-6.6414766 6.2129145 0.55538231 672 0 0 0 11.69025
-6.2702532 6.1558218 0.53827709 941 0 0 0 12.07545
-5.7859125 6.1058655 0.51750124 704 0 0 0 12.66671
-5.126575 6.4257736 0.7103942 651 0 0 0 14.0381
-4.7211223 6.3775034 0.68759513 755.5 0 0 0 14.62616
-4.1819153 6.2593598 0.65491092 774.5 0 0 0 15.40926
-3.7197952 6.1982474 0.63092428 780.5 0 0 0 16.178095
-3.4166534 6.195857 0.61854059 831 0 0 0 16.770769
-2.6887836 6.2502403 0.65318513 533 0 0 0 18.33283
-2.2647655 6.2946715 0.67072541 762.83331 0 0 0 19.305674
-1.7425308 6.2438769 0.65156668 783 0 0 0 20.477755
-1.2896245 6.1590886 0.61878419 551.79999 0 0 0 21.526733
-0.73629487 6.2104578 0.64579141 554.40002 0 0 0 22.928646
-0.24793035 6.3040338 0.71076584 606.66669 0 0 0 24.178223
0.21786134 6.2917213 0.70973462 767 0 0 0 25.352533
0.74913836 6.1873698 0.6298191 531.66669 0 0 0 26.718445
1.2270044 6.2173767 0.63955855 510.66666 0 0 0 27.887283
1.7357608 6.2878914 0.65740579 508.83334 0 0 0 29.05958
2.238709 6.2566681 0.62813377 549 0 0 0 30.232525
2.811533 6.3235607 0.60943186 452.5 0 0 0 31.40683
3.2531958 6.4321151 0.6331172 523 0 0 0 32.179771
5.3816919 6.3342366 0.51653612 402 0 0 0 35.897839
5.832478 6.3664064 0.53528696 541 0 0 0 36.482758
6.2453957 6.3281813 0.55025738 539 0 0 0 37.064861
6.7846231 6.3781295 0.57466578 538.5 0 0 0 37.657272
7.363646 6.4244018 0.60126406 447 0 0 0 38.237591
13.154963 6.2686319 0.5211966 276 0 0 0 42.53722
13.759203 6.1441469 0.53779346 289 0 0 0 42.922871
14.183646 6.3330345 0.9342863 240 0 0 0 42.922871
14.84503 6.1931648 0.76955247 166.5 0 0 0 43.322941
16.432182 6.3821354 0.62254614 143 0 0 0 43.704102
17.715036 6.3812919 0.66240352 117 0 0 0 44.089699
-10.428144 6.5199623 0.73328674 67 0 0 0 8.5721903
-9.5024576 6.602643 0.69317293 156 0 0 0 9.3589602
-9.4992456 6.5974135 0.97829401 185 0 0 0 9.3589602
-8.3647985 6.7645783 0.64849842 428 0 0 0 10.52521
-7.686945 6.5247855 0.85937566 399 0 0 0 10.90936
-7.0741715 6.954586 0.847422 428 0 0 0 12.07545
-6.503705 6.7077599 0.80068988 561 0 0 0 12.47185
-6.1160946 6.6202774 0.77411896 467 0 0 0 12.86157
-5.7798095 6.5677223 0.75289887 774 0 0 0 13.25563
-5.3676763 6.7383556 0.8481223 680.5 0 0 0 14.040595
-4.8452258 6.8983364 0.93152815 608.5 0 0 0 15.016305
-4.256444 6.7305722 0.88274831 652.5 0 0 0 15.795595
-3.7608638 6.6369286 0.84762871 797.5 0 0 0 16.570576
-3.2099965 6.5640397 0.81405681 706 0 0 0 17.544586
-2.7960627 6.5028119 0.79000372 987 0 0 0 18.33679
-2.1122856 6.9328241 0.98600507 921.5 0 0 0 20.090385
-1.7381877 6.8959799 0.96867132 684.5 0 0 0 20.864368
-1.3704252 6.8263268 0.94957602 642.5 0 0 0 21.644211
-0.75698668 6.7053027 0.92230898 627.33331 0 0 0 23.007803
-0.25984785 6.7197146 0.91984248 702.66669 0 0 0 24.178223
0.23271061 6.6359019 0.90929288 592 0 0 0 25.352533
0.73723 6.71065 0.92430282 617.66669 0 0 0 26.522615
1.2593559 6.7858338 0.94453883 554.33331 0 0 0 27.692972
1.7239999 6.8798671 0.96980262 554 0 0 0 28.668659
2.2355971 6.7647867 0.88885897 570.25 0 0 0 29.842306
2.7796757 6.6844306 0.81159902 508.5 0 0 0 31.01318
3.2191195 6.7694631 0.83904636 542.5 0 0 0 31.794891
3.7355895 6.7479124 0.77059418 665.5 0 0 0 32.76931
4.1867642 6.6749849 0.80456048 619.59998 0 0 0 33.624668
4.7665586 6.7110634 0.81886405 701.5 0 0 0 34.529739
5.2475085 6.7185268 0.81124729 642.66669 0 0 0 35.238007
5.6667547 6.8376389 0.87974024 537 0 0 0 35.698456
6.3106885 6.8839631 0.80867773 578 0 0 0 36.482758
6.7471809 6.8336444 0.83070749 628 0 0 0 37.064861
7.2096252 6.9471407 0.86447763 435 0 0 0 37.4603
11.454709 6.9211898 0.80959517 242 0 0 0 40.971512
7.708859 7.0667052 0.90128833 366 0 0 0 37.85424
8.1216316 7.0823498 0.92766464 404 0 0 0 38.237591
12.56093 7.1698132 0.87171572 224 0 0 0 41.367126
13.152422 7.082284 0.89922941 205 0 0 0 41.752769
14.099055 7.1475782 0.94935328 119 0 0 0 42.147449
21.47662 7.1395249 0.7879836 128 0 0 0 44.486073
26.170094 7.2875347 0.93823045 45 0 0 0 45.268806
85.439598 8.5189962 0.72884923 5 0 0 0 47.99226
82.103363 10.22857 0.70440042 8 0 0 0 47.611271
-30.571756 -27.703491 1.35518 5 0 0 0 87.826256
-30.395653 -24.93977 1.2936523 9 0 0 0 88.607765
-30.362404 -23.689642 1.2680769 30 0 0 0 89.00219
-33.234844 -21.038633 1.2955364 34 0 0 0 90.575882
-34.136646 -17.17449 1.2607175 35 0 0 0 92.113457
-34.18787 -16.160866 1.2482195 41 0 0 0 92.50988
-35.579128 -15.761408 1.2837671 25 0 0 0 92.903023
34.468395 -7.7136817 1.2001319 33 0 0 0 53.059601
-1.0648453 -7.130425 1.2411331 220 0 0 0 76.895393
-0.71147346 -7.1403365 1.2364806 259.66666 0 0 0 76.111244
-0.24497314 -7.1349959 1.2600137 397.33334 0 0 0 75.073891
0.50705051 -7.023932 1.3010396 4157 0 0 0 73.377693
-1.0172061 -6.807653 1.4401822 84 0 0 0 76.895393
-0.67635888 -6.7790771 1.4263068 92.666664 0 0 0 76.111244
-0.12035626 -6.8544393 1.3208605 315.66666 0 0 0 74.810844
0.37193698 -6.9255152 1.323561 1073.5 0 0 0 73.667351
0.70005995 -6.9341159 1.2302526 1427.3334 0 0 0 72.918358
1.1839789 -6.8927541 1.2927547 467.44446 0 0 0 71.81665
1.7030883 -6.7838926 1.2748268 311.88889 0 0 0 70.597565
2.1881115 -6.6672063 1.1675789 57.5 0 0 0 69.467545
2.736248 -6.6408439 1.1516446 49 0 0 0 68.29895
3.2034492 -6.6636863 1.0621785 214 0 0 0 67.382835
3.9400663 -6.6009321 1.1358407 159.5 0 0 0 65.951195
4.2215652 -6.5716281 1.1211752 309.66666 0 0 0 65.428108
4.7242002 -6.5577912 1.09365 499.5 0 0 0 64.584091
5.080339 -6.5310769 1.1191496 413 0 0 0 63.994862
8.2090244 -6.5787115 1.4161646 87 0 0 0 60.280281
2.3868914 -6.4621944 1.2760594 55.5 0 0 0 68.880615
2.7424998 -6.4340706 1.2955025 49.5 0 0 0 68.104721
3.0191479 -6.417738 1.31348 38 0 0 0 67.512794
3.8949711 -6.3476 1.3786962 34 0 0 0 65.754562
4.304688 -6.3546009 1.3560363 53.333332 0 0 0 65.04052
4.613337 -6.3511772 1.3221407 59 0 0 0 64.517235
5.2592463 -6.3233581 1.2476133 176.66667 0 0 0 63.481678
5.7265654 -6.3363056 1.2599853 150.5 0 0 0 62.824558
6.2579689 -6.2742949 1.30641 115.5 0 0 0 62.044922
6.7969651 -6.297296 1.2043682 194.60001 0 0 0 61.419659
7.1464982 -6.1783748 1.2713679 109.5 0 0 0 60.86924
7.7960505 -6.2504578 1.101068 118.5 0 0 0 60.280281
8.3496017 -6.203445 1.1450237 170 0 0 0 59.695679
8.7635002 -6.2876072 1.3638147 101.33334 0 0 0 59.439945
9.1395264 -6.1142597 1.3445914 181.5 0 0 0 58.912689
9.5796614 -6.0734887 1.2461162 106 0 0 0 58.526672
10.644323 -6.0343537 1.3418245 47 0 0 0 57.742126
-8.3674669 -5.5952973 1.0984848 471 0 0 0 90.184479
-7.8207407 -5.5123591 1.0457929 554 0 0 0 89.789772
-2.6242352 -5.7250214 1.4736668 675.5 0 0 0 81.381989
-2.4113364 -5.8169036 1.4733908 708 0 0 0 80.803047
11.142326 -5.9586906 1.230803 32.5 0 0 0 57.357262
11.617949 -5.849638 1.2659659 88 0 0 0 56.96048
12.313552 -5.8238354 1.158882 58 0 0 0 56.567219
12.96189 -5.7439861 1.2049329 30 0 0 0 56.183849
-8.773818 -5.2651458 1.3677245 357 0 0 0 90.960922
-8.4803238 -5.3754587 1.2194583 523 0 0 0 90.575882
-7.7893348 -5.4922862 1.2760328 801 0 0 0 89.789772
-7.3412943 -5.4510365 1.3385906 875.5 0 0 0 89.399193
-6.7726908 -5.4242167 1.2723582 1002.25 0 0 0 88.804977
-6.2487116 -5.3961554 1.2122991 1051.5 0 0 0 88.221672
-5.7836919 -5.376502 1.1609168 1082.75 0 0 0 87.638908
-5.2398558 -5.3740053 1.19684 1153 0 0 0 86.858978
-4.7213492 -5.3687124 1.282666 1016.2 0 0 0 86.035278
-4.2755275 -5.3442416 1.2629395 913.16669 0 0 0 85.285263
-3.7349057 -5.3367057 1.1836017 1011.375 0 0 0 84.261795
-3.2169507 -5.3350568 1.2744648 976.90002 0 0 0 83.180305
-2.7073257 -5.3326163 1.2367865 1087.875 0 0 0 82.022919
-2.1896179 -5.3285151 1.1699946 1180.8572 0 0 0 80.740257
-1.7614335 -5.3153377 1.2273436 920.81818 0 0 0 79.627228
-1.273217 -5.3090663 1.1699817 915.9231 0 0 0 78.276848
-0.92981642 -5.3154597 1.1362386 1012 0 0 0 77.287361
2.7463696 -5.1712809 1.2354621 490.11111 0 0 0 66.736191
18.966879 -5.2392335 1.1684785 182 0 0 0 53.847969
20.361095 -5.0883956 1.2439878 13 0 0 0 53.45422
7.9690018 -4.7840667 1.2587177 756.33331 0 0 0 58.136066
12.536736 -4.1377268 1.2869207 485.5 0 0 0 54.622726
12.668283 -3.8380704 1.2908382 211.5 0 0 0 54.230221
17.739191 -3.5175426 1.0785899 25 0 0 0 52.673512
17.777367 -3.0726781 1.0764892 77 0 0 0 52.284912
22.578947 -3.3317349 1.3511138 114 0 0 0 51.897713
32.59911 -2.3745723 1.1172473 57 0 0 0 50.726608
37.67651 -1.8149763 1.283465 46 0 0 0 50.34024
30.333149 0.031492177 1.0411824 20 0 0 0 49.549911
29.974047 0.76827562 1.0300542 117 0 0 0 49.162201
-5.6479588 2.892278 1.2657385 440.66666 0 0 0 7.2801833
-5.4268141 2.9179192 1.1322086 929.5 0 0 0 7.6027002
-3.8051376 2.9599016 1.2161955 369.88889 0 0 0 10.352139
-3.2767353 2.8751581 1.2168421 240.85715 0 0 0 11.330543
-2.8083138 2.8313522 1.2873764 253.64285 0 0 0 12.469774
-5.415966 3.101053 1.3281877 658.20001 0 0 0 8.0307417
2.2751043 3.1381187 1.2824581 323.07693 0 0 0 34.811455
2.5218983 3.1716356 1.2283266 329.75 0 0 0 35.499073
4.3048635 3.2526913 1.2212301 1113.0834 0 0 0 39.413746
4.2576485 3.5618234 1.254342 22.5 0 0 0 38.629581
14.137184 4.3264432 1.2617872 402 0 0 0 44.875721
-0.95590734 5.7918258 1.2395178 251 0 0 0 22.22331
24.336689 5.5049233 1.477741 148 0 0 0 46.046726
28.570124 5.7249832 1.0039229 26 0 0 0 46.437969
34.205292 5.9809227 1.1880809 80 0 0 0 46.824791
-9.8339272 6.1414466 1.2586757 449 0 0 0 8.5721903
-10.304289 6.7943916 1.187148 184.5 0 0 0 8.9653397
-9.5035992 6.5999532 1.2573302 68 0 0 0 9.3589602
-8.0705252 6.5204892 1.1325217 18 0 0 0 10.52521
-7.853775 6.6663256 1.2518075 353.5 0 0 0 10.90936
-3.1973479 6.9743309 1.0402601 495 0 0 0 17.93684
-2.6971259 6.9749327 1.0155286 782 0 0 0 18.916538
0.40049171 6.6905265 1.2474989 615.66669 0 0 0 25.741949
4.2967815 6.6789055 1.2142659 526.66669 0 0 0 33.807449
4.8176012 6.7848616 1.2360722 461 0 0 0 34.529739
5.261982 6.8551397 1.2826718 410 0 0 0 35.107471
5.590858 6.9199009 1.318758 397 0 0 0 35.499073
-6.0542765 7.2364397 1.0366874 623 0 0 0 13.64834
-5.6782327 7.1298738 1.0031285 493 0 0 0 14.0381
-4.1345291 7.3112926 1.1345946 708 0 0 0 16.570576
-3.7592218 7.2532902 1.1048311 772 0 0 0 17.15435
-3.2537155 7.0910273 1.0575094 732.5 0 0 0 17.93968
-2.2943006 7.2404366 1.1273315 832.5 0 0 0 19.891827
-1.7701298 7.4273849 1.2255222 682 0 0 0 21.059219
-1.3855205 7.4112639 1.2109044 721 0 0 0 21.8395
-0.80490583 7.178823 1.1627413 675 0 0 0 23.007803
-0.27278796 7.1971869 1.1601118 735.66669 0 0 0 24.178223
0.16881229 7.1403341 1.1511986 595.5 0 0 0 25.157825
0.79934621 7.2259426 1.1719316 566 0 0 0 26.522615
1.2719188 7.3219023 1.1974633 636.5 0 0 0 27.50062
1.6752255 7.4372225 1.2277468 743 0 0 0 28.276539
2.4466934 7.0878029 1.0233114 506 0 0 0 30.03603
2.7765675 7.163352 1.0477238 440.5 0 0 0 30.62322
3.2398789 7.263402 1.0833933 548 0 0 0 31.40683
3.7749786 7.4450617 1.1352135 658 0 0 0 32.179771
4.2773929 7.2873116 1.1491209 497 0 0 0 33.158428
6.3024302 7.4070611 1.0767632 390 0 0 0 35.897839
6.6594462 7.4440274 1.1049464 544 0 0 0 36.287079
7.0069599 7.4518642 1.1308316 406 0 0 0 36.67844
15.237698 7.2564344 1.0110097 81 0 0 0 42.53722
18.3013 7.1054811 1.1700783 106 0 0 0 43.704102
-5.1473269 7.9484591 1.273707 458 0 0 0 15.60538
-4.6924691 7.6417823 1.2084515 680 0 0 0 15.98581
-3.2328331 7.8147631 1.3514357 402 0 0 0 18.530825
-2.7242174 7.6133008 1.2942743 715.5 0 0 0 19.303379
-2.3874021 7.5300841 1.2655683 850 0 0 0 19.89566
-1.0775732 7.9311085 1.4810935 630 0 0 0 22.61248
-0.78346205 7.9493656 1.4787276 615.5 0 0 0 23.205463
-0.28933391 7.8505359 1.455808 684.33331 0 0 0 24.178223
0.19402747 7.8570662 1.4569519 717.5 0 0 0 25.157825
0.79035735 7.9743552 1.4854549 538.5 0 0 0 26.329094
1.0844088 7.9424019 1.4862362 436 0 0 0 26.90966
1.9849123 7.5016847 1.2491556 559 0 0 0 28.861919
2.3110604 7.5791559 1.275021 438 0 0 0 29.451469
2.7706592 7.6935921 1.3148422 493.5 0 0 0 30.233139
3.2640889 7.8228312 1.3617406 381 0 0 0 31.01318
3.6637025 7.9369054 1.4031404 410 0 0 0 31.603491
6.7993751 7.9877515 1.4165471 413 0 0 0 35.897839
7.4683638 7.55687 1.1731976 369 0 0 0 37.064861
7.9570112 7.6607327 1.2182236 443 0 0 0 37.4603
8.4462776 7.7369843 1.2620019 385 0 0 0 37.85424
8.8536634 7.7156401 1.2931193 407 0 0 0 38.237591
11.195586 7.5449424 1.1527566 225 0 0 0 40.196873
12.00716 7.6659131 1.2142574 252 0 0 0 40.57999
13.056607 7.8869066 1.297399 210 0 0 0 40.971512
23.299786 7.7440772 1.4533405 62 0 0 0 44.486073
-5.4971275 8.0543127 1.3101039 549 0 0 0 15.21314
3.9424384 8.0114746 1.432441 434 0 0 0 31.98629
4.2145 8.0535145 1.4575979 404 0 0 0 32.373249
4.5099645 8.1205235 1.4887418 512 0 0 0 32.7743
7.2523851 8.1030331 1.4672058 385 0 0 0 36.287079
14.110658 8.0533285 1.3793547 155 0 0 0 41.367126
15.35944 8.2685385 1.478056 160 0 0 0 41.752769
22.507421 8.1015368 1.416623 123 0 0 0 44.089699
-9.4866037 8.9097548 1.4136283 22 0 0 0 11.69025
35.071751 8.8372726 1.2356546 17 0 0 0 45.659962
-9.5611601 9.4329376 1.458351 232 0 0 0 12.07545
-57.981632 -10.033925 1.9278206 13 0 0 0 96.808792
7.1202669 -9.1394949 1.8380885 83 0 0 0 63.994862
-0.22876184 -8.9878359 1.6505464 186 0 0 0 74.934814
19.53944 -8.0829182 1.7770133 66 0 0 0 55.787273
-0.0089749638 -6.705236 1.5684683 273 0 0 0 74.547798
0.40186304 -6.7003708 1.5706855 2262 0 0 0 73.570801
0.80769074 -6.6387577 1.5658931 987 0 0 0 72.595528
1.3021977 -6.6058402 1.5767803 150.33333 0 0 0 71.425575
1.7157936 -6.5587859 1.5878619 82.5 0 0 0 70.443024
7.3247595 -6.0231781 1.5154569 10 0 0 0 60.47892
9.4910612 -6.015306 1.5117161 45 0 0 0 58.526672
-2.6155827 -5.7080421 1.7782742 827.33331 0 0 0 81.381981
-2.413517 -5.8221459 1.6290582 549 0 0 0 80.803047
-1.4296343 -5.6868496 1.6635593 64 0 0 0 78.457436
7.9981475 -5.9413958 1.5909771 11 0 0 0 59.695679
10.247779 -5.8080039 1.5835644 11 0 0 0 57.742126
11.216013 -5.6455631 1.6862117 7 0 0 0 56.96048
-8.6491632 -5.3354216 1.7359509 561.5 0 0 0 90.768402
-7.7802124 -5.4858689 1.5099652 308 0 0 0 89.789772
-6.9774585 -5.4515486 1.6255907 6 0 0 0 89.00219
-0.2778846 -5.4890871 1.6971653 165 0 0 0 75.336929
0.91278332 -5.3327541 1.7619195 545 0 0 0 71.811501
1.2459239 -5.3002586 1.8861306 843.125 0 0 0 70.837814
1.776935 -5.2057481 1.9064689 826.5 0 0 0 69.272652
2.2756722 -5.165905 1.856946 719.59998 0 0 0 67.906746
2.6880178 -5.1353478 1.7344569 448.33334 0 0 0 66.833176
3.1593597 -5.1250687 1.8626766 755.40002 0 0 0 65.715996
3.6644924 -5.0918946 1.9413105 1078 0 0 0 64.584091
4.2773838 -5.1034651 1.8955934 901.5 0 0 0 63.415939
4.6141129 -5.1105599 1.9592295 1097 0 0 0 62.821918
5.0979047 -5.1151743 1.8741882 9 0 0 0 62.044712
5.5869274 -5.0787401 1.9585176 305 0 0 0 61.263039
7.9208269 -5.0236545 1.5014493 236 0 0 0 58.526672
18.759153 -5.1785169 1.6414341 34 0 0 0 53.847969
7.8705182 -4.9017715 1.7909595 714 0 0 0 58.396473
8.0064392 -4.8061047 1.9574513 309 0 0 0 58.13607
12.441384 -4.1040435 1.7600663 487 0 0 0 54.622726
17.608299 -3.0403893 1.729008 177.5 0 0 0 52.284912
22.478333 -3.3129246 1.9118869 129 0 0 0 51.897713
27.214388 -2.6564255 1.6113393 180 0 0 0 51.111351
32.460579 -2.3644624 1.9103842 30 0 0 0 50.726608
47.512146 -1.1200306 1.6068777 34 0 0 0 49.943581
-5.6717262 2.9617896 1.7159598 653.5 0 0 0 7.41185
-3.709317 2.9747419 1.6379513 297.60001 0 0 0 10.600988
-3.2591131 2.9175885 1.5880018 295.16666 0 0 0 11.496812
-2.853214 2.8795416 1.5398932 257 0 0 0 12.47185
-5.5402713 3.2821612 1.8376815 343.60001 0 0 0 8.2607336
-5.4451923 3.1428418 1.7254728 767.5 0 0 0 8.0900402
-4.0118451 3.036531 1.9033077 411 0 0 0 10.1358
-3.9080067 3.0062168 1.7460542 381.66666 0 0 0 10.265603
2.3876693 3.1658137 1.5468094 353 0 0 0 35.107471
4.2337298 3.2490394 1.7578182 802.35712 0 0 0 39.301723
4.1999254 3.5159783 1.6462902 100 0 0 0 38.629581
13.977036 4.2807093 1.9647702 423 0 0 0 44.875721
14.052587 4.3008609 1.6125386 470 0 0 0 44.875721
13.999993 4.6679244 1.9828802 11 0 0 0 44.486073
-9.5050278 6.597724 1.6813097 55.5 0 0 0 9.3589602
0.39374307 6.6166162 1.5601567 560 0 0 0 25.741949
4.424037 7.1259913 1.5572351 427 0 0 0 33.545589
4.7426143 7.2305565 1.6042159 474 0 0 0 33.938381
17.211971 7.1802382 1.5787278 33 0 0 0 43.322941
-5.8506866 7.8641458 1.6362683 269 0 0 0 14.561723
-5.3094697 7.7730827 1.7288088 332 0 0 0 15.212663
1.3936682 7.9854679 1.5029762 503 0 0 0 27.50062
1.6974082 7.9715939 1.5112141 485 0 0 0 28.077681
11.906378 7.603837 1.7222742 244 0 0 0 40.57999
16.439228 7.8303084 1.9851028 81 0 0 0 42.53722
-5.5199585 8.0878296 1.5560433 294 0 0 0 15.21314
-5.1741676 8.4410543 1.8174984 226 0 0 0 15.98581
-2.6725895 8.2208414 1.7355331 423 0 0 0 19.763288
-1.6358978 8.2325878 1.5507009 501 0 0 0 21.644211
1.9277037 8.0650311 1.5370361 491 0 0 0 28.475399
2.2720528 8.1499119 1.5678883 486.5 0 0 0 29.058615
2.7555418 8.2748203 1.6153836 450.5 0 0 0 29.841831
3.2645698 8.3900013 1.6665263 449.5 0 0 0 30.62322
3.6237953 8.381175 1.6898636 593 0 0 0 31.210171
4.8254032 8.2015505 1.5242026 509 0 0 0 33.155399
7.6795521 8.1632347 1.5111556 431 0 0 0 36.67844
8.1664495 8.2598858 1.5648463 261 0 0 0 37.064861
8.7070627 8.3798542 1.6265981 359 0 0 0 37.4603
9.1952133 8.4207325 1.6772164 277 0 0 0 37.85424
16.18363 8.20331 1.5360079 121 0 0 0 42.147449
21.697855 8.424181 1.9597607 107 0 0 0 43.704102
22.238974 8.0099249 1.9899657 60 0 0 0 44.089699
-0.097732589 8.5756836 1.7962939 553 0 0 0 24.567841
0.21730119 8.5315914 1.7883093 577.5 0 0 0 25.157825
0.8601265 8.614893 1.8144655 623.5 0 0 0 26.329094
1.3075532 8.7170544 1.8472246 500 0 0 0 27.1096
1.7528062 8.7227221 1.8647411 373.5 0 0 0 27.884689
2.2199702 8.7742748 1.8968067 374 0 0 0 28.668659
2.6167688 8.9346294 1.950181 357 0 0 0 29.25531
3.9291015 8.5006514 1.7322021 491 0 0 0 31.603491
4.2252197 8.5757742 1.7676357 366 0 0 0 31.98629
4.725996 8.7498016 1.8373692 325 0 0 0 32.573776
5.2395554 8.8952465 1.9058775 308 0 0 0 33.155399
7.4178519 8.7071867 1.8243742 306 0 0 0 35.897839
7.9351277 8.85886 1.89546 378 0 0 0 36.287079
8.468648 8.7785044 1.9436042 288 0 0 0 36.871651
9.8442001 8.5755491 1.7544489 307 0 0 0 38.237591
12.75615 8.5906849 1.6814979 207 0 0 0 40.196873
14.890731 8.9895277 1.8966913 223 0 0 0 40.971512
31.287411 8.7093086 1.9094735 28 0 0 0 45.268806
-9.4229536 9.2913113 1.7607207 82 0 0 0 12.07545
-7.2083111 9.0800543 1.5494183 45 0 0 0 14.0381
2.8901622 9.0314789 1.9858329 334 0 0 0 29.647631
-7.2386365 9.595396 1.6056732 303 0 0 0 14.43285
20.951197 9.9704437 1.95233 68 0 0 0 42.53722
21.640778 9.6521807 1.9933696 98 0 0 0 42.922871
-9.7329483 10.087956 1.5211102 9 0 0 0 12.47185
-7.2838693 10.16852 1.6701093 41 0 0 0 14.81947
-33.048241 -27.115889 2.4497983 13 0 0 0 88.607765
-29.936909 -22.197365 2.1407459 17 0 0 0 89.399193
-31.935713 -19.134754 2.1396294 7 0 0 0 90.960922
-33.130447 -18.760689 2.1876435 9 0 0 0 91.356247
-32.95269 -17.605927 2.1476359 12 0 0 0 91.732315
-34.196022 -17.204391 2.1998954 27 0 0 0 92.113457
-34.269108 -16.199289 2.1789818 43 0 0 0 92.50988
-38.594097 -15.974781 2.3982646 10 0 0 0 93.299507
8.2221804 -10.54863 2.4470456 51 0 0 0 63.994862
1.2364638 -10.102364 2.1151495 4 0 0 0 72.591309
11.948585 -10.310173 2.1029153 157 0 0 0 60.86924
-0.83185983 -9.5947819 2.3554845 344.5 0 0 0 75.913734
-62.321171 -9.2143002 2.061955 7 0 0 0 97.193161
-7.0395927 -9.4971647 2.4486375 263 0 0 0 84.699455
-0.2291632 -9.0660458 2.2205708 317 0 0 0 74.934814
17.134085 -8.0976477 2.0570018 47 0 0 0 56.567219
19.448174 -8.0453863 2.280911 138 0 0 0 55.787273
-62.075703 -7.6252007 2.0476897 19 0 0 0 97.581619
-61.71048 -6.0459199 2.0308361 14 0 0 0 97.973747
-2.6357338 -5.7555947 2.2597601 711 0 0 0 81.381981
-8.703537 -5.3705702 2.2499259 436 0 0 0 90.768402
0.91395831 -5.3326683 2.0716753 640 0 0 0 71.811501
1.2437743 -5.2885132 2.0816898 775.5 0 0 0 70.837814
1.7775373 -5.2038274 2.1080868 732 0 0 0 69.272652
2.2921746 -5.1347084 2.1006947 672.79999 0 0 0 67.829163
2.7058418 -5.0883808 2.139292 686.16669 0 0 0 66.736191
3.2348936 -5.096447 2.1843538 769.25 0 0 0 65.510193
3.7818 -5.0918999 2.2435975 678.79999 0 0 0 64.348404
4.2672696 -5.0900278 2.218251 875.16669 0 0 0 63.415939
4.7269692 -5.086998 2.2687347 970.71429 0 0 0 62.601215
5.1939836 -5.0830588 2.2460706 947.16669 0 0 0 61.849655
5.5560951 -5.0501328 2.2271066 1153 0 0 0 61.263039
-9.2316656 -4.6548128 2.4007156 24 0 0 0 92.113457
7.7730637 -4.9287672 2.2682757 737 0 0 0 58.526672
8.0167465 -4.8104558 2.1891317 210 0 0 0 58.13607
12.35515 -4.0757899 2.2319951 383.5 0 0 0 54.622726
12.642683 -3.8280952 2.1024563 15 0 0 0 54.230221
17.442244 -3.0086789 2.3655527 222 0 0 0 52.284912
22.465584 -3.3110793 2.4634023 162 0 0 0 51.897713
27.142948 -2.6446693 2.2871947 113 0 0 0 51.111351
37.437489 -1.8034064 2.1941295 46 0 0 0 50.34024
-5.251657 2.8993764 2.2626688 407 0 0 0 7.79355
-5.7774539 3.1658981 2.1936641 200.83333 0 0 0 7.7324734
-5.2440877 3.0649512 2.1439774 600.33331 0 0 0 8.1888704
4.2069302 3.2680502 2.065671 607.75 0 0 0 39.217709
13.876248 4.250175 2.3112104 463 0 0 0 44.875721
13.875143 4.6266923 2.3287008 47 0 0 0 44.486073
24.275965 5.4959521 2.0950496 138 0 0 0 46.046726
34.056282 5.9552212 2.0305233 38 0 0 0 46.824791
-9.5130806 6.6023207 2.2502112 40 0 0 0 9.3589602
17.150436 7.1568618 2.2544458 54 0 0 0 43.322941
11.829298 7.5568004 2.2336848 107 0 0 0 40.57999
16.425232 7.8275075 2.4321802 86 0 0 0 42.53722
7.2816405 8.136467 2.2845478 633 0 0 0 36.287079
-0.20993933 8.8738804 2.0746522 448.5 0 0 0 24.374916
0.33582544 8.8480577 2.0703616 483 0 0 0 25.35531
7.619812 8.9423933 2.1641622 52 0 0 0 35.897839
8.474206 8.5692425 2.2201819 206 0 0 0 37.064861
0.12166959 9.0164261 2.1073554 240 0 0 0 24.96034
3.2806773 9.0741091 2.0204587 540 0 0 0 30.233139
3.7399726 9.2542295 2.0888 472 0 0 0 30.816191
4.0253778 9.2913361 2.1186464 324 0 0 0 31.210171
6.4385719 9.2745028 2.080709 170 0 0 0 34.336327
6.8332014 9.3398418 2.1317971 215 0 0 0 34.723152
9.563406 9.1978559 2.110743 295 0 0 0 37.4603
37.049633 9.3351307 2.2393789 21 0 0 0 45.659962
4.4054651 9.5122671 2.1920354 166 0 0 0 31.603491
7.4445601 9.6608105 2.2444363 215 0 0 0 35.107471
7.9902301 9.8527689 2.3327892 199 0 0 0 35.499073
10.505435 9.6120157 2.2621834 243 0 0 0 37.85424
16.937681 9.659586 2.1211636 67 0 0 0 41.367126
-0.59749323 10.098736 2.1112258 20 0 0 0 23.78484
1.9111757 10.104339 2.4001658 22 0 0 0 27.6917
11.509017 10.016131 2.4210508 60 0 0 0 38.237591
14.966277 10.075483 2.4094594 148 0 0 0 40.196873
5.1850786 -11.71785 2.8140869 50 0 0 0 67.910759
-15.00401 -10.032794 2.8327863 70 0 0 0 90.184479
-10.973777 -9.9536219 2.6970115 160 0 0 0 87.826256
-7.1039872 -9.5875349 2.7630835 41 0 0 0 84.699455
-0.83314747 -9.6241989 2.8395996 290 0 0 0 75.913734
21.901154 -9.6951771 2.5892036 32 0 0 0 56.183849
-5.9253759 -9.3644896 2.8399701 15 0 0 0 83.527725
-0.22896628 -9.0872841 2.67417 441 0 0 0 74.934814
2.962137 -8.9950962 2.9047725 198 0 0 0 69.466949
22.546198 -8.6823263 2.6127129 34 0 0 0 55.40876
17.017971 -8.0394039 2.5067682 173 0 0 0 56.567219
19.489779 -8.0587416 2.8049805 7 0 0 0 55.787273
16.914083 -7.9905868 2.9554257 22 0 0 0 56.567219
-8.7707243 -5.5626316 2.7948871 218 0 0 0 90.575882
-9.1508369 -5.0923772 2.861949 323.66666 0 0 0 91.481606
-8.7839899 -5.273386 2.7574749 390 0 0 0 90.960922
4.2488718 -5.0668011 2.5340476 830 0 0 0 63.415939
4.6777916 -5.0502043 2.6374617 812 0 0 0 62.628799
5.1485586 -5.0361052 2.6701801 817 0 0 0 61.849651
5.5303688 -5.0256634 2.6774549 592 0 0 0 61.263042
7.8026123 -5.218914 2.893065 258 0 0 0 58.912689
7.7232304 -4.8965569 2.706881 640.5 0 0 0 58.526672
12.298726 -4.0573425 2.7025392 324 0 0 0 54.622726
17.355225 -2.9937305 2.7907841 235 0 0 0 52.284912
27.046579 -2.635287 2.9403765 97 0 0 0 51.111351
32.34119 -2.3500655 2.7118952 41 0 0 0 50.726608
47.462704 -1.1187629 2.768538 24 0 0 0 49.943581
-5.9681563 3.1154363 2.5380657 324 0 0 0 7.41185
13.780691 4.2213259 2.8307481 268.5 0 0 0 44.875721
13.804756 4.6035328 2.678498 218 0 0 0 44.486073
24.246796 5.4896269 2.6976342 106 0 0 0 46.046726
33.878349 5.9305749 2.8777094 56 0 0 0 46.824791
-9.5137863 6.5993252 2.8129506 27 0 0 0 9.3589602
-11.907572 7.444663 2.7219779 58 0 0 0 8.5721903
47.174088 7.0544744 2.7846937 14 0 0 0 47.217041
11.463477 7.7288532 2.8848596 108 0 0 0 40.196873
11.608803 7.8259487 2.5751846 66 0 0 0 40.196873
16.438389 7.8340726 2.8858902 11 0 0 0 42.53722
7.2938538 8.1531897 2.5573418 99 0 0 0 36.287079
16.366844 8.300396 2.9075456 35 0 0 0 42.147449
7.5797658 8.8997478 2.7289779 592 0 0 0 35.897839
8.4544477 8.5514584 2.6598911 478.5 0 0 0 37.064861
21.684069 9.6718197 2.5751543 65 0 0 0 42.922871
81.994629 10.201079 2.7675879 15 0 0 0 47.611271
21.618269 10.947281 2.6261835 76 0 0 0 42.147449
10.008911 11.154046 2.7481966 244 0 0 0 36.287079
20.874628 11.225226 2.569129 74 0 0 0 41.752769
-5.5154552 13.989743 2.7464728 235 0 0 0 18.724859
-14.369549 17.327614 2.9756122 69 0 0 0 13.64834
-15.95555 18.324812 2.6125519 14 0 0 0 13.25563
-33.82597 -19.16226 3.2009685 14 0 0 0 91.356247
-35.127922 -18.775654 3.2790039 10 0 0 0 91.732315
4.3827214 -15.858819 3.3992712 44 0 0 0 70.246223
4.8102317 -15.877073 3.4274955 33 0 0 0 69.862442
5.202745 -15.76753 3.4306972 73 0 0 0 69.466949
5.6986737 -15.943349 3.4979908 57 0 0 0 69.07383
-34.194954 -15.15565 3.0821588 34 0 0 0 92.903023
12.049636 -14.685431 3.4595115 100 0 0 0 63.613167
-33.848988 -14.018335 3.02004 42 0 0 0 93.299507
-2.1014047 -14.16349 3.3094018 126 0 0 0 76.895393
-13.332846 -12.70255 3.3440545 74 0 0 0 87.451561
-12.905437 -12.914101 3.3154953 69 0 0 0 87.057091
-10.488387 -11.579936 3.2260067 164 0 0 0 86.268051
5.1772895 -11.697972 3.2802377 22 0 0 0 67.910759
-13.737095 -11.281851 3.2296107 24 0 0 0 88.607765
-13.215042 -11.407536 3.1722004 119 0 0 0 88.221672
-11.100493 -10.070304 3.280587 94.5 0 0 0 87.826256
-55.797699 -9.6561384 3.2429466 8 0 0 0 96.808792
-14.284067 -9.8069286 3.149631 42 0 0 0 89.987122
-7.4109631 -9.5054579 3.3855534 55 0 0 0 85.087158
-0.8777805 -9.6874866 3.2979996 187 0 0 0 75.978218
27.127846 -9.6856756 3.107585 20 0 0 0 55.015659
-0.23064852 -9.1885328 3.1563482 323 0 0 0 74.934814
-14.668402 -8.3162098 3.2732663 103.5 0 0 0 91.356247
-10.062333 -8.2680197 3.3334949 18 0 0 0 88.607765
29.195494 -8.0545158 3.2674553 37 0 0 0 53.847969
-14.825584 -7.9308424 3.2645154 87 0 0 0 91.732315
-10.222798 -7.9879184 3.3210061 16 0 0 0 89.00219
-58.040565 -7.1297441 3.3485789 11 0 0 0 97.581619
-14.803892 -7.4577837 3.4232771 217 0 0 0 92.113457
-10.28172 -6.8794193 3.1687889 263 0 0 0 90.184479
-7.1389408 -6.1665821 3.1225524 90 0 0 0 88.221672
-31.842724 -5.5180931 3.4555597 80 0 0 0 96.808792
-10.791751 -5.776958 3.1365218 72 0 0 0 91.732315
-8.7176762 -5.8337612 3.4695549 177 0 0 0 90.184479
-6.5759492 -5.9724331 3.3771615 57 0 0 0 87.826256
-12.466312 -5.1715674 3.45574 22 0 0 0 93.299507
-10.618996 -5.353497 3.0483336 31 0 0 0 92.113457
-9.0991888 -5.1651258 3.2027042 209 0 0 0 91.356247
-8.7630863 -5.2614098 3.2562156 287.25 0 0 0 90.963486
-8.4692221 -5.371623 3.3188498 438 0 0 0 90.575882
7.6608233 -5.1265111 3.0703466 225 0 0 0 58.912689
-31.763428 -4.703835 3.4338439 81 0 0 0 97.193161
-10.239622 -4.5477295 3.2905464 372 0 0 0 92.903023
-9.7055788 -4.8945651 3.192337 393 0 0 0 92.113457
-9.2228718 -4.7947197 3.3107705 434 0 0 0 91.922882
7.0486808 -4.9701138 3.0871079 32 0 0 0 59.31208
7.6824784 -4.8695054 3.2541769 362.33334 0 0 0 58.526672
-10.556853 -4.3824801 3.4969234 190 0 0 0 93.299507
12.188161 -4.1294651 3.2128391 390.66666 0 0 0 54.753704
-31.665451 -3.8970275 3.4123328 70 0 0 0 97.581619
12.403485 -3.7537661 3.341882 222 0 0 0 54.230221
12.507109 -3.7849727 3.0476584 47 0 0 0 54.230221
-31.554056 -3.0985327 3.3915515 68 0 0 0 97.973747
17.331699 -3.2091782 3.2303994 100 0 0 0 52.47921
22.410215 -3.2989595 3.0154431 160 0 0 0 51.897713
-31.766813 -2.3330808 3.407304 5 0 0 0 98.370567
37.333176 -1.7917901 3.119812 38 0 0 0 50.34024
13.510364 4.1417732 3.2984984 361 0 0 0 44.875721
13.71101 4.5740461 3.1949191 268.5 0 0 0 44.486073
24.134199 5.4689021 3.2951937 81 0 0 0 46.046726
-9.5895958 6.6516685 3.2648685 9 0 0 0 9.3589602
11.369622 7.669138 3.198791 89 0 0 0 40.196873
16.289801 8.2618151 3.3474038 94 0 0 0 42.147449
7.5492334 8.8648167 3.1498721 151.5 0 0 0 35.897839
27.750097 10.767292 3.2180407 44 0 0 0 43.704102
18.368668 12.356242 3.4949558 49 0 0 0 40.196873
20.394922 12.302901 3.1673188 60 0 0 0 40.971512
-29.563677 13.874986 3.477253 21 0 0 0 6.6231599
-5.5583801 14.099408 3.1395302 180 0 0 0 18.724859
-15.116864 17.348501 3.0400796 99 0 0 0 13.25563
-9.1082525 17.831726 3.1499274 139 0 0 0 17.15435
-11.810952 18.427902 3.438369 87 0 0 0 15.60538
6.191484 -16.065731 3.5568838 69 0 0 0 68.687401
-1.7498686 -14.180037 3.8294444 94.5 0 0 0 76.506271
-12.635517 -12.644072 3.6864736 106 0 0 0 87.057091
-12.903323 -12.293454 3.6757281 56 0 0 0 87.451561
-11.738907 -12.338072 3.5135999 57 0 0 0 86.660866
15.795031 -12.322751 3.6524162 106 0 0 0 60.081646
-10.120502 -11.744291 3.5805106 156 0 0 0 85.880096
5.1726203 -11.687738 3.5949488 8 0 0 0 67.910759
-11.250063 -11.261931 3.6759117 96 0 0 0 87.057091
-10.928357 -11.490335 3.6618049 117 0 0 0 86.660866
-10.336411 -11.416178 3.745914 95 0 0 0 86.268051
-10.098401 -10.617889 3.7457867 101 0 0 0 86.660866
-3.6157405 -10.945621 3.8070204 69 0 0 0 79.631538
-2.9043667 -10.505068 3.8683255 79 0 0 0 78.844131
-14.233421 -10.031892 3.593267 100 0 0 0 89.789772
-6.0998683 -10.184701 3.9198186 44 0 0 0 83.1399
-3.5746593 -10.001479 3.7702222 42 0 0 0 80.013687
-14.237819 -9.6925831 3.8349197 93 0 0 0 90.05291
-11.495341 -9.9271145 3.8820851 105 0 0 0 88.221672
-7.4442339 -9.5515633 3.6989365 133 0 0 0 85.087158
-0.95977229 -9.7281351 3.7128475 231 0 0 0 76.107185
-62.162701 -9.1908607 3.5953372 13 0 0 0 97.193161
-9.9636869 -9.4968586 3.8626475 71 0 0 0 87.451561
-0.23019083 -9.2342939 3.510787 342 0 0 0 74.934814
46.514107 -9.2052221 3.9412084 7 0 0 0 52.673512
-12.711552 -8.9631538 3.9754524 60 0 0 0 89.789772
19.310085 -8.5464258 3.8548329 79 0 0 0 56.183849
-10.064491 -8.269804 3.6576557 74 0 0 0 88.607765
16.561644 -8.3286867 3.8450661 159 0 0 0 56.96048
26.697834 -8.0723581 3.6987038 42 0 0 0 54.230221
-10.36799 -7.7020993 3.9448032 231 0 0 0 89.399193
-8.6866884 -7.8854847 3.5854485 72 0 0 0 87.826256
19.678436 -7.5761585 3.8506405 29 0 0 0 55.40876
-8.1008692 -7.3513803 3.6157634 37 0 0 0 87.826256
-9.4151554 -6.6401529 3.8074133 88 0 0 0 89.789772
-61.685242 -6.0434122 3.5475845 12 0 0 0 97.973747
-8.6251717 -6.0879478 3.7502856 59 0 0 0 89.789772
9.3652611 -5.6167455 3.6303988 152 0 0 0 58.13607
-11.411344 -5.407886 3.859345 128 0 0 0 92.50988
-8.6529722 -5.198966 3.8352704 39 0 0 0 90.960922
-8.4220629 -5.3458757 3.6676102 456 0 0 0 90.575882
-9.3881712 -4.7377992 3.9947283 46 0 0 0 92.113457
7.9368649 -4.7595205 3.5385308 25 0 0 0 58.13607
11.934686 -4.5968394 3.7737942 345 0 0 0 55.40876
-11.255318 -4.1915436 3.970561 30 0 0 0 93.892235
-10.535611 -4.3715272 3.7719259 241 0 0 0 93.299507
-9.3496523 -4.3404307 3.8329294 344.66666 0 0 0 92.64093
12.204613 -4.1336288 3.7497985 252 0 0 0 54.753704
-9.3561554 -3.8866098 3.8505895 6 0 0 0 93.299507
12.353191 -3.7375064 3.8096802 269 0 0 0 54.230221
-9.6115303 -3.18543 3.849257 21 0 0 0 94.480835
-9.409173 -3.1184721 3.5259809 31 0 0 0 94.480835
12.492255 -3.4450865 3.9848197 302 0 0 0 53.847969
17.064825 -3.3781385 3.6173313 107 0 0 0 52.673512
22.344923 -3.289391 3.5667822 138 0 0 0 51.897713
-9.5466022 -2.9057171 3.7942648 92 0 0 0 94.867645
17.38726 -2.5604877 3.6550179 219 0 0 0 51.897713
27.399332 -2.6648035 3.6561911 50 0 0 0 51.111351
-12.242516 -2.4421017 3.8180225 76 0 0 0 96.405716
-11.337097 -2.2597618 3.8242273 77 0 0 0 96.405716
-10.23781 -2.3078001 3.7321289 32 0 0 0 96.017471
32.338055 -2.3498166 3.5003505 47 0 0 0 50.726608
-11.461372 -1.7038666 3.8336334 195 0 0 0 97.193161
-9.8764257 -1.9727699 3.5832517 256 0 0 0 96.405716
-9.2025661 -1.7206885 3.5631604 53.5 0 0 0 96.607254
18.327374 -1.7830298 3.8282382 229 0 0 0 51.111351
