# .PCD v0.7 - Point Cloud Data file format
VERSION 0.7
FIELDS x y z intensity normal_x normal_y normal_z curvature
SIZE 4 4 4 4 4 4 4 4
TYPE F F F F F F F F
COUNT 1 1 1 1 1 1 1 1
WIDTH 953
HEIGHT 1
VIEWPOINT 0 0 0 1 0 0 0
POINTS 953
DATA ascii
-0.80833083 7.3846698 1.1766402 569.33331 0 0 0 23.044502
-0.44523659 7.443172 1.1819512 564 0 0 0 23.820869
1.9574918 7.3348479 1.2102522 476 0 0 0 28.90373
2.2579508 7.3511763 1.2263732 613 0 0 0 29.489586
2.7604077 7.3331413 1.2502896 485 0 0 0 30.470947
3.3196583 7.3944664 1.2931533 616 0 0 0 31.4492
3.7989917 7.4479656 1.3336663 497.5 0 0 0 32.230003
4.2793169 7.4519987 1.3705939 509.5 0 0 0 33.013054
5.3196683 7.2593627 1.325417 495 0 0 0 34.768082
5.7703137 7.103178 1.2325262 515 0 0 0 35.549381
6.1392312 7.1842527 1.2717979 437 0 0 0 35.94928
6.6935701 7.2633018 1.328191 455.5 0 0 0 36.538803
7.3050036 7.3594804 1.3930969 319 0 0 0 37.130459
7.7512398 7.4304266 1.441691 446 0 0 0 37.520279
8.9819117 7.0445347 1.2506363 514 0 0 0 39.087994
9.5658007 7.126205 1.3056282 515 0 0 0 39.46917
10.124729 7.1592937 1.3562117 319 0 0 0 39.857327
10.905993 7.3125143 1.4342753 422 0 0 0 40.259579
11.509676 7.3109269 1.4883887 280 0 0 0 40.640751
-12.07851 7.6047449 1.4959161 158 0 0 0 8.59093
-11.996898 7.5531631 1.1442488 9 0 0 0 8.59093
-9.9703321 7.7213502 1.0232142 345 0 0 0 10.16016
-7.8139429 7.7322745 1.1634147 507 0 0 0 12.10627
-7.255631 7.5339069 1.1089326 640 0 0 0 12.49059
-6.2981753 7.9604993 1.3274394 541 0 0 0 14.05625
-5.831996 7.7473321 1.2700336 667 0 0 0 14.45535
-5.2945056 7.5873818 1.2141495 587 0 0 0 15.042535
-4.6160369 7.9967003 1.4412771 677 0 0 0 16.402149
-4.012722 7.8014379 1.3722657 636 0 0 0 17.18322
-3.743237 7.7333388 1.3452315 630 0 0 0 17.575781
-3.3646288 7.6472249 1.3101026 637 0 0 0 18.159981
-2.777046 7.5218663 1.26043 541.66669 0 0 0 19.139654
-1.2637905 7.9653988 1.4722937 481 0 0 0 22.263613
-0.76257098 7.9263411 1.4556878 498 0 0 0 23.239759
-0.4667314 7.8824301 1.4447105 458 0 0 0 23.820869
2.0973067 7.8395033 1.4922683 673 0 0 0 28.90373
4.8270969 7.5154333 1.4239962 521 0 0 0 33.794502
8.2331791 7.5090556 1.4952264 545 0 0 0 37.91256
-8.6587496 8.1679134 1.2568322 177 0 0 0 11.71837
-6.9100475 8.3164377 1.411513 342 0 0 0 13.66378
-5.0067081 8.2101364 1.4990966 727 0 0 0 16.013849
-1.7775636 8.0062771 1.4945664 514 0 0 0 21.293159
-9.5873318 8.6192646 1.358307 326 0 0 0 11.33053
-33.237904 9.2288628 1.0368413 122 0 0 0 3.91325
-13.516763 9.9760675 1.3530734 64 0 0 0 9.7728596
-44.442577 -12.30122 1.5152291 4 0 0 0 95.371101
11.625358 -11.110923 1.7418795 85 0 0 0 61.73283
12.352607 -11.237886 1.8079511 50 0 0 0 61.349087
-3.619525 -10.097816 1.9598156 52 0 0 0 80.124283
1.1698799 -9.6338797 1.7773346 6 0 0 0 72.693871
-0.84408128 -8.4397831 1.7649293 70 0 0 0 76.218765
1.7875451 -8.0476208 1.9197438 74 0 0 0 71.141312
7.2472143 -7.2850342 1.6336747 441 0 0 0 62.12558
-5.1192951 -6.5606828 1.5285639 18 0 0 0 85.215401
-3.6101172 -6.5515261 1.5606105 31.5 0 0 0 82.673119
-3.3670607 -6.6805267 1.5605555 62 0 0 0 82.08654
5.3236485 -6.3664699 1.5310743 13.5 0 0 0 63.502399
5.720006 -6.3503151 1.5761139 15 0 0 0 62.917248
6.1690636 -6.358573 1.6331408 8.5 0 0 0 62.32338
12.406225 -6.2757578 1.5160366 23 0 0 0 57.042847
-7.7067986 -5.4342461 1.8455588 716 0 0 0 89.917191
-4.1428308 -5.2037454 1.7508217 529.59998 0 0 0 85.37162
-3.7518878 -5.1908293 1.8919566 1043.25 0 0 0 84.622604
-3.2793655 -5.174746 1.7777565 859.14288 0 0 0 83.643173
-2.7432976 -5.169498 1.8435541 973 0 0 0 82.42173
-2.2935312 -5.1978054 1.7488581 722.29999 0 0 0 81.263779
-1.77369 -5.1340165 1.8760105 893.375 0 0 0 79.929482
-1.2712092 -5.1469927 1.8706121 745 0 0 0 78.483681
-0.6706903 -5.1795154 1.9116393 857.5 0 0 0 76.673523
-0.20418897 -5.2117476 1.9309121 816.625 0 0 0 75.239738
0.21119118 -5.2402639 1.9094477 732.25 0 0 0 73.969673
0.50395519 -5.2753615 1.8968838 744 0 0 0 73.083481
1.1806391 -5.3373637 1.957312 175.33333 0 0 0 71.137947
2.7578683 -5.348371 1.7588218 454.33334 0 0 0 67.006676
3.0009186 -5.3457274 1.7420481 67 0 0 0 66.435898
-13.751583 -4.5501194 1.7456155 276 0 0 0 94.601532
-6.5528445 -4.8657436 1.5011811 6 0 0 0 89.514488
7.3687811 -4.8237362 1.7356075 852.25 0 0 0 58.805603
17.431427 -4.8510523 1.7447536 222 0 0 0 53.930969
27.463949 -4.802197 1.6356078 46 0 0 0 52.362511
32.486221 -4.8599257 1.9207397 33 0 0 0 51.972912
47.330193 -4.7168136 1.6000745 25 0 0 0 51.187767
12.462045 -4.4825826 1.774232 389 0 0 0 55.103432
12.660847 -4.2053246 1.7873507 48 0 0 0 54.711658
22.248152 -4.4536891 1.9035828 14 0 0 0 52.756126
-65.876816 1.7338154 1.9461613 26 0 0 0 0
-6.0086355 3.3502619 1.7325132 796 0 0 0 7.8085999
-5.7659655 3.3034911 1.5926955 791 0 0 0 8.0086746
-5.2211132 3.3025124 1.6584295 722.33331 0 0 0 8.7215528
-4.677918 3.2801278 1.6741844 662.66669 0 0 0 9.5081129
-4.2209029 3.2469916 1.6303322 550.40002 0 0 0 10.236849
-3.7824683 3.2394013 1.6477741 399 0 0 0 11.092984
-3.3045862 3.2182536 1.6422154 410.88889 0 0 0 12.148868
-2.8056934 3.1969097 1.5564237 415.20001 0 0 0 13.432506
-2.4609995 3.185688 1.5149721 408 0 0 0 14.45535
9.4933634 3.4090457 1.8648421 680 0 0 0 44.159687
9.6215353 3.2769706 1.7103591 828.66669 0 0 0 44.416065
19.991444 3.457422 1.7085463 206 0 0 0 46.898472
29.642302 3.6272545 1.7518822 79 0 0 0 47.677929
3.846271 5.8574696 1.8178537 7 0 0 0 33.989071
19.840567 6.0131764 1.7437564 66 0 0 0 44.938759
28.097433 6.2858438 1.6898695 54 0 0 0 46.105968
7.7038479 6.8031421 1.8081646 266.33334 0 0 0 38.169941
12.211452 6.8056092 1.756265 217.33333 0 0 0 41.55727
17.531721 6.7639422 1.5830156 110 0 0 0 43.771328
25.317055 6.9881358 1.5440065 102 0 0 0 45.332432
26.705862 6.6686029 1.6168231 28 0 0 0 45.716129
32.894905 6.5125818 1.9622452 25 0 0 0 46.501919
12.146096 7.2998009 1.5457965 190 0 0 0 41.030434
17.58934 7.2882376 1.6029526 154 0 0 0 43.384781
2.3167877 7.8731389 1.5093133 417 0 0 0 29.2973
2.7343864 7.8365841 1.5274545 562.33331 0 0 0 30.075676
3.3088598 7.8754416 1.5721745 559 0 0 0 31.059114
3.822865 7.9683952 1.6263492 475.5 0 0 0 31.841221
4.3051233 7.9381866 1.6619756 472.5 0 0 0 32.62326
4.68258 7.9195881 1.6931422 595 0 0 0 33.204998
5.7258854 7.6030464 1.5161253 539.5 0 0 0 34.968281
6.2187152 7.6490664 1.5693741 600 0 0 0 35.549381
6.6590042 7.7862258 1.6298666 341 0 0 0 35.94928
7.1156282 7.9128132 1.6917546 313 0 0 0 36.340881
7.5310731 7.9679193 1.7422683 394 0 0 0 36.736721
9.3289337 7.695972 1.6204987 320 0 0 0 38.694118
9.9753942 7.8213954 1.6971686 312 0 0 0 39.087994
10.658078 7.9378214 1.7778842 341 0 0 0 39.46917
11.232173 7.9408684 1.8394409 245 0 0 0 39.857327
16.823734 7.9633136 1.5669535 155 0 0 0 42.596889
17.248814 7.6501827 1.5884788 174 0 0 0 42.987328
-10.377475 8.451169 1.7342275 19 0 0 0 10.54553
-9.612752 8.221776 1.6411349 175 0 0 0 10.93462
-5.3867178 8.3714056 1.5500906 575 0 0 0 15.62966
-3.6700974 8.3612013 1.6540176 615 0 0 0 18.159981
-3.1714702 8.3020849 1.6121995 658.5 0 0 0 18.94672
-2.6628218 8.136425 1.5556536 429 0 0 0 19.724716
-2.2036369 8.0433798 1.5177536 526 0 0 0 20.511719
-1.1250544 8.4670391 1.7674264 436 0 0 0 22.65399
-0.80446482 8.4049587 1.7488027 536 0 0 0 23.239759
-0.49274012 8.414485 1.7469087 419 0 0 0 23.820869
2.1629817 8.4801998 1.821753 447 0 0 0 28.708164
2.6193399 8.4904404 1.8503228 419 0 0 0 29.489586
5.2119327 8.1055908 1.7724351 399.5 0 0 0 33.794502
5.643672 8.1006107 1.8154758 375 0 0 0 34.376019
6.281847 8.3318958 1.917375 328.5 0 0 0 34.968281
6.8519516 8.4198561 1.9936354 380 0 0 0 35.549381
8.0618706 8.1154909 1.8166918 536 0 0 0 37.130459
8.6737547 8.3076649 1.9060292 315 0 0 0 37.520279
9.1458349 8.3352613 1.9631701 329 0 0 0 37.91256
12.395067 8.3087873 1.9925861 184 0 0 0 40.259579
16.347538 8.2370329 1.5411655 99 0 0 0 42.211567
-9.8415051 8.8467216 1.7166305 177 0 0 0 11.33053
-6.7401404 8.5275431 1.6866498 340 0 0 0 14.05625
-4.1075096 8.5046635 1.708457 652 0 0 0 17.575781
-3.8924394 8.8834352 1.9925039 475 0 0 0 18.159981
-2.5429997 8.8897152 1.9055654 210 0 0 0 20.315889
-2.1406951 8.6625223 1.8413624 525 0 0 0 20.9037
-1.6784332 8.5759125 1.8055788 412 0 0 0 21.68083
-1.3494903 8.5505981 1.7899895 481 0 0 0 22.26166
1.8434266 8.5348082 1.816512 445 0 0 0 28.12693
3.2370701 8.5697784 1.9083681 463.33334 0 0 0 30.470947
3.8540416 8.5599098 1.9559633 415.5 0 0 0 31.4492
-9.8742113 10.807199 1.9000635 26 0 0 0 12.8847
9.4434929 -11.550138 2.3529701 65 0 0 0 63.701859
8.8340101 -11.363787 2.2708635 283 0 0 0 64.088127
14.148317 -11.078082 2.3865802 24 0 0 0 60.175369
-0.76841241 -10.238898 2.1297495 149 0 0 0 75.829155
-9.4469147 -9.0003881 2.0561352 139 0 0 0 87.561234
-6.2510734 -9.3550739 2.3312223 290 0 0 0 84.036224
11.753462 -9.2079258 2.3593767 23 0 0 0 60.175369
-9.6767483 -8.7770271 2.2201612 99 0 0 0 87.942848
-8.051054 -8.8873587 2.188554 14 0 0 0 86.390442
-5.6354599 -8.8993835 2.3134055 402 0 0 0 83.640045
5.0616226 -7.619175 2.355809 62 0 0 0 65.265091
-1.2919003 -7.3873487 2.4862397 566 0 0 0 77.392036
7.2258158 -7.2627201 2.2605987 347.5 0 0 0 62.12558
-7.7616248 -5.4749088 2.3240991 540.5 0 0 0 89.917191
-4.1888089 -5.2371898 2.2274349 559.33331 0 0 0 85.410675
-3.7852347 -5.2387929 2.3060114 797.5 0 0 0 84.622604
-3.2962689 -5.2027111 2.1989267 796.88892 0 0 0 83.643707
-2.7674847 -5.1729517 2.1673176 673.66669 0 0 0 82.477592
-2.3192775 -5.1555243 2.1029 756.40002 0 0 0 81.380646
-1.7823951 -5.1617761 2.0860896 729.5 0 0 0 79.929489
-1.2342582 -5.1605611 2.0278785 698 0 0 0 78.365189
-0.84246337 -5.1770325 2.004499 827 0 0 0 77.195862
0.30776629 -5.2478147 2.0102468 708.5 0 0 0 73.675575
0.50453794 -5.2815576 2.0287955 740 0 0 0 73.083481
2.7235308 -5.3289285 2.1721547 411 0 0 0 67.068169
-13.797644 -4.5666604 2.289475 264 0 0 0 94.601532
7.3115315 -4.7845092 2.2604113 563.5 0 0 0 58.805607
17.41099 -4.8421474 2.4080722 187 0 0 0 53.930969
27.37999 -4.7825713 2.3236787 49 0 0 0 52.362511
36.131947 -4.5004544 2.1254866 39 0 0 0 51.574287
12.412997 -4.4650807 2.2579737 325 0 0 0 55.103432
12.562668 -4.1728916 2.2660403 167.5 0 0 0 54.711658
22.132254 -4.4305239 2.4431055 77 0 0 0 52.756126
-66.88298 -1.6422913 2.1848447 35 0 0 0 99.27401
-66.263947 -0.00012405532 2.164484 20 0 0 0 99.655952
9.3701582 3.3663237 2.2092245 921.5 0 0 0 44.159687
9.6423159 3.1971636 2.254384 273.5 0 0 0 44.544258
19.93609 3.4481561 2.1965284 197 0 0 0 46.898472
29.490383 3.6142919 2.4840496 37 0 0 0 47.677929
3.9056945 5.8700571 2.221993 82.75 0 0 0 34.085808
-3.7616963 6.66819 2.2286384 288 0 0 0 16.599609
7.4858766 6.8372226 2.3672788 253 0 0 0 37.91256
7.6431365 6.8056273 2.1381941 202 0 0 0 38.105598
12.271944 6.7754469 2.2243023 153.5 0 0 0 41.623573
17.50284 6.7532659 2.0373418 106 0 0 0 43.771328
26.234802 6.5565696 2.263515 45 0 0 0 45.716129
71.641129 6.9765 2.4055581 17 0 0 0 48.063099
17.398451 7.2098627 2.0446219 148 0 0 0 43.384781
25.620665 7.0770679 2.2251115 30 0 0 0 45.332432
3.1028013 7.6641936 2.2351828 1051 0 0 0 30.86768
4.4408989 7.9590015 2.2377615 428 0 0 0 32.82111
17.836979 7.9106317 2.116421 84 0 0 0 42.987328
-4.5950761 8.4306679 2.4369473 219 0 0 0 16.79707
-4.1931715 8.4079638 2.3868456 323.5 0 0 0 17.379501
-3.8198779 8.4191637 2.3503909 398 0 0 0 17.965731
17.480513 8.2735863 2.097497 247 0 0 0 42.596889
-4.2994552 8.6293831 2.2134361 192.5 0 0 0 17.379501
-3.594888 8.7740574 2.2952237 328.5 0 0 0 18.554874
-3.2022452 8.7075043 2.3616939 337 0 0 0 19.13792
-0.74509025 8.9963017 2.1988277 438.5 0 0 0 23.431629
4.3076959 8.6893787 2.0202224 418 0 0 0 32.034592
4.7181435 8.688242 2.05968 384 0 0 0 32.62326
5.1398683 8.6817636 2.1017454 366 0 0 0 33.204998
5.7064109 8.8634109 2.1951761 321 0 0 0 33.794502
7.3421049 8.5772915 2.07234 317 0 0 0 35.94928
7.8876367 8.7636595 2.16275 297 0 0 0 36.340881
10.452714 8.6170845 2.1466084 254 0 0 0 38.694118
11.225838 8.7959957 2.2583454 247 0 0 0 39.087994
16.75946 8.9679508 2.0610836 161 0 0 0 41.822472
17.250416 8.6908045 2.0944223 160 0 0 0 42.211567
-4.3329248 9.2771349 2.2276282 160.5 0 0 0 17.770756
-3.9907179 9.4259663 2.3510153 341 0 0 0 18.354231
-3.0815125 9.0674877 2.438123 278 0 0 0 19.52552
-0.97304893 9.0496635 2.1044023 119 0 0 0 23.04789
1.1874431 9.3015966 2.1751966 234.5 0 0 0 26.757931
1.6758983 9.4008751 2.2160354 99 0 0 0 27.5445
2.0561831 9.488039 2.2533784 56 0 0 0 28.12693
6.4849644 9.2936716 2.3575239 279 0 0 0 34.376019
8.5714207 9.0592813 2.2859011 280 0 0 0 36.736721
9.1774511 9.2296972 2.3845947 240 0 0 0 37.130459
2.3679695 9.7475386 2.3278649 92 0 0 0 28.5126
2.9174991 9.8561907 2.3860047 60 0 0 0 29.2973
3.0725875 9.5186348 2.3235168 235 0 0 0 29.68187
-5.2989445 10.362192 2.0983763 57 0 0 0 17.18322
-2.0724962 10.002305 2.3542385 10 0 0 0 21.486469
-1.8327295 10.087247 2.3637769 23 0 0 0 21.875191
2.7508097 10.203012 2.4511445 139 0 0 0 28.90373
-13.524619 12.80827 2.4076402 116 0 0 0 11.71837
-13.697568 13.626548 2.4975557 149 0 0 0 12.10627
-75.433731 -31.246647 2.6528788 7 0 0 0 93.420349
15.181092 -11.295377 2.5117021 33 0 0 0 59.786781
15.64339 -11.052995 2.5426044 28 0 0 0 59.397861
-19.315741 -10.335901 2.8895831 95 0 0 0 91.856606
-19.377048 -9.7649384 2.862577 80 0 0 0 92.240631
13.846892 -9.7868891 2.675395 6 0 0 0 59.397861
-19.587004 -9.2752838 2.8593447 11 0 0 0 92.625374
-6.2674727 -9.3831577 2.7523336 247.5 0 0 0 84.036224
-2.2643521 -9.0161371 2.8449032 442 0 0 0 78.561325
2.7634821 -9.174962 2.9353158 52 0 0 0 69.965637
11.389028 -9.3830938 2.6975002 188 0 0 0 60.560593
-20.610958 -8.5487928 2.9433501 13 0 0 0 93.420349
-16.602699 -8.8846722 2.9545426 54 0 0 0 91.856606
-9.7110186 -8.8081083 2.7125556 167 0 0 0 87.942848
-20.468021 -7.9066343 2.8951364 96 0 0 0 93.809509
-20.386473 -7.3054495 2.8580329 42 0 0 0 94.204163
7.1921277 -7.228044 2.7526202 241.5 0 0 0 62.12558
-7.8858385 -5.4193206 2.8135374 316 0 0 0 90.111603
-4.8504677 -5.3596954 2.5758495 66 0 0 0 86.390442
-4.1165705 -5.2807579 2.551439 725 0 0 0 85.215401
7.1783209 -5.0851316 2.9280663 43 0 0 0 59.397861
-13.867339 -4.589695 2.6624115 234 0 0 0 94.601532
7.2647924 -4.7529898 2.7831807 430.5 0 0 0 58.805607
17.374203 -4.8319755 2.8502734 207 0 0 0 53.930969
27.257034 -4.7610927 2.9865711 54 0 0 0 52.362511
32.317539 -4.8288827 2.7255199 19 0 0 0 51.972912
47.233334 -4.7069879 2.7599421 33 0 0 0 51.187767
-14.120271 -4.2917976 2.6897507 179 0 0 0 94.998001
12.39501 -4.2870188 2.7321947 305.5 0 0 0 54.907547
87.58448 -0.09745083 2.9179614 6 0 0 0 49.627808
80.937347 1.896848 2.7004499 8 0 0 0 49.235207
9.2638407 3.3297191 2.6718874 800.5 0 0 0 44.159687
19.872055 3.4409728 2.6868222 272 0 0 0 46.898472
42.850586 3.115274 2.5036392 20 0 0 0 48.455818
9.3578224 3.626462 2.7227118 344 0 0 0 43.771328
77.745193 3.7329264 2.5979204 17 0 0 0 48.8507
12.902462 5.7333426 2.5920362 86 0 0 0 42.987328
-3.721595 6.6558251 2.6860695 187 0 0 0 16.662506
7.4160075 6.7746544 2.7181878 228 0 0 0 37.91256
12.227588 6.8168073 2.6843555 127.33334 0 0 0 41.55727
2.8715403 7.6431189 2.9129751 60 0 0 0 30.472031
3.2320845 7.623251 2.8199794 47.333332 0 0 0 31.122925
4.3619761 7.8226647 2.7529953 389 0 0 0 32.82111
17.902786 7.9439659 2.6071048 19 0 0 0 42.987328
-4.0516238 8.3789349 2.5946636 91 0 0 0 17.575781
-3.645792 8.2976551 2.529047 424 0 0 0 18.159981
-3.3273592 8.3986759 2.5223455 352 0 0 0 18.75552
17.601543 8.3349638 2.5920396 78 0 0 0 42.596889
-3.1430974 8.5407381 2.5419686 389 0 0 0 19.13792
-2.998749 8.8151789 2.6013536 439 0 0 0 19.52552
-0.74664235 8.9913349 2.8643088 329.5 0 0 0 23.431629
-3.6994545 9.3662224 2.5603771 169 0 0 0 18.75552
-0.74610329 9.0024166 2.5347643 339 0 0 0 23.431629
2.4268699 9.985445 2.8917494 309 0 0 0 28.5126
10.112828 9.6759758 2.5618236 160 0 0 0 37.520279
12.902406 9.5998087 2.5420458 129 0 0 0 39.46917
2.2439685 10.324745 2.8381112 194 0 0 0 28.12693
2.7268293 10.11891 2.8190184 265.5 0 0 0 28.90373
6.1823068 10.422688 2.8136194 233 0 0 0 33.204998
16.335634 10.36422 2.5719628 86 0 0 0 40.640751
16.890951 10.141418 2.6191828 145 0 0 0 41.030434
4.117043 10.85493 2.9777701 214 0 0 0 30.472031
8.9100485 10.923986 2.924382 36 0 0 0 35.549381
3.9311552 11.182867 2.7474148 86 0 0 0 30.07313
4.2646489 11.235621 2.7856743 162 0 0 0 30.472031
4.7305536 11.191664 2.8173318 174.5 0 0 0 31.059114
5.3205085 11.391225 2.914753 70 0 0 0 31.64785
5.672225 11.400656 2.9523654 107 0 0 0 32.034592
-2.3482828 -15.762619 3.2873633 40 0 0 0 76.999695
-1.9512854 -15.73348 3.2705317 35 0 0 0 76.605949
-4.5590105 -15.007579 3.235961 14 0 0 0 79.339645
-3.7902503 -15.10053 3.2122552 10 0 0 0 78.561325
-3.2458375 -15.296016 3.2263048 35 0 0 0 77.970901
-2.6916587 -15.457302 3.2369633 45 0 0 0 77.392036
-5.2145214 -14.558749 3.1910412 6 0 0 0 80.124283
-4.827374 -14.594644 3.1721749 36 0 0 0 79.737961
-4.125679 -14.882376 3.1866851 47 0 0 0 78.957634
-5.5552087 -14.389147 3.1828949 24 0 0 0 80.516045
9.9651241 -13.482683 3.4664862 184 0 0 0 64.481445
28.68639 -12.758412 3.3768151 15 0 0 0 56.270142
39.848335 -12.134643 3.4596069 15 0 0 0 54.31596
-18.41577 -11.672895 3.4149127 39 0 0 0 90.692848
21.599091 -11.579884 3.2459838 14 0 0 0 57.43837
-18.968153 -11.380496 3.4642346 22 0 0 0 91.082703
-18.76491 -10.64147 3.3794851 74 0 0 0 91.475212
-15.973239 -10.683185 3.4891238 136 0 0 0 90.30603
-39.111488 -9.8064289 3.3208232 34 0 0 0 95.764099
3.1446164 -9.5799589 3.0873058 46 0 0 0 69.572014
13.84955 -9.7889423 3.0963023 34 0 0 0 59.397861
21.680391 -9.6426134 3.1458139 42 0 0 0 56.270142
1.3664358 -9.3091793 3.3442283 39 0 0 0 72.312416
2.7228296 -9.04704 3.1282992 71 0 0 0 69.965637
3.0786464 -9.3809032 3.3882411 86 0 0 0 69.572014
11.328886 -9.3323069 3.2246356 224 0 0 0 60.560593
21.961037 -9.1281586 3.1536186 28 0 0 0 55.86935
-19.764122 -8.7720947 3.3882761 81 0 0 0 93.023422
-16.725105 -8.9501448 3.4455321 76 0 0 0 91.856606
-9.8857307 -8.9696941 3.2519088 156.5 0 0 0 87.942848
-19.651527 -7.5913658 3.3023891 55 0 0 0 93.809509
-20.089972 -7.1992364 3.3451145 81 0 0 0 94.204163
7.1910396 -7.2246532 3.1297383 151 0 0 0 62.12558
-20.155973 -6.1248264 3.3028831 63 0 0 0 94.998001
-15.697869 -6.0648303 3.0616045 114 0 0 0 93.809509
-7.2737141 -6.28654 3.4168236 98 0 0 0 88.342117
-7.7652068 -5.5738215 3.2425091 379.66666 0 0 0 89.782959
-7.3471451 -5.7459669 3.3162925 450 0 0 0 89.118736
25.502924 -5.7541575 3.4670885 22 0 0 0 53.149578
-12.07812 -5.3647513 3.3843865 58 0 0 0 93.023422
-7.9579945 -5.328095 3.2871637 413 0 0 0 90.30603
6.9058795 -5.1485996 3.2907746 574 0 0 0 59.786781
17.450432 -5.3184967 3.3349383 13 0 0 0 54.31596
-13.762742 -4.6833596 3.2446556 244.33333 0 0 0 94.469078
7.1818409 -4.8240323 3.2006891 434.66666 0 0 0 59.003021
11.982886 -4.6444707 3.3089325 352 0 0 0 55.483673
12.606289 -4.5320644 3.4478984 183 0 0 0 55.103432
17.299095 -4.811172 3.2835414 132 0 0 0 53.930969
37.026653 -4.6050611 3.1072121 27 0 0 0 51.574287
-14.551723 -4.0353947 3.1231558 227 0 0 0 95.371101
-14.076212 -4.2797337 3.22333 151 0 0 0 94.998001
-11.365177 -4.076529 3.3955228 76 0 0 0 94.204163
12.313433 -4.2563877 3.0340862 373 0 0 0 54.907547
21.652351 -4.3306947 3.4824069 175 0 0 0 52.756126
55.570393 -4.162209 3.2341092 8 0 0 0 50.80352
12.447705 -3.795387 3.3515673 411 0 0 0 54.31596
-38.335308 -1.8906437 3.1642988 15 0 0 0 98.890282
15.707522 1.540411 3.2846026 36 0 0 0 48.063099
-8.794733 2.6415446 3.3076825 443.5 0 0 0 4.3035898
8.9327135 3.2157164 3.4020832 611 0 0 0 44.159687
9.1259766 3.1969812 3.1454556 527.33331 0 0 0 44.287876
19.793043 3.4276133 3.1746531 160 0 0 0 46.898472
9.287158 3.6006489 3.1974106 352.5 0 0 0 43.771328
29.590059 3.6268399 3.2176952 9 0 0 0 47.677929
7.2664766 6.8068328 3.1886539 112.25 0 0 0 37.716419
12.223237 6.9500318 3.2722187 149 0 0 0 41.424671
2.861953 7.6191554 3.1036916 170 0 0 0 30.472031
4.3138275 7.7447186 3.2744188 114.5 0 0 0 32.82111
4.59585 7.789712 3.4504695 72 0 0 0 33.204998
10.650387 7.9375658 3.4180279 104 0 0 0 39.46917
3.3930717 8.3753414 3.2206309 166 0 0 0 30.86768
-0.74312103 8.901372 3.2735081 216.5 0 0 0 23.431629
9.9277554 8.6105509 3.05636 553 0 0 0 38.298634
10.053778 8.7196989 3.4223914 42 0 0 0 38.298634
-0.9851923 9.1175423 3.4713604 151 0 0 0 23.04789
3.06249 10.336055 3.0335429 254 0 0 0 29.2973
6.1595097 10.386041 3.2512755 190 0 0 0 33.204998
4.0710826 10.737249 3.2314558 151 0 0 0 30.472031
5.4112697 10.885113 3.4217808 110 0 0 0 32.034592
5.6690755 10.731811 3.417315 212 0 0 0 32.425411
8.8642693 10.872956 3.2545953 46 0 0 0 35.549381
14.676959 10.914215 3.339292 118 0 0 0 39.46917
16.81308 10.666641 3.1398256 60 0 0 0 40.640751
3.8943334 11.081526 3.0115108 33 0 0 0 30.07313
4.8505654 11.097497 3.1063859 170 0 0 0 31.250549
5.2414589 11.225472 3.1774576 79 0 0 0 31.64785
5.6266789 11.311388 3.2401948 161 0 0 0 32.034592
14.313448 11.201969 3.3178589 137 0 0 0 39.087994
16.558157 11.085811 3.1414573 114 0 0 0 40.259579
14.143432 11.641303 3.3426926 138 0 0 0 38.694118
16.536118 11.669956 3.1893167 138 0 0 0 39.857327
7.6321702 12.151172 3.3248003 112 0 0 0 33.59993
8.2109766 12.380439 3.4414296 78 0 0 0 33.989071
9.7282658 13.190307 3.3919525 60 0 0 0 34.776421
-17.755171 18.584494 3.3158188 38 0 0 0 12.49059
-12.654802 18.835094 3.4995632 58 0 0 0 15.23358
-31.701801 22.320587 3.0849104 16 0 0 0 9.3757401
-33.719471 22.53013 3.2239377 14 0 0 0 8.9827995
17.162683 -16.382526 3.7239459 41 0 0 0 61.73283
-7.8048019 -13.781683 3.655334 50 0 0 0 82.873352
9.9551439 -13.464599 3.8724082 147 0 0 0 64.481445
22.115541 -11.856447 3.9444261 34 0 0 0 57.43837
-18.53702 -10.512276 3.8662832 57 0 0 0 91.475212
-15.899799 -10.634081 3.943749 98 0 0 0 90.30603
-9.2923899 -10.781032 3.9917316 15 0 0 0 86.00045
-16.680607 -10.287998 3.5583253 108.5 0 0 0 90.887772
-15.925354 -10.0948 3.8881919 73 0 0 0 90.692848
-9.403141 -10.383628 3.5816927 24 0 0 0 86.390442
3.5765479 -10.059165 3.5313861 41 0 0 0 69.184578
2.8265281 -9.8037281 3.7498271 25 0 0 0 70.158661
3.6897051 -9.6160879 3.6609485 19 0 0 0 68.79113
11.093195 -9.6033678 3.7636614 11 0 0 0 60.955273
13.883881 -9.8133183 3.5228076 129 0 0 0 59.397861
-16.718672 -9.2119846 3.9367571 33.5 0 0 0 91.665909
-11.509187 -9.4565516 3.8077528 7 0 0 0 88.726189
-9.924325 -9.0047054 3.7610841 177 0 0 0 87.942848
-9.0115995 -9.4738245 3.6699545 15 0 0 0 86.785744
2.2681878 -9.1231747 3.572829 51 0 0 0 70.748314
3.1703708 -9.2695627 3.7235079 42.5 0 0 0 69.378296
3.5353951 -9.2168341 3.7520528 44 0 0 0 68.79113
-19.56045 -8.6817255 3.8834307 49 0 0 0 93.023422
2.6940773 -8.9416094 3.5501046 95 0 0 0 69.965637
32.343407 -8.1402836 3.5900958 22 0 0 0 53.538887
-20.490946 -7.3428307 3.9500005 75 0 0 0 94.204163
28.106943 -7.0703497 3.8386366 22 0 0 0 53.538887
-15.664205 -6.4979286 3.5019672 26 0 0 0 93.420349
-15.35973 -6.3748302 3.8418405 85 0 0 0 93.420349
-7.8766403 -5.5601048 3.6634953 152 0 0 0 89.917191
-7.3079343 -5.7153158 3.5258842 360 0 0 0 89.118736
-13.744396 -5.3133111 3.7701175 65 0 0 0 93.809509
-10.837888 -5.1385274 3.6672897 50 0 0 0 92.625374
-9.0223932 -5.4215369 3.9975474 39 0 0 0 91.082703
-8.3649254 -5.310143 3.5218418 103 0 0 0 90.692848
-7.9300656 -5.3114171 3.6272447 391 0 0 0 90.30603
17.024742 -5.1891313 3.6934576 189 0 0 0 54.31596
22.421217 -5.0601048 3.6228302 62 0 0 0 53.149578
-12.124058 -4.688571 3.812398 90.5 0 0 0 93.809509
-11.907494 -4.9440951 3.7811637 90.5 0 0 0 93.420349
11.814691 -4.8037286 3.8111937 120 0 0 0 55.740795
12.633499 -4.5418663 3.7896805 278 0 0 0 55.103432
17.275625 -4.8046923 3.7213073 177 0 0 0 53.930969
32.301147 -4.8263645 3.5185928 32 0 0 0 51.972912
-15.945659 -4.4246016 3.8241994 74 0 0 0 95.371101
-13.583429 -4.4983926 3.6623893 356 0 0 0 94.601532
42.659863 -4.2440038 3.5648603 47 0 0 0 51.187767
-14.33657 -3.6018484 3.7830286 12 0 0 0 95.764099
12.355551 -3.7650917 3.9673679 319 0 0 0 54.31596
12.546725 -3.8255033 3.7046993 128 0 0 0 54.31596
22.247898 -3.8835766 3.5612631 131 0 0 0 52.362511
-8.8681316 -3.4331229 3.6164742 101 0 0 0 93.809509
12.552654 -3.4922705 3.6807287 364 0 0 0 53.930969
-11.527176 -2.7467122 3.9191284 49 0 0 0 95.954681
-9.043046 -2.7549648 3.5961747 109 0 0 0 94.998001
-11.51663 -2.2994797 3.8844764 22 0 0 0 96.537712
-66.731682 -1.6383922 3.814342 21 0 0 0 99.27401
-36.759087 -1.8128564 3.9299347 29 0 0 0 98.890282
10.432945 -1.5560111 3.7722578 56 0 0 0 51.972912
-36.554367 -0.90398055 3.9048831 72 0 0 0 99.27401
-9.9591188 -0.99103981 3.5620103 60 0 0 0 98.105087
11.111839 -0.54992056 3.9774787 38 0 0 0 50.403526
12.772554 -0.004307617 3.9281878 43 0 0 0 49.627808
-12.32745 0.31796151 3.9926493 211 0 0 0 0
-9.5610046 1.4108531 3.5955901 36 0 0 0 1.95877
11.654406 1.146973 3.8971727 122 0 0 0 48.063099
-9.7635889 1.8077593 3.573961 133.5 0 0 0 2.5441351
15.046644 1.8539197 3.9026191 31 0 0 0 47.677929
10.678053 2.4085331 3.9158528 32 0 0 0 46.105968
-9.3120823 2.5542178 3.5951207 136 0 0 0 3.91325
10.315117 2.8686194 3.8309069 116 0 0 0 45.332432
-11.692641 3.2196374 3.9306648 143 0 0 0 3.91325
8.9690208 3.4813545 3.6836889 263 0 0 0 43.771328
9.0892162 3.2719023 3.6987467 242 0 0 0 44.159687
9.9576197 3.3071256 3.7549074 228 0 0 0 44.544258
19.72633 3.4163756 3.660929 101 0 0 0 46.898472
20.626356 3.0512946 3.8111038 17 0 0 0 47.279541
42.75 3.115917 3.5663455 32 0 0 0 48.455818
9.2737894 3.5986481 3.5620072 551 0 0 0 43.771328
19.779858 3.9291136 3.6873379 41 0 0 0 46.501919
7.0772691 6.8014441 3.6278019 108.5 0 0 0 37.520279
46.841354 6.90836 3.9354455 7 0 0 0 47.279541
12.31717 7.0036073 3.6461403 114 0 0 0 41.424671
10.680927 7.9607043 3.759841 109 0 0 0 39.46917
35.200775 7.8794508 3.8844109 5 0 0 0 46.105968
3.9030256 8.4116068 3.5332675 49 0 0 0 31.64785
9.7503958 8.4588709 3.642597 42 0 0 0 38.298634
5.0835981 8.6026545 3.5620177 82 0 0 0 33.204998
3.6739485 9.0542917 3.719063 45 0 0 0 30.86768
6.9071884 9.9025488 3.7008853 122 0 0 0 34.376019
5.1761975 10.424248 3.5646849 228 0 0 0 32.034592
6.1454382 10.366414 3.8416429 134.5 0 0 0 33.204998
5.3458133 10.757307 3.9756088 13 0 0 0 32.034592
5.6891747 10.774867 3.7307835 161 0 0 0 32.425411
8.7767248 10.767605 3.7376516 82.5 0 0 0 35.549381
13.717505 13.102876 3.9251349 57 0 0 0 37.520279
10.556981 13.594897 3.560848 45 0 0 0 35.160141
11.81502 13.75446 3.7502503 62 0 0 0 35.94928
-11.082458 18.369303 3.8422096 51 0 0 0 16.013849
6.4044304 -16.659369 4.119328 91 0 0 0 68.79113
5.800602 -16.271215 4.4117537 168 0 0 0 69.184578
6.254662 -16.271704 4.4522433 109 0 0 0 68.79113
6.6817904 -16.186155 4.4725986 185 0 0 0 68.397858
-7.5510306 -15.004236 4.2866025 63 0 0 0 82.08654
23.887993 -14.356156 4.3750324 16 0 0 0 58.223938
29.891106 -14.175904 4.3698535 16 0 0 0 56.651459
-7.4442739 -13.930396 4.0327559 79 0 0 0 82.472885
9.8611679 -13.338169 4.2438688 131 0 0 0 64.481445
-11.997335 -12.008884 4.3337922 18 0 0 0 87.18029
-1.5002865 -12.086612 4.0190058 22 0 0 0 76.605949
20.765305 -11.134072 4.2901359 15 0 0 0 57.43837
-18.017 -10.809999 4.3291411 46 0 0 0 91.082703
-16.075333 -10.193763 4.3907232 50 0 0 0 90.692848
-15.521904 -10.385331 4.3082681 103 0 0 0 90.30603
-9.2854729 -10.257272 4.2214441 41 0 0 0 86.390442
13.828327 -10.288513 4.4164281 99 0 0 0 59.786781
-16.30755 -9.7885532 4.3874965 87 0 0 0 91.082703
-12.185892 -9.5216875 4.3361726 81 0 0 0 89.118736
-11.121162 -9.6057491 4.301507 43 0 0 0 88.342117
-8.9288864 -9.8598862 4.3885961 19 0 0 0 86.390442
11.007102 -9.5292616 4.0970278 169 0 0 0 60.955273
12.13406 -9.5026436 4.3361669 18 0 0 0 60.175369
14.062387 -9.9358282 4.4126377 53 0 0 0 59.397861
23.886152 -9.9269352 4.0676045 20 0 0 0 55.86935
-17.079924 -9.1437597 4.4689589 26 0 0 0 91.856606
-12.271441 -9.1128902 4.2864041 16 0 0 0 89.514488
-11.463011 -9.4186182 4.1610007 115 0 0 0 88.726189
-9.9579487 -9.0367899 4.2710061 128.5 0 0 0 87.942848
10.959984 -9.4854355 4.4361138 160 0 0 0 60.955273
-19.238636 -8.5389433 4.3379874 37 0 0 0 93.023422
22.827202 -8.8368502 4.4588556 25 0 0 0 55.483673
-20.376194 -8.4514351 4.0021544 41 0 0 0 93.420349
-16.968611 -8.0394726 4.3328338 36 0 0 0 92.625374
-19.871853 -7.676404 4.3905139 22 0 0 0 93.809509
-17.321489 -7.6920257 4.3733406 68 0 0 0 93.023422
-8.2974815 -7.7217398 4.3003035 55.5 0 0 0 87.752045
9.1710806 -7.1845632 4.4355059 51 0 0 0 60.175369
17.359056 -7.2158761 4.3576298 43 0 0 0 55.86935
-18.407291 -6.5965295 4.0330377 73 0 0 0 94.204163
-13.75346 -6.1083412 4.2228942 47 0 0 0 93.023422
-9.9468307 -6.3137012 4.4702506 41 0 0 0 90.692848
31.330772 -6.2623162 4.2288604 17 0 0 0 52.756126
-9.6759729 -5.814014 4.0082769 33 0 0 0 91.082703
31.606201 -5.5137239 4.2468548 24 0 0 0 52.362511
9.0580549 -5.4527054 4.0322309 38 0 0 0 58.223938
16.937267 -5.1593471 4.1088481 186 0 0 0 54.31596
22.464836 -5.0699325 4.2009339 43 0 0 0 53.149578
-15.199067 -4.6222672 4.0625687 40 0 0 0 94.998001
-13.606876 -4.5061364 4.0247669 136 0 0 0 94.601532
-13.400558 -4.8085432 4.3478441 196 0 0 0 94.204163
-11.346101 -4.8727531 4.0806465 87.5 0 0 0 93.221886
11.725266 -4.879993 4.2146292 106 0 0 0 55.86935
12.657196 -4.6675191 4.3637395 138 0 0 0 55.230179
17.046852 -4.7380519 4.1064701 179 0 0 0 53.930969
22.752634 -4.5502729 4.2327394 96 0 0 0 52.756126
32.041229 -4.7817912 4.2883472 61 0 0 0 51.972912
37.333286 -4.6430345 4.0476413 32 0 0 0 51.574287
-13.634568 -4.2708831 4.2468963 81 0 0 0 94.865845
17.547741 -4.4152884 4.1992321 148 0 0 0 53.538887
27.213446 -4.0623155 4.3303385 22 0 0 0 51.972912
32.492657 -4.0359378 4.3342433 30 0 0 0 51.574287
-14.286671 -3.589304 4.1360149 143 0 0 0 95.764099
-12.812966 -3.7280724 4.4084759 54.5 0 0 0 95.184555
12.369781 -3.7718086 4.2930293 202 0 0 0 54.31596
12.681456 -3.5268135 4.2059069 240.5 0 0 0 53.930969
37.512524 -3.7323682 4.0562949 19 0 0 0 51.187767
-15.509013 -3.4937036 4.4611516 48 0 0 0 96.145264
-14.214229 -3.2048686 4.4502711 162 0 0 0 96.145264
-12.204348 -3.0711031 4.4682503 199 0 0 0 95.764099
12.442807 -3.1341963 4.2610064 199 0 0 0 53.538887
13.847555 -3.4841504 4.3822894 45 0 0 0 53.538887
15.473042 -3.4924166 4.4725032 51 0 0 0 53.149578
21.861917 -3.2648189 4.0351195 39 0 0 0 51.972912
31.906399 -3.1695545 4.2456312 47 0 0 0 51.187767
-12.03904 -2.7170699 4.3829069 71 0 0 0 96.145264
13.267894 -2.654866 4.4917665 117 0 0 0 52.756126
28.318665 -2.8135898 4.4782267 23 0 0 0 51.187767
-12.187558 -2.4376783 4.4138641 47 0 0 0 96.537712
-10.58873 -2.1182468 4.1041293 69 0 0 0 96.537712
12.410053 -2.1630878 4.4953742 271 0 0 0 52.362511
28.258362 -2.107909 4.4596887 13 0 0 0 50.80352
10.992168 -1.9168751 4.2616582 41 0 0 0 52.362511
13.365144 -1.3277391 4.460568 19 0 0 0 51.187767
40.51659 -1.0325555 4.3592587 21 0 0 0 50.017879
-14.688581 -0.72992408 4.1310921 73 0 0 0 98.890282
12.495761 -0.9271096 4.473268 59 0 0 0 50.80352
13.640079 -0.67701823 4.1964021 28 0 0 0 50.403526
-13.147749 -0.16899297 4.3470302 31 0 0 0 99.464981
11.85406 -0.0017511807 4.2353902 111 0 0 0 49.627808
12.360579 -0.0062430101 4.1100078 79 0 0 0 49.627808
13.655829 -0.3410069 4.1976547 53 0 0 0 50.017879
17.327812 -0.0091100801 4.4532948 18 0 0 0 49.627808
-12.742588 0.32463363 4.4361529 83 0 0 0 0
-11.790326 0.30033487 4.38906 66 0 0 0 0
11.738722 0.28766319 4.1961403 79 0 0 0 49.235207
12.765762 0.30814713 4.2446351 40 0 0 0 49.235207
-12.222327 0.75809193 4.2620716 43 0 0 0 0.59173
-11.42232 0.84659678 4.2624722 83 0 0 0 0.78915
10.878985 0.53543091 4.1641922 28 0 0 0 48.8507
11.359486 0.8400209 4.0722961 36 0 0 0 48.455818
12.336277 0.7048375 4.2114501 26.333334 0 0 0 48.719074
18.041571 0.87897664 4.1959457 27 0 0 0 48.8507
-11.897113 1.319702 4.4561567 7.5 0 0 0 1.371145
11.745065 1.4518961 4.2262287 48.333332 0 0 0 47.677929
-12.092789 1.7890369 4.2555346 85 0 0 0 1.95877
11.357446 1.6910127 4.3878736 45 0 0 0 47.279541
11.605591 1.7276312 4.193831 52 0 0 0 47.279541
26.627094 1.9476883 4.2055273 26 0 0 0 48.455818
38.920673 1.8778902 4.1932945 5 0 0 0 48.8507
-13.59516 2.1872039 4.4614115 15 0 0 0 2.1512051
12.130533 2.1122825 4.3986149 64 0 0 0 46.898472
-13.261879 2.9700069 4.4040675 21 0 0 0 3.12762
-11.652776 2.6022973 4.1577315 25 0 0 0 3.12762
-11.423955 2.8439062 4.3849173 51 0 0 0 3.51525
21.39411 2.6289182 4.4699998 45 0 0 0 47.677929
-12.496922 3.1136954 4.486062 41 0 0 0 3.51525
-11.781279 3.2399402 4.256268 83 0 0 0 3.91325
10.032471 3.3320611 4.0430708 245 0 0 0 44.544258
11.117293 3.3880212 4.1540437 69 0 0 0 44.938759
13.034725 3.2740638 4.131639 43 0 0 0 45.716129
18.992842 3.2936573 4.475214 110 0 0 0 46.898472
19.55871 3.3877053 4.1198835 86 0 0 0 46.898472
20.642328 3.0539236 4.3287516 113 0 0 0 47.279541
12.699008 3.5229127 4.3794951 46 0 0 0 45.332432
13.483005 3.7417183 4.2994504 76 0 0 0 45.332432
39.85733 3.8919957 4.3087382 9 0 0 0 48.063099
-14.004058 4.2294269 4.3845148 10 0 0 0 4.3035898
12.615192 4.1816483 4.0855455 21 0 0 0 44.544258
32.716255 4.8342328 4.3798127 16 0 0 0 47.279541
71.575943 6.9709487 4.1651902 13 0 0 0 48.063099
12.438564 7.0727315 4.0383549 105 0 0 0 41.424671
12.530606 7.1281524 4.4241204 81 0 0 0 41.424671
8.0780458 8.1449146 4.2320914 16 0 0 0 37.130459
30.371416 8.3933029 4.1734514 7 0 0 0 45.332432
7.7399168 8.6149025 4.4119468 25 0 0 0 36.340881
10.11759 8.7789383 4.1088648 26 0 0 0 38.298634
11.597333 8.6432896 4.4353061 23 0 0 0 39.46917
6.3071785 9.7151661 4.2196126 91.666664 0 0 0 33.859356
-5.777163 10.030842 4.3501282 21 0 0 0 16.402149
5.2878122 10.652464 4.2285666 168 0 0 0 32.034592
5.6793132 10.762919 4.32688 201 0 0 0 32.425411
6.6671381 10.632847 4.1550708 76 0 0 0 33.59993
8.567131 10.514453 4.4906111 20 0 0 0 35.549381
8.6704292 11.193069 4.3339252 39 0 0 0 35.160141
13.70161 13.093222 4.386332 19 0 0 0 37.520279
11.792887 13.734671 4.1882448 78 0 0 0 35.94928
14.097237 14.141921 4.1284094 22 0 0 0 37.130459
13.142584 14.552425 4.0528793 81 0 0 0 36.340881
13.76043 14.500959 4.1319509 100 0 0 0 36.736721
-10.218266 18.980074 4.3922234 59 0 0 0 16.79707
-5.3116021 18.913055 4.4974351 105 0 0 0 20.315889
-4.8170338 18.921743 4.4716692 60 0 0 0 20.70755
-9.6402998 19.006187 4.3441744 66 0 0 0 17.18322
-5.884078 19.155884 4.096375 84 0 0 0 19.92391
-4.3439393 19.001383 4.4654174 91 0 0 0 21.09985
-32.191246 21.504961 4.0165586 12 0 0 0 8.9827995
-17.854918 21.682167 4.3188791 24 0 0 0 13.66378
-31.648516 22.282055 4.0172524 14 0 0 0 9.3757401
-31.293674 23.199261 4.0445867 14 0 0 0 9.7728596
-17.123896 23.006514 4.4129267 61 0 0 0 14.45535
-16.752625 23.700136 4.4672918 59 0 0 0 14.85149
22.865364 -20.768518 4.8377771 14 0 0 0 61.349087
12.577324 -19.912724 4.8526177 28 0 0 0 65.659607
24.979713 -18.568535 4.8780146 9 0 0 0 59.786781
6.2991676 -16.387463 4.9198527 81 0 0 0 68.79113
7.1454239 -16.172667 4.516058 111 0 0 0 68.007912
7.5489507 -16.011988 4.5219388 5 0 0 0 67.609299
7.3992381 -15.69592 4.864471 8 0 0 0 67.609299
-7.8428516 -14.676813 4.6602321 25 0 0 0 82.472885
9.5670834 -13.627295 4.6730165 106 0 0 0 64.878075
9.8656082 -13.344444 4.6583843 60 0 0 0 64.481445
23.055595 -13.097927 4.8223376 22 0 0 0 57.835598
20.080553 -12.072145 4.8421879 27 0 0 0 58.223938
-12.283487 -11.706665 4.7537198 11 0 0 0 87.561234
-11.820106 -11.831492 4.6855221 67 0 0 0 87.18029
-11.087605 -11.660384 4.9044437 57 0 0 0 86.785744
-11.783794 -11.234402 4.9626217 71 0 0 0 87.561234
-11.465201 -11.480265 4.9454184 98 0 0 0 87.18029
-14.520411 -10.78248 4.6167364 107 0 0 0 89.514488
-9.0663376 -10.51873 4.5799766 11 0 0 0 86.00045
-15.223397 -10.18567 4.6756935 48 0 0 0 90.30603
14.176257 -10.01625 4.879941 53 0 0 0 59.397861
-20.274235 -9.6005526 4.6206999 75 0 0 0 92.625374
-15.436285 -9.7886629 4.6662264 62 0 0 0 90.692848
23.947647 -9.9525881 4.7208591 50 0 0 0 55.86935
-18.421551 -9.2876101 4.7569523 38 0 0 0 92.240631
-15.268445 -9.1650562 4.9895945 47 0 0 0 91.082703
-12.364466 -9.1852961 4.697885 52 0 0 0 89.514488
-11.706945 -9.3827581 4.5767031 100.5 0 0 0 88.922462
-11.470295 -9.4246044 4.8956928 87 0 0 0 88.726189
-9.9866962 -9.0676413 4.7813272 45 0 0 0 87.942848
-8.0954075 -9.3987474 4.7019835 23 0 0 0 86.00045
8.9542561 -9.4365435 4.9436593 85 0 0 0 62.521179
10.930099 -9.463172 4.7830687 138 0 0 0 60.955273
12.630193 -9.39639 4.8166018 15 0 0 0 59.786781
16.845539 -9.0330877 4.8976965 32 0 0 0 57.43837
-17.435802 -8.7908239 4.9836626 26 0 0 0 92.240631
17.023275 -8.597002 4.8872652 18 0 0 0 57.042847
19.246082 -8.5585041 4.8767681 51 0 0 0 56.270142
-17.533594 -8.3070154 4.9523234 48 0 0 0 92.625374
-18.462543 -7.1359529 4.5663877 62 0 0 0 93.809509
-17.661953 -7.329741 4.8820248 67 0 0 0 93.420349
-12.360049 -6.6179996 4.6273875 42 0 0 0 91.856606
-12.365439 -6.235539 4.5714154 66 0 0 0 92.240631
15.920639 -6.1653361 4.8070478 130 0 0 0 55.483673
25.109808 -6.3176904 4.7174106 22 0 0 0 53.538887
17.38637 -5.7663937 4.699615 29 0 0 0 54.711658
-13.522015 -5.2273726 4.7850747 14 0 0 0 93.809509
-12.140116 -5.2188892 4.8495588 94 0 0 0 93.221886
-13.856714 -4.588778 4.8182464 23 0 0 0 94.601532
-13.210887 -4.7404823 4.8037343 112 0 0 0 94.204163
-12.385878 -4.7934413 4.712141 22 0 0 0 93.809509
11.632244 -4.8367481 4.6452055 116 0 0 0 55.86935
12.308231 -4.7654519 4.8646183 29 0 0 0 55.483673
12.664798 -4.5482407 4.7951679 142 0 0 0 55.103432
17.188419 -4.7773261 4.5792794 88 0 0 0 53.930969
22.637972 -4.5273743 4.7807674 51 0 0 0 52.756126
27.002262 -4.7116885 4.9932213 69 0 0 0 52.362511
-12.214663 -4.0501504 4.5674152 53 0 0 0 94.601532
13.188265 -4.3726263 4.9502249 24 0 0 0 54.711658
16.731352 -4.2104397 4.8602476 104 0 0 0 53.538887
17.591215 -4.4262161 4.6559772 94 0 0 0 53.538887
55.214638 -4.1256251 4.59343 16 0 0 0 50.80352
-14.46505 -3.6367414 4.5543146 23 0 0 0 95.764099
-12.717186 -3.7032862 4.7009225 100 0 0 0 95.184555
12.354844 -3.7625957 4.7636709 94 0 0 0 54.31596
17.545437 -3.9587774 4.6175656 25 0 0 0 53.149578
20.094755 -3.5048187 4.729856 11 0 0 0 52.362511
-15.97737 -3.1919599 4.9723396 41 0 0 0 96.537712
12.303576 -3.2036963 4.7440925 133.66667 0 0 0 53.669582
12.53497 -3.4827113 4.6391044 213 0 0 0 53.930969
15.420935 -3.4778593 4.8473039 88 0 0 0 53.149578
18.277687 -3.188616 4.7627702 46 0 0 0 52.362511
21.686306 -3.2386017 4.5436854 23 0 0 0 51.972912
17.86763 -2.6663125 4.63901 193 0 0 0 51.972912
21.951086 -2.7283144 4.5837622 29 0 0 0 51.574287
25.243689 -2.5085077 4.625576 20 0 0 0 51.187767
12.472211 -2.4916663 4.5378237 334 0 0 0 52.756126
13.464525 -2.0109255 4.5199032 42 0 0 0 51.972912
13.945215 -2.4346957 4.6976719 86 0 0 0 52.362511
17.357363 -2.1553771 4.9289317 92 0 0 0 51.574287
18.549322 -2.3030343 4.7987189 183 0 0 0 51.574287
19.584476 -2.4312801 4.5782852 18 0 0 0 51.574287
12.318757 -1.8359503 4.7518582 155 0 0 0 51.972912
13.049292 -1.6171523 4.691153 66 0 0 0 51.574287
17.723944 -1.7593756 4.5750618 71 0 0 0 51.187767
20.056604 -1.9903646 4.6752405 46 0 0 0 51.187767
-13.794456 -1.0257261 4.5702834 15 0 0 0 98.490791
19.111341 -1.4230742 4.9196334 48 0 0 0 50.80352
-14.784777 -0.73592877 4.7059383 54.5 0 0 0 98.890282
12.485368 -0.6175158 4.7707138 30 0 0 0 50.403526
19.349934 -0.96298206 4.9732938 28 0 0 0 50.403526
-15.525177 -0.39212817 4.7427373 31 0 0 0 99.27401
-12.757394 -0.168726 4.5321445 70.5 0 0 0 99.464981
-12.240785 -0.16180952 4.6502991 63.5 0 0 0 99.464981
11.841784 -0.0016622527 4.52244 31 0 0 0 49.627808
12.221229 -0.30294019 4.6669044 35 0 0 0 50.017879
13.44215 -0.33316216 4.7975025 33 0 0 0 50.017879
19.412853 -0.010340924 4.505825 12 0 0 0 49.627808
83.037239 -0.091789104 4.8024716 10 0 0 0 49.627808
11.884437 0.29131722 4.5401592 6 0 0 0 49.235207
19.468061 0.46865466 4.5200233 37 0 0 0 49.235207
-12.098914 0.60241383 4.5086932 13 0 0 0 0.39431
30.339481 0.72363496 4.7744536 9 0 0 0 49.235207
16.875025 1.2395767 4.7718887 15 0 0 0 48.455818
26.283152 1.274277 4.798151 12 0 0 0 48.8507
45.494686 1.0758052 4.8903732 21 0 0 0 49.235207
-13.664578 1.6854416 4.7937512 22 0 0 0 1.56909
18.37035 1.8043275 4.7417073 41 0 0 0 48.063099
21.067009 1.5461266 4.8995895 25 0 0 0 48.455818
80.791176 1.8940881 4.6752825 8 0 0 0 49.235207
-13.889176 2.4040568 4.9089465 22 0 0 0 2.3436401
12.309339 2.4575253 4.7920389 42 0 0 0 46.501919
21.147291 2.0760603 4.9285016 78 0 0 0 48.063099
-14.010283 2.7828231 4.6285863 25 0 0 0 2.7446301
-12.855775 2.7103095 4.8943863 52 0 0 0 2.936125
15.285533 2.6560075 4.7624521 39 0 0 0 46.898472
19.034174 2.8205302 4.9411316 89 0 0 0 47.279541
29.538549 2.8915913 4.6706204 41 0 0 0 48.063099
15.32126 3.0526688 4.795238 22 0 0 0 46.501919
15.731782 3.1310651 4.5263987 39 0 0 0 46.501919
18.260643 3.1673067 4.7608247 63 0 0 0 46.898472
20.647663 3.0586717 4.8422046 71 0 0 0 47.279541
42.480194 3.0967014 4.5800524 26 0 0 0 48.455818
12.107219 3.6884015 4.8308334 19 0 0 0 44.938759
16.388432 3.683032 4.7376413 65 0 0 0 46.105968
29.24634 3.5906875 4.6373143 23 0 0 0 47.677929
77.70829 3.7318649 4.502522 17 0 0 0 48.8507
-13.711433 4.1429234 4.6439109 45 0 0 0 4.3035898
-10.964548 6.1586838 4.6944151 50 0 0 0 7.8085999
-11.275472 6.7024913 4.8978429 30 0 0 0 8.2087498
11.463318 7.2974906 4.8436952 33 0 0 0 40.640751
12.605382 7.1680136 4.809886 94 0 0 0 41.424671
-12.685816 8.1980619 4.7234645 94 0 0 0 8.7868652
10.160459 8.390996 4.6948948 14 0 0 0 38.694118
30.235081 8.3562784 4.9326115 10 0 0 0 45.332432
-12.500174 8.7454338 4.95894 157 0 0 0 9.3757401
-12.037051 8.8650818 4.8605876 149 0 0 0 9.7728596
12.210757 8.6363564 4.9566884 29 0 0 0 39.857327
6.4269133 10.263489 4.605834 47 0 0 0 33.59993
5.6598101 10.727421 4.6104393 124 0 0 0 32.425411
8.1705093 10.558311 4.7485213 69 0 0 0 35.160141
5.4919429 11.058978 4.6918349 7 0 0 0 32.034592
11.783861 13.725211 4.6303692 48 0 0 0 35.94928
-9.7997589 18.185955 4.7142787 51 0 0 0 16.79707
-4.8609209 19.094076 4.9949327 91 0 0 0 20.70755
-7.8372803 21.705778 4.7101908 21 0 0 0 19.13792
-7.1800752 21.519524 4.6322579 7 0 0 0 19.52552
-8.5767698 22.05183 4.8270583 9 0 0 0 18.75552
-12.907022 24.024149 4.8813753 42 0 0 0 16.79707
12.813039 -21.429472 5.1413727 32 0 0 0 66.04924
12.938689 -19.407206 5.3780503 32 0 0 0 65.265091
-6.293004 -16.319822 5.3261395 35 0 0 0 80.516045
-5.8242497 -16.281645 5.2657986 45 0 0 0 80.124283
5.991478 -15.58243 5.0906348 142 0 0 0 68.79113
6.4017591 -15.503489 5.1148977 163 0 0 0 68.397858
6.9390669 -15.700669 5.2342587 28 0 0 0 68.007912
9.0501204 -13.589077 5.3882823 10 0 0 0 65.265091
9.5889397 -13.653568 5.0931125 23 0 0 0 64.878075
10.123651 -13.009202 5.0338492 29 0 0 0 64.088127
13.904647 -13.275481 5.395875 17 0 0 0 61.73283
10.065245 -12.939306 5.4121709 68 0 0 0 64.088127
12.864976 -12.281254 5.4329467 26 0 0 0 61.73283
21.622568 -12.285434 5.1379008 12 0 0 0 57.835598
-20.170527 -11.442945 5.3424711 41 0 0 0 91.475212
-11.101402 -11.11213 5.1770782 95 0 0 0 87.18029
-10.710669 -11.260041 5.1221828 86 0 0 0 86.785744
19.79878 -11.246722 5.2657971 25 0 0 0 57.835598
-11.208776 -10.686205 5.2928495 55 0 0 0 87.561234
-10.943004 -10.961227 5.4850082 62 0 0 0 87.18029
-10.362619 -10.901749 5.3271356 71 0 0 0 86.785744
13.835112 -10.827108 5.3698773 27 0 0 0 60.175369
20.501993 -10.988915 5.3792562 9 0 0 0 57.43837
14.232275 -10.052185 5.3277111 39 0 0 0 59.397861
-15.290915 -9.6965094 5.0723362 86 0 0 0 90.692848
10.031806 -9.5810642 5.2706656 37 0 0 0 61.73283
19.444223 -9.8165236 5.0403738 14 0 0 0 57.042847
20.717968 -9.8277473 5.3048306 14 0 0 0 56.651459
23.968437 -9.9613533 5.3645372 16 0 0 0 55.86935
-17.518776 -9.3785963 5.0707765 16 0 0 0 91.856606
-14.668299 -9.3054123 5.2948437 77 0 0 0 90.692848
-12.215942 -9.0783005 5.3919249 49 0 0 0 89.514488
-11.985126 -9.3648586 5.0153556 46 0 0 0 89.118736
-11.388978 -9.36446 5.2239728 57 0 0 0 88.726189
10.932313 -9.4585934 5.1376529 108 0 0 0 60.955273
12.460247 -9.2738781 5.1379828 9 0 0 0 59.786781
-16.150513 -8.6463938 5.1324711 46 0 0 0 91.856606
-15.65747 -8.8834639 5.0438719 80 0 0 0 91.475212
-15.441536 -8.7645588 5.4119062 38 0 0 0 91.475212
-11.454499 -8.5126076 5.4074044 42 0 0 0 89.514488
-10.248753 -8.8570538 5.1332254 26 0 0 0 88.342117
-17.103594 -8.1033773 5.3019004 20 0 0 0 92.625374
-16.462238 -8.3001776 5.1652961 84 0 0 0 92.240631
15.989677 -7.5862637 5.4157739 28 0 0 0 56.651459
-19.689165 -7.0594873 5.3373747 13 0 0 0 94.204163
15.782792 -7.0187836 5.2873926 75 0 0 0 56.270142
16.926828 -5.6144252 5.0206313 123 0 0 0 54.711658
25.902721 -5.8442135 5.4919467 34 0 0 0 53.149578
-12.438385 -5.1681418 5.1082282 21 0 0 0 93.420349
22.375795 -5.0457773 5.3123207 33 0 0 0 53.149578
-16.584335 -4.6047387 5.2499275 47 0 0 0 95.371101
-13.276576 -4.7666678 5.3488503 71 0 0 0 94.204163
12.655566 -4.5449901 5.1221852 165 0 0 0 55.103432
12.907411 -4.2798615 5.1800218 43 0 0 0 54.711658
32.313923 -4.0136704 5.1176925 59 0 0 0 51.574287
-12.748324 -3.5427847 5.0200763 156 0 0 0 95.371101
17.66267 -3.5311735 5.0732093 127 0 0 0 52.756126
19.499508 -3.8974397 5.1009326 17 0 0 0 52.756126
29.064863 -3.6106253 5.3334866 19 0 0 0 51.574287
17.68832 -3.0860391 5.0578594 118 0 0 0 52.362511
17.584705 -2.6241655 5.0091381 194 0 0 0 51.972912
-66.831535 -1.6523248 5.484848 25 0 0 0 99.27401
13.65187 -1.6915083 5.2438474 23 0 0 0 51.574287
17.785889 -1.7654372 5.0361543 14 0 0 0 51.187767
13.506339 -1.0017253 5.1642494 33 0 0 0 50.80352
17.83382 -1.328109 5.0392728 14 0 0 0 50.80352
-14.40224 -0.72064292 5.1169734 52 0 0 0 98.890282
16.125698 -0.80266941 5.3534398 34 0 0 0 50.403526
18.317352 -0.91162461 5.1671839 22 0 0 0 50.403526
18.179565 -0.4568404 5.1242695 43 0 0 0 50.017879
33.046051 -0.02406021 5.1949754 25 0 0 0 49.627808
20.719015 0.49886322 5.3178201 18 0 0 0 49.235207
28.040457 0.66912389 5.1114311 7 0 0 0 49.235207
20.966166 1.0212504 5.3856878 45 0 0 0 48.8507
18.136845 1.7816628 5.1361208 34 0 0 0 48.063099
20.96805 1.5390944 5.3943605 29 0 0 0 48.455818
17.680637 2.1791909 5.2396855 29.5 0 0 0 47.677929
30.068096 2.1992021 5.4912858 11 0 0 0 48.455818
29.828234 2.920233 5.4592972 51 0 0 0 48.063099
18.142855 3.1471996 5.1892681 33 0 0 0 46.898472
15.778556 3.5469639 5.3637476 27 0 0 0 46.105968
28.967625 3.5568845 5.3173518 50 0 0 0 47.677929
32.100864 4.7438765 5.1026411 26 0 0 0 47.279541
11.58088 6.9777007 5.1527343 45 0 0 0 41.030434
12.733115 7.2466364 5.2196217 50 0 0 0 41.424671
-14.163965 8.4433908 5.3562636 30 0 0 0 8.2087498
-13.454609 8.0106792 5.4672337 79 0 0 0 8.2087498
-12.078998 8.0088482 5.4144416 99 0 0 0 8.9827995
-15.054372 8.9750271 5.2626038 4 0 0 0 8.2087498
-12.087927 8.8960285 5.2449827 120 0 0 0 9.7728596
-14.891433 9.3782358 5.2852707 23 0 0 0 8.59093
-11.871481 9.1916742 5.2481637 77 0 0 0 10.16016
-11.115244 9.0446501 5.010509 130 0 0 0 10.54553
23.463146 9.05229 5.2048721 15 0 0 0 43.771328
14.492766 9.7193642 5.3429923 44 0 0 0 40.259579
8.0536318 10.409351 5.005198 29 0 0 0 35.160141
14.355875 10.148682 5.381865 42 0 0 0 39.857327
7.7073536 10.760345 5.0325356 12.5 0 0 0 34.576218
11.733536 13.013224 5.3553071 23 0 0 0 36.340881
11.880478 13.83809 5.1221251 57 0 0 0 35.94928
13.935319 13.987069 5.0527134 72 0 0 0 37.130459
10.65072 14.446861 5.4814234 34 0 0 0 34.776421
10.926819 14.812341 5.1666021 41 0 0 0 34.776421
11.373501 14.647921 5.2059641 31 0 0 0 35.160141
23.162594 15.491505 5.0675344 10 0 0 0 40.259579
-5.3438015 19.026636 5.0084867 88 0 0 0 20.315889
-4.769197 20.89698 5.4330783 84 0 0 0 21.09985
-2.132165 20.887831 5.330101 33 0 0 0 23.04789
-7.1344743 21.365574 5.1498189 81 0 0 0 19.52552
-6.4742188 21.0912 5.0461187 65 0 0 0 19.92391
-7.8142276 21.626451 5.255022 64 0 0 0 19.13792
-3.5735383 23.598907 5.466547 55 0 0 0 22.26166
-13.983465 24.570192 5.0574403 42 0 0 0 16.402149
-16.3659 25.74766 5.451827 23 0 0 0 15.62966
18.422722 -22.496675 5.9870524 27 0 0 0 63.701859
18.561314 -21.565367 5.8602338 19 0 0 0 63.30294
24.323645 -19.025511 5.6041789 8 0 0 0 60.175369
38.185902 -19.265589 5.637198 10 0 0 0 57.042847
-39.617012 -17.579702 5.6837978 8 0 0 0 93.023422
29.056732 -14.665143 5.9120617 21 0 0 0 57.042847
-17.347345 -13.553621 5.6121011 56 0 0 0 89.118736
9.7290773 -13.857919 5.5874062 40 0 0 0 64.878075
8.7571716 -13.141142 5.7929258 71 0 0 0 65.265091
29.287102 -13.019661 5.8240261 24 0 0 0 56.270142
20.966988 -12.599248 5.6531148 14 0 0 0 58.223938
-19.557964 -11.738884 5.8152742 37 0 0 0 91.082703
-19.886797 -11.282029 5.8291779 42 0 0 0 91.475212
19.713898 -11.198791 5.8009672 10 0 0 0 57.835598
