# .PCD v0.7 - Point Cloud Data file format
VERSION 0.7
FIELDS x y z intensity normal_x normal_y normal_z curvature
SIZE 4 4 4 4 4 4 4 4
TYPE F F F F F F F F
COUNT 1 1 1 1 1 1 1 1
WIDTH 965
HEIGHT 1
VIEWPOINT 0 0 0 1 0 0 0
POINTS 965
DATA ascii
7.9708204 11.415636 3.2189229 110 0 0 0 34.334766
-3.8192754 11.789062 3.1633878 178 0 0 0 19.69883
-3.4009795 11.986236 3.1807103 243 0 0 0 20.2955
4.8175473 11.803325 3.2629607 181 0 0 0 30.827021
-3.119231 12.119549 3.1950452 189 0 0 0 20.67638
6.7495995 12.038422 3.1907139 179 0 0 0 32.778141
-1.8197165 12.806616 3.3035271 166 0 0 0 22.430534
-1.0574315 13.252205 3.395124 112 0 0 0 23.410299
26.22863 -22.644062 3.6923208 30 0 0 0 60.891159
-4.3172994 -17.231718 3.6654615 36 0 0 0 78.48056
16.243561 -17.078524 3.6876833 34 0 0 0 62.448009
-18.123045 -15.648242 3.7416565 16 0 0 0 88.256989
11.855939 -14.467517 3.8581097 10 0 0 0 63.6241
12.425907 -14.425223 3.9262905 19 0 0 0 63.23605
-0.67935264 -13.753486 3.6949883 161.5 0 0 0 75.357674
10.287102 -13.888341 3.9909978 37 0 0 0 64.412971
25.949282 -13.068299 3.8135991 9 0 0 0 56.977299
12.685559 -12.095935 3.6171527 25 0 0 0 61.6703
10.169583 -11.806944 3.601687 69 0 0 0 63.23605
11.197077 -11.776519 3.7542 10 0 0 0 62.448009
21.784662 -11.652626 3.8605134 89 0 0 0 57.372398
10.294614 -11.375206 3.9234166 57 0 0 0 62.848808
33.502483 -11.074733 3.7531595 10 0 0 0 54.641781
-7.6311464 -10.302032 3.5991235 22 0 0 0 84.733879
-16.568739 -9.9441814 3.7411306 66 0 0 0 91.011108
-13.945965 -9.8380728 3.9361672 151 0 0 0 89.826042
-8.690115 -9.6015434 3.6349032 17 0 0 0 86.313515
-7.9937444 -9.7567739 3.8513136 58 0 0 0 85.521721
0.23471311 -9.703496 3.6884086 264 0 0 0 74.181137
3.7617693 -9.7746878 3.7228568 205 0 0 0 68.711296
-9.4537001 -9.0145121 3.6660111 23 0 0 0 87.487503
-8.5415001 -9.4407187 3.8869147 65 0 0 0 86.313515
-7.8121028 -9.069026 3.9523602 18 0 0 0 85.922417
11.436832 -9.399684 3.7869973 35 0 0 0 60.494831
-13.737371 -8.714674 3.7534485 28 0 0 0 90.615715
22.57229 -8.0809832 3.7466488 33 0 0 0 55.02932
-12.329487 -7.8221912 3.7308395 90 0 0 0 90.615715
6.6055632 -7.8666019 3.9055023 98 0 0 0 63.430077
7.50598 -7.5193782 3.777844 59 0 0 0 62.062153
23.24663 -7.6831784 3.8250723 29 0 0 0 54.641781
25.981924 -7.8836675 3.5648901 19 0 0 0 54.255154
7.0664091 -7.4363117 3.9003532 171 0 0 0 62.448009
14.324873 -7.2179112 3.7056508 26 0 0 0 56.977299
19.280958 -7.4436755 3.7474821 34 0 0 0 55.424419
19.875334 -7.1167679 3.826884 19 0 0 0 55.02932
-6.3779712 -6.7147632 3.5187397 73 0 0 0 86.700203
17.002773 -6.5655785 3.7584393 28 0 0 0 55.424419
22.75522 -6.9057207 3.7161396 42 0 0 0 54.255154
-18.946486 -6.2711592 3.6160829 108 0 0 0 94.517838
-11.513478 -6.1701174 3.986891 31 0 0 0 91.778419
-8.1781549 -6.1884518 3.8108723 213.66667 0 0 0 89.304512
17.963755 -6.4333124 3.9327402 68 0 0 0 55.02932
18.266466 -6.0393596 3.9648995 40 0 0 0 54.641781
27.291109 -6.1278262 3.6705444 31 0 0 0 53.077408
-13.41869 -5.9619551 3.7514241 193 0 0 0 92.94944
-8.2214785 -5.8066292 3.6985927 270.5 0 0 0 89.826042
22.897848 -5.7370467 3.6888442 27 0 0 0 53.471741
115.83131 -5.7003412 3.6874094 18 0 0 0 50.3479
11.225216 -5.3151455 3.7986302 299 0 0 0 56.58152
13.560597 -5.2361465 3.719398 50 0 0 0 55.424419
14.421353 -5.1642704 3.5405581 24 0 0 0 55.02932
20.90453 -4.6953573 3.8826661 163 0 0 0 53.077408
36.519928 -4.5041175 3.9093807 22 0 0 0 51.515881
-13.162138 -4.1811786 3.8739114 66 0 0 0 94.718506
-10.158032 -4.2234826 3.9052725 99 0 0 0 93.338577
10.440111 -4.0318699 3.8418503 451.5 0 0 0 55.424419
11.61284 -4.4834228 3.807466 487 0 0 0 55.424419
16.105356 -4.034482 3.8340409 197 0 0 0 53.471741
21.082478 -4.1937609 3.8951218 76 0 0 0 52.687351
-10.260948 -3.825294 3.7558866 101 0 0 0 93.93364
11.318117 -3.7428033 3.7957494 348 0 0 0 54.641781
18.487947 -3.6784041 3.8852334 20 0 0 0 52.687351
36.484371 -3.5922709 3.8947189 7 0 0 0 51.134621
-11.197612 -3.1097538 3.838959 6 0 0 0 95.293991
-10.746534 -3.4152734 3.8621302 42.5 0 0 0 94.718506
10.785933 -3.2763143 3.7315829 264 0 0 0 54.255154
13.939774 -3.4931328 3.6775837 25 0 0 0 53.471741
12.587218 -2.8253269 3.9446752 83 0 0 0 53.077408
13.569094 -2.6988857 3.8864093 28 0 0 0 52.687351
-47.579975 -2.3470545 3.8906686 30 0 0 0 98.806351
21.14497 -1.5553831 3.841789 56 0 0 0 50.74017
36.388187 -1.7845546 3.8699021 30 0 0 0 50.3479
-47.427425 -1.1734605 3.8747056 38 0 0 0 99.200302
-10.517758 -0.52772808 3.7416997 69 0 0 0 98.806351
37.162216 -0.90806174 3.9474807 10 0 0 0 49.96188
-47.179306 -0.0087286588 3.8533955 27 0 0 0 99.57711
-18.795572 -0.0074406751 3.8702524 38 0 0 0 99.57711
-14.494758 -0.0084713371 3.7044251 44 0 0 0 99.57711
-12.032561 -0.30514365 3.6779521 43 0 0 0 99.200302
-19.376425 0.47016013 3.9780176 56 0 0 0 0
45.20927 0.0059011308 3.6928766 12 0 0 0 49.570232
-13.224455 1.2873169 3.703238 96 0 0 0 1.17554
21.336302 1.5847493 3.8753884 27 0 0 0 48.399422
-11.139547 2.3316436 3.8659406 325 0 0 0 2.931335
27.872395 2.068538 3.6646504 17 0 0 0 48.399422
-11.808076 2.7741618 3.6776881 218.5 0 0 0 3.3187449
-11.311665 2.8034031 3.8188913 27 0 0 0 3.5097399
21.723179 2.692764 3.963604 29 0 0 0 47.611519
-13.086501 3.2475498 3.7591558 180 0 0 0 3.5097399
-11.87867 3.2523108 3.7342858 311 0 0 0 3.89714
8.6548395 3.1238022 3.5080216 233 0 0 0 44.103512
9.3295612 3.1080894 3.6244357 135.5 0 0 0 44.493778
18.668306 3.2542219 3.9037547 130 0 0 0 46.841042
70.003983 3.4373355 3.9564977 7 0 0 0 48.792271
-14.772845 3.6696103 3.8680515 61 0 0 0 3.5097399
-13.339821 3.8332543 3.6982758 91.5 0 0 0 4.0974851
8.4077063 3.7590127 3.5111022 276 0 0 0 42.942608
15.82109 3.5723066 3.745158 86 0 0 0 46.054321
18.042242 3.6048052 3.7914405 205 0 0 0 46.439873
16.561232 4.1696963 3.9411075 42 0 0 0 45.666378
66.671837 4.9175868 3.7748382 15 0 0 0 48.399422
-17.055607 5.598556 3.6861193 112 0 0 0 4.6768498
-8.5625782 6.9459 3.6198554 161 0 0 0 10.52879
-7.9501657 6.7685924 3.8090088 65 0 0 0 10.92284
-7.9448285 7.8460884 3.8047071 38.5 0 0 0 12.0831
-6.7820635 7.7506504 3.7633767 64 0 0 0 13.25913
-6.4688301 7.7630744 3.5683382 76 0 0 0 13.6493
-12.60183 8.3513708 3.8447459 53 0 0 0 8.9679298
-8.546545 8.0448818 3.854568 36 0 0 0 11.69892
-7.4197011 8.4867315 3.9790683 15 0 0 0 13.25526
-6.6844826 8.4406796 3.8020532 79 0 0 0 14.0403
-6.4431896 8.131875 3.9166479 78 0 0 0 14.0403
18.928038 8.4197063 3.7524934 96 0 0 0 42.942608
12.175105 8.6222477 3.8146687 162 0 0 0 39.813271
23.714613 8.5110331 3.9304826 11 0 0 0 44.103512
-2.6892405 10.403986 3.5420544 98 0 0 0 20.67638
17.540218 11.148204 3.7641203 12 0 0 0 40.586552
0.25115287 13.400306 3.7568071 182 0 0 0 24.96858
2.6753232 13.824612 3.9481971 108 0 0 0 27.70385
1.3294426 14.274193 3.6613925 179 0 0 0 26.13611
8.6107073 14.483586 3.8867629 77 0 0 0 33.168381
5.6488781 15.990863 3.910898 84 0 0 0 30.03867
19.699659 -24.020136 4.0808468 9 0 0 0 63.6241
-4.2775927 -17.085859 4.0654216 105 0 0 0 78.48056
3.4388487 -17.320953 4.0777235 21 0 0 0 71.455688
3.8215215 -17.049324 4.0350118 38 0 0 0 71.057549
16.272795 -17.108719 4.2789197 15 0 0 0 62.448009
-4.6255498 -16.724249 4.4313183 152 0 0 0 78.881424
-3.7340007 -16.634666 4.3546476 135 0 0 0 78.094734
18.381704 -16.674637 4.4949603 10 0 0 0 61.277222
-18.486868 -15.962259 4.4205437 14 0 0 0 88.256989
-18.149151 -14.909641 4.2521415 35 0 0 0 88.643486
13.12787 -14.503553 4.033093 18 0 0 0 62.848808
11.557335 -14.098516 4.2075095 31 0 0 0 63.6241
-1.0179138 -13.790914 4.2219825 123 0 0 0 75.755569
-0.68224066 -13.865009 4.2382708 18 0 0 0 75.357674
9.3175583 -13.963686 4.2898717 17 0 0 0 65.200394
10.693173 -13.718969 4.227551 23.5 0 0 0 64.022202
12.350852 -13.641708 4.2466593 27 0 0 0 62.848808
-11.527382 -12.734906 4.3841352 7 0 0 0 86.313515
10.405567 -12.696292 4.1955338 41 0 0 0 63.6241
28.619215 -12.690358 4.105813 18 0 0 0 56.198208
10.675534 -12.392469 4.1805501 127 0 0 0 63.23605
21.829216 -11.676044 4.4815946 63 0 0 0 57.372398
9.669816 -11.227575 4.1589427 116 0 0 0 63.23605
11.381217 -11.396283 4.1169448 23 0 0 0 62.062153
3.0170083 -10.925184 4.0255847 19 0 0 0 70.280357
-8.9242983 -10.363233 4.1731033 35 0 0 0 85.922417
8.2953196 -10.127031 4.3246479 55 0 0 0 63.6241
8.7302856 -10.38973 4.1462574 39.5 0 0 0 63.430077
-7.7659693 -9.9638681 4.1696415 40 0 0 0 85.125824
-7.1884999 -9.7116795 4.2855263 15 0 0 0 84.733879
-31.129658 -9.4592428 4.2612219 36 0 0 0 94.919167
-9.5134087 -9.0745735 4.0127392 23 0 0 0 87.487503
-8.6954279 -9.2997131 4.3040562 43.333332 0 0 0 86.571312
-7.7164321 -9.4183941 4.1679144 15.5 0 0 0 85.521721
-13.13026 -8.7887611 4.0343637 48 0 0 0 90.217934
-10.275352 -8.7338362 4.3367939 27.666666 0 0 0 88.385826
-13.817318 -8.2971821 4.1144562 35 0 0 0 91.011108
13.90849 -8.3453989 4.1454558 13 0 0 0 58.147141
12.821896 -7.694737 4.1967621 26 0 0 0 58.147141
13.550626 -7.6848402 4.3703704 30 0 0 0 57.756207
-13.912251 -7.4512215 4.4215665 39 0 0 0 91.778419
-12.299947 -7.389637 4.3761506 42 0 0 0 91.011108
7.4364109 -7.4497337 4.0013394 26 0 0 0 62.062153
21.814798 -7.2104068 4.1612506 21 0 0 0 54.641781
-13.769871 -6.5270243 4.2704525 113 0 0 0 92.550041
14.385048 -6.8100433 4.2661657 47 0 0 0 56.58152
21.870705 -6.637434 4.1396179 49 0 0 0 54.255154
-18.025652 -6.4653563 4.4113436 100 0 0 0 94.130318
-13.679697 -6.0778403 4.1955752 109 0 0 0 92.94944
14.070884 -6.2431383 4.3192854 21 0 0 0 56.198208
-14.935649 -5.7755265 4.0879369 30 0 0 0 93.736961
-13.633738 -5.662437 4.3194294 264 0 0 0 93.338577
-11.355965 -5.73173 4.3530455 46 0 0 0 92.158966
-13.689003 -5.2939405 4.1144047 191 0 0 0 93.736961
-11.59786 -5.4984417 4.2356892 60 0 0 0 92.550041
-10.572813 -5.0175509 4.4387918 101 0 0 0 92.550041
11.261787 -5.3346324 4.1199627 62 0 0 0 56.58152
15.253925 -5.0420122 4.1064095 29 0 0 0 54.641781
19.291553 -5.3417125 4.1235409 81 0 0 0 53.86953
-13.786746 -4.9490175 4.4666867 47 0 0 0 94.130318
-10.431129 -4.6402955 4.0514016 64 0 0 0 92.94944
11.520388 -4.778646 4.1237197 26 0 0 0 55.809639
15.286361 -4.6389208 4.4809084 10 0 0 0 54.255154
26.240892 -4.5510063 4.1561885 36 0 0 0 52.304581
-12.552862 -4.159255 4.3631778 124 0 0 0 94.517838
-10.885427 -4.2152696 4.1417632 83 0 0 0 93.736961
-10.097341 -4.1983066 4.150106 13 0 0 0 93.338577
16.256626 -4.4995522 4.3093786 56 0 0 0 53.86953
-77.639015 -3.8151076 4.3894067 14 0 0 0 98.806351
-10.880151 -3.6099613 4.3491168 46 0 0 0 94.517838
-10.179361 -3.9422281 4.1429529 166 0 0 0 93.736961
10.31789 -3.9825275 4.204886 264 0 0 0 55.424419
10.857225 -3.5873563 4.3462014 28 0 0 0 54.641781
11.160065 -3.687228 4.1776042 39 0 0 0 54.641781
12.675193 -3.5079134 4.020545 87 0 0 0 53.86953
21.345955 -3.7028489 4.4590898 222 0 0 0 52.304581
26.212185 -3.8851373 4.1352539 46 0 0 0 51.904259
-11.189764 -3.4099655 4.2939577 58 0 0 0 94.919167
11.286483 -3.2711225 4.1772294 58 0 0 0 54.06234
11.998608 -3.3233325 4.1170797 60 0 0 0 53.86953
31.160221 -3.062789 4.1027293 67 0 0 0 51.134621
-11.890617 -2.9939578 4.3493047 80 0 0 0 95.676384
-10.31232 -2.5971415 4.0375609 57 0 0 0 95.676384
10.753243 -2.6921656 4.2151504 68 0 0 0 53.471741
17.392136 -2.5759325 4.4898524 19 0 0 0 51.904259
16.734674 -2.0595682 4.3074417 16 0 0 0 51.515881
21.330776 -2.0971746 4.4115682 63 0 0 0 51.134621
23.0797 -2.2690606 4.1985159 23 0 0 0 51.134621
30.687469 -2.2566261 4.0323534 87 0 0 0 50.74017
11.272933 -1.9517539 4.3492589 52 0 0 0 52.304581
20.923849 -1.5389022 4.3190179 25 0 0 0 50.74017
26.849234 -1.9744509 4.1999731 12 0 0 0 50.74017
32.033646 -1.5652673 4.2009382 38 0 0 0 50.3479
-12.568015 -0.94049537 4.470253 12 0 0 0 98.41436
-11.342899 -0.56914449 4.3107018 271 0 0 0 98.806351
24.791401 -0.6009317 4.486166 13 0 0 0 49.96188
-22.64426 -0.0088095544 4.0975952 19 0 0 0 99.57711
-13.615124 -0.0082887886 4.4925194 147 0 0 0 99.57711
-11.623809 -0.2970039 4.127492 48 0 0 0 99.200302
-11.382881 -0.29094461 4.3219414 148 0 0 0 99.200302
-13.586765 0.32616299 4.4521384 47 0 0 0 0
19.160303 0.48198041 4.4186072 23 0 0 0 49.183407
-23.401974 0.56876415 4.229393 17 0 0 0 0
19.30385 0.96116519 4.4553289 34 0 0 0 48.792271
-21.818466 1.0637531 4.482255 84 0 0 0 0.39218
15.653808 1.945347 4.0319057 18 0 0 0 47.611519
-11.27969 2.3578615 4.1956043 267.5 0 0 0 2.931335
15.69968 2.344671 4.0569553 80 0 0 0 47.223701
21.013382 2.081841 4.345643 49 0 0 0 48.008888
-11.288283 2.6956882 4.2733555 223.66667 0 0 0 3.38241
18.810854 2.8077066 4.3843203 32 0 0 0 47.223701
19.495113 2.905895 4.058815 44 0 0 0 47.223701
18.118208 3.1620245 4.2411208 128 0 0 0 46.841042
-11.866936 3.5645995 4.0611687 147 0 0 0 4.2978301
16.194359 3.6564822 4.2409868 30 0 0 0 46.054321
17.910351 3.5819571 4.212091 141 0 0 0 46.439873
31.180984 3.8618927 4.1140804 71 0 0 0 47.611519
-13.576972 4.0804706 4.2988586 137 0 0 0 4.2978301
28.478556 4.2410803 4.4866109 11 0 0 0 47.223701
-13.788369 4.8901772 4.4367199 53 0 0 0 5.0662498
-12.523355 4.787746 4.3955054 47 0 0 0 5.45895
-11.806781 4.5068355 4.4504538 324 0 0 0 5.45895
-16.673065 5.9243922 4.496151 55 0 0 0 5.0662498
-10.560746 5.9185691 4.2655196 156 0 0 0 7.8007898
-7.5518551 7.4509163 4.0015926 81 0 0 0 12.0831
23.6451 7.1956735 4.4692578 17 0 0 0 44.88895
25.749029 7.8343334 4.1959929 11 0 0 0 44.88895
-8.5888577 8.0797386 4.1597338 35 0 0 0 11.69892
-7.7519436 8.4430218 4.3242478 36 0 0 0 12.86896
-7.0967617 8.112772 4.0674543 52 0 0 0 13.25526
18.833946 8.3781128 4.2421346 96 0 0 0 42.942608
24.932055 8.261097 4.0956521 8 0 0 0 44.493778
12.179635 8.6255074 4.1876912 165 0 0 0 39.813271
12.154157 9.0643873 4.2534933 49 0 0 0 39.425552
-5.8510375 10.164112 4.4299998 128 0 0 0 16.38237
-2.6543188 10.250337 4.0080323 74 0 0 0 20.67638
-3.6951628 10.917446 4.3589745 8 0 0 0 19.504721
-2.5511434 10.976041 4.2647238 36 0 0 0 21.06542
16.602097 10.553981 4.050117 24 0 0 0 40.586552
17.812866 10.715597 4.277297 21 0 0 0 40.980621
53.315868 11.989428 4.4513707 19 0 0 0 46.054321
2.3605897 12.263489 4.4282393 73 0 0 0 27.70385
2.436635 12.623818 4.242444 71 0 0 0 27.70385
0.25027329 13.405472 4.2536573 67 0 0 0 24.96858
2.6652458 13.786092 4.282568 71 0 0 0 27.70385
-26.253122 17.476429 4.1358876 22 0 0 0 8.9679298
-21.528812 17.590689 4.334157 45 0 0 0 10.52879
25.179146 -23.984045 4.5616441 22 0 0 0 61.6703
36.597015 -21.947899 4.5349026 14 0 0 0 58.147141
1.0455202 -21.323347 4.9225211 85 0 0 0 73.789162
2.6412842 -21.441153 4.9809828 25 0 0 0 72.616234
1.9841688 -20.180649 4.6773629 40 0 0 0 73.010895
-4.6373739 -16.767214 4.8745942 93 0 0 0 78.881424
-4.2027845 -16.787006 4.8492527 120 0 0 0 78.48056
15.92121 -16.73922 4.7559471 27 0 0 0 62.448009
-17.862732 -16.205065 4.9590583 13 0 0 0 87.86924
-3.699657 -16.481625 4.7343087 8 0 0 0 78.094734
-3.2480395 -16.332916 4.6679001 50 0 0 0 77.707169
18.833384 -16.259575 4.5060782 22 0 0 0 60.891159
-17.9638 -15.510778 4.8803115 37 0 0 0 88.256989
-14.168348 -14.186728 4.6193304 19 0 0 0 87.091049
8.8844023 -14.049294 4.6613941 31 0 0 0 65.588951
28.006224 -14.102335 4.8893218 8 0 0 0 56.977299
-1.1927235 -13.851238 4.7584982 88 0 0 0 75.948578
10.147442 -13.69943 4.7796822 29 0 0 0 64.412971
11.289643 -13.771897 4.990932 44 0 0 0 63.6241
-0.66026706 -13.463073 4.7798777 10 0 0 0 75.357674
8.8495922 -13.258356 4.8636537 27 0 0 0 65.200394
9.2093554 -13.089806 4.8831286 12 0 0 0 64.807137
11.923035 -13.169455 4.9788713 20 0 0 0 62.848808
2.212487 -12.769232 4.9152765 20 0 0 0 71.843559
12.293753 -12.926741 4.5560317 39 0 0 0 62.448009
33.056747 -12.752827 4.6411376 18 0 0 0 55.424419
9.1757994 -12.386021 4.7043309 110 0 0 0 64.412971
11.417242 -12.00682 4.6460032 58 0 0 0 62.448009
12.803403 -12.203094 4.5174332 41 0 0 0 61.6703
13.234378 -12.007491 4.5635715 32 0 0 0 61.277222
9.1266279 -11.712724 4.9004898 67 0 0 0 64.022202
11.290888 -11.869777 4.9973135 18 0 0 0 62.448009
11.753377 -11.765502 4.8640585 17.5 0 0 0 62.062153
9.5223112 -11.056137 4.8163028 64 0 0 0 63.23605
11.720725 -11.168944 4.9391541 32 0 0 0 61.6703
8.0900259 -10.378037 4.9922638 35 0 0 0 64.022202
8.6645517 -10.055605 4.7102604 33 0 0 0 63.23605
9.4402857 -10.425172 4.9886966 44 0 0 0 62.848808
9.8884583 -10.402373 4.7380433 42 0 0 0 62.448009
-20.981228 -9.9375963 4.7724686 42 0 0 0 92.550041
-7.7051497 -9.1753922 4.5435371 18 0 0 0 85.722069
10.612251 -9.1683149 4.6307383 41 0 0 0 60.891159
-10.087975 -8.7221584 4.7263494 24 0 0 0 88.256989
-9.2706776 -8.6296911 4.8010368 67.5 0 0 0 87.678375
-8.9739294 -8.9936981 4.5044012 13 0 0 0 87.091049
-8.0691223 -8.9219656 4.561276 123 0 0 0 86.313515
9.7088757 -8.80867 4.6528049 18 0 0 0 61.277222
-10.814937 -8.4604607 4.8654337 19 0 0 0 89.040802
13.387893 -8.0301018 4.7640586 28 0 0 0 58.147141
-16.984684 -7.0510106 4.689395 37 0 0 0 93.338577
-13.217196 -7.0792999 4.9421015 59 0 0 0 91.778419
-12.711779 -7.2155986 4.8187771 32 0 0 0 91.387711
13.249926 -7.29778 4.6177554 26 0 0 0 57.564301
21.500401 -6.5249491 4.6236668 15 0 0 0 54.255154
-17.98177 -6.4496846 4.8698092 141 0 0 0 94.130318
-13.824183 -6.1448932 4.6119127 143 0 0 0 92.94944
-13.445692 -6.3763971 4.5370808 87 0 0 0 92.550041
14.497755 -6.4287972 4.8392491 36 0 0 0 56.198208
-17.47332 -5.7874932 4.6935096 32 0 0 0 94.517838
-13.708482 -5.6921015 4.8929253 148 0 0 0 93.338577
-12.35784 -5.8636622 4.8470201 157 0 0 0 92.550041
12.663784 -5.6200109 4.5761414 19 0 0 0 56.198208
11.452785 -4.7456532 4.7079659 157 0 0 0 55.809639
15.542236 -4.7131925 4.9550085 32 0 0 0 54.255154
26.52738 -4.600275 4.8683043 73 0 0 0 52.304581
-11.553434 -4.1505427 4.6548982 73 0 0 0 94.130318
11.684945 -4.1812711 4.7133121 77 0 0 0 55.02932
15.926354 -4.4081378 4.6338596 127 0 0 0 53.86953
16.078777 -4.0274057 4.6478543 106 0 0 0 53.471741
21.056553 -4.1842465 4.945313 96 0 0 0 52.687351
-13.039311 -3.6254568 4.7966638 51 0 0 0 95.293991
11.685104 -3.5436857 4.6383619 30 0 0 0 54.255154
21.149536 -3.6647682 4.9443903 128 0 0 0 52.304581
25.965775 -3.8483455 4.7472625 81 0 0 0 51.904259
12.727616 -3.1848252 4.6586366 28 0 0 0 53.471741
15.270014 -3.0332179 4.7516022 64 0 0 0 52.687351
22.570738 -3.3456941 4.694006 40 0 0 0 51.904259
26.375277 -3.2487295 4.805367 61 0 0 0 51.515881
31.028311 -3.049464 4.8578877 18 0 0 0 51.134621
-11.797673 -2.664366 4.5871491 57 0 0 0 96.06955
11.718819 -2.3270969 4.5398927 74 0 0 0 52.687351
20.179453 -2.4827085 4.6853781 74 0 0 0 51.515881
21.554346 -2.1150498 4.9881539 14 0 0 0 51.134621
17.072557 -1.6757188 4.8085985 50 0 0 0 51.134621
20.912823 -1.5341715 4.830718 9 0 0 0 50.74017
22.042133 -1.0769283 4.5407038 46 0 0 0 50.3479
-11.919635 -0.89212841 4.5346637 53 0 0 0 98.41436
21.912544 -0.53101718 4.5100799 19 0 0 0 49.96188
-19.995447 -0.011582163 4.6045499 19 0 0 0 99.57711
-13.713914 -0.34544361 4.5261192 213 0 0 0 99.200302
-13.267627 -0.012815628 4.7043724 162 0 0 0 99.57711
-18.447195 0.44435421 4.6867142 20 0 0 0 0
-15.674621 0.37425807 4.7521634 15 0 0 0 0
-13.531782 0.32020655 4.7631025 10 0 0 0 0
17.191875 0.43297169 4.8201561 20 0 0 0 49.183407
19.561663 0.010750963 4.508986 15 0 0 0 49.570232
-19.763689 0.95951688 4.5424857 18 0 0 0 0.39218
-12.722663 0.92182249 4.7984023 26 0 0 0 0.78500003
16.642443 0.82933885 4.6717138 19 0 0 0 48.792271
19.384026 0.96536124 4.9510131 37 0 0 0 48.792271
35.087147 0.87393898 4.5925417 23 0 0 0 49.183407
-17.816399 1.3007144 4.5375228 39 0 0 0 0.78500003
-16.121227 1.1733495 4.8995061 15 0 0 0 0.78500003
14.995971 1.492967 4.6006589 56 0 0 0 48.008888
17.744665 1.3224611 4.9856439 44 0 0 0 48.399422
19.098768 1.4229019 4.8860707 13 0 0 0 48.399422
19.566597 1.4574581 4.5220942 17 0 0 0 48.399422
21.871115 1.0846126 4.5053101 28 0 0 0 48.792271
-12.447773 1.8222399 4.7329679 445 0 0 0 1.9566799
13.953691 1.7351587 4.6443391 59 0 0 0 47.611519
15.190853 1.8910109 4.6725283 43 0 0 0 47.611519
17.150253 1.7035553 4.8302526 38 0 0 0 48.008888
18.816418 1.8683975 4.8245668 226 0 0 0 48.008888
30.314394 1.5017598 4.7285266 25 0 0 0 48.792271
-12.398794 2.1246412 4.7329006 287 0 0 0 2.3417001
13.799302 2.0621529 4.6087313 45 0 0 0 47.223701
30.780422 2.2843297 4.8075418 16 0 0 0 48.399422
15.366446 2.6862965 4.7604876 106 0 0 0 46.841042
20.308376 2.521807 4.7143579 51 0 0 0 47.611519
-11.848655 3.2421417 4.6228461 55 0 0 0 3.89714
15.070366 3.4065325 4.7154732 47 0 0 0 46.054321
18.347603 3.2021387 4.7524338 168 0 0 0 46.841042
31.169962 3.0851381 4.8778472 42 0 0 0 48.008888
17.876022 3.5752873 4.6525793 111 0 0 0 46.439873
31.257971 3.8717465 4.9044971 37 0 0 0 47.611519
43.633171 4.3082123 4.6466804 10 0 0 0 48.008888
-11.814613 4.8436446 4.8074884 178 0 0 0 5.85531
21.447725 4.8346715 4.5222774 14 0 0 0 46.054321
-20.340345 5.0632563 4.8124247 20 0 0 0 3.5097399
-17.405828 5.711288 4.6544557 71 0 0 0 4.6768498
-16.825026 5.9789338 4.9781637 89 0 0 0 5.0662498
-20.032824 6.0401173 4.8040495 29 0 0 0 4.2978301
-19.420818 6.3765044 4.6935167 58 0 0 0 4.6768498
-16.597204 6.3585124 4.9554482 81 0 0 0 5.45895
22.241287 6.1763492 4.7456698 14 0 0 0 45.273998
22.294441 6.7857246 4.790689 23 0 0 0 44.88895
-10.256801 7.9214191 4.8845406 22 0 0 0 10.13306
-9.3106356 7.554872 4.5197721 19 0 0 0 10.52879
44.200912 7.6837845 4.7524996 25 0 0 0 46.841042
-11.842922 8.2694197 4.7391701 88 0 0 0 9.3600502
18.681219 8.3144178 4.7098041 108 0 0 0 42.942608
11.903872 8.8787432 4.9012713 143 0 0 0 39.425552
12.137611 8.59758 4.7245216 156.5 0 0 0 39.813271
25.072424 8.9974871 4.8134289 10 0 0 0 44.103512
12.074885 9.008893 4.5979786 111 0 0 0 39.425552
2.7086957 12.411857 4.5044012 108 0 0 0 28.08835
0.23401368 12.868805 4.8740788 101 0 0 0 24.96858
0.24335203 13.258102 4.69591 55 0 0 0 24.96858
6.0885568 13.90314 4.628674 82 0 0 0 31.21096
5.7312064 14.016339 4.6178403 119 0 0 0 30.827021
11.340079 15.384956 4.8734999 34 0 0 0 34.727448
-25.779655 17.160475 4.8259096 42 0 0 0 8.9679298
-24.433237 17.139845 4.6515083 39 0 0 0 9.3600502
-22.844254 17.753626 4.5095778 47 0 0 0 10.13306
30.128008 18.100039 4.5952597 16 0 0 0 40.980621
1.050187 -21.414402 5.4697223 51 0 0 0 73.789162
2.632355 -21.367628 5.4925504 11 0 0 0 72.616234
3.1380882 -21.179272 5.4625158 16 0 0 0 72.232361
2.8618519 -19.322407 5.4715996 60 0 0 0 72.232361
27.842831 -17.638334 5.1386218 23 0 0 0 58.5439
-4.0604768 -16.229958 5.1004448 159 0 0 0 78.48056
-3.6396735 -16.227404 5.0704021 152 0 0 0 78.094734
-18.868589 -15.500424 5.0200315 18 0 0 0 88.643486
-4.4135284 -15.967855 5.0507236 188 0 0 0 78.881424
17.391605 -15.771481 5.4071989 66 0 0 0 61.277222
-18.120604 -14.891481 5.3971024 8 0 0 0 88.643486
-1.1536565 -14.098725 5.2462316 31.666666 0 0 0 75.884239
11.117766 -14.261777 5.0675988 23 0 0 0 64.022202
-1.6812305 -13.654645 5.2145452 79 0 0 0 76.534676
3.8174195 -13.806658 5.4302702 11 0 0 0 70.280357
-0.65441716 -13.343369 5.0648189 105 0 0 0 75.357674
1.3087932 -13.304501 5.0691257 43 0 0 0 73.010895
1.6445998 -13.349751 5.100143 42 0 0 0 72.616234
3.1687565 -13.357143 5.2055635 44 0 0 0 70.862854
9.2044659 -13.087323 5.2776742 25 0 0 0 64.807137
10.401896 -13.340382 5.1591711 25 0 0 0 64.022202
11.791748 -13.019836 5.3557692 37 0 0 0 62.848808
-21.641247 -12.274807 5.1126046 47 0 0 0 91.387711
9.070303 -12.248099 5.028985 73 0 0 0 64.412971
27.152567 -12.03997 5.3688083 10 0 0 0 56.198208
9.0650988 -11.625281 5.2271519 20 0 0 0 64.022202
10.490247 -11.589805 5.1572509 16 0 0 0 62.848808
9.1093578 -11.10949 5.0950727 92 0 0 0 63.6241
12.254111 -11.115522 5.0464082 29 0 0 0 61.277222
-26.00561 -10.787498 5.0869465 23 0 0 0 93.338577
-26.570518 -10.26494 5.1459742 42 0 0 0 93.736961
-18.128822 -10.287798 5.3110018 19 0 0 0 91.387711
-27.29207 -9.7808046 5.236793 41 0 0 0 94.130318
-23.565931 -9.776062 5.2409196 48 0 0 0 93.338577
-23.858564 -9.2178497 5.25384 39 0 0 0 93.736961
-11.382771 -9.3631868 5.2201838 33 0 0 0 88.643486
-10.495308 -8.6336412 5.1487312 36 0 0 0 88.643486
13.066893 -8.283884 5.1048851 18 0 0 0 58.5439
12.336938 -7.816009 5.179564 31 0 0 0 58.5439
12.586363 -7.1328716 5.1313381 15 0 0 0 57.756207
-18.050886 -6.4745121 5.3648739 43 0 0 0 94.130318
-14.01599 -6.2271762 5.0545073 119 0 0 0 92.94944
-12.309591 -6.2152977 5.2240143 23 0 0 0 92.158966
24.642611 -5.5330353 5.1918249 22 0 0 0 53.077408
-14.83988 -5.3237906 5.1949244 43 0 0 0 94.130318
20.650503 -4.6338053 5.3962569 10 0 0 0 53.077408
16.113169 -4.0327907 5.0666642 54 0 0 0 53.471741
21.133142 -4.1991634 5.4928827 114 0 0 0 52.687351
-12.97667 -3.6081131 5.1039128 25 0 0 0 95.293991
15.900807 -3.9825082 5.4068837 43 0 0 0 53.471741
21.078421 -3.6522019 5.4538784 70 0 0 0 52.304581
-15.007854 -3.3882551 5.4480896 38 0 0 0 96.06955
15.075085 -3.3845484 5.0988288 17 0 0 0 53.077408
16.231758 -3.2264884 5.458425 103 0 0 0 52.687351
21.664663 -3.2074947 5.04389 33 0 0 0 51.904259
16.288723 -2.8232915 5.452631 77 0 0 0 52.304581
16.504827 -2.0280151 5.0723348 15 0 0 0 51.515881
20.175022 -1.9797246 5.1701412 18 0 0 0 51.134621
21.010851 -1.5410991 5.3712101 15 0 0 0 50.74017
22.463718 -1.0932896 5.1779804 16 0 0 0 50.3479
22.153881 -0.53272671 5.1024714 17 0 0 0 49.96188
-13.342278 -0.012999128 5.0577674 17 0 0 0 99.57711
17.91806 0.45454541 5.463551 24 0 0 0 49.183407
-18.049006 0.87579685 5.0358791 49 0 0 0 0.39218
-17.677935 0.85465652 5.3647943 19 0 0 0 0.39218
-15.474888 0.74467319 5.4533739 22 0 0 0 0.39218
17.550165 0.877716 5.3571405 76 0 0 0 48.792271
-18.249243 1.3326716 5.0994401 39 0 0 0 0.78500003
-14.138153 1.3725655 5.3449068 21 0 0 0 1.17554
-21.683315 2.1187818 5.0010672 50 0 0 0 1.17554
15.479182 2.7033124 5.1845555 45 0 0 0 46.841042
18.695717 2.7909575 5.2932129 24 0 0 0 47.223701
14.902267 3.371686 5.4179549 25 0 0 0 46.054321
18.502457 3.2292848 5.2596569 100 0 0 0 46.841042
16.174408 3.6524627 5.4684439 58 0 0 0 46.054321
17.955061 3.5912323 5.1287322 119 0 0 0 46.439873
13.24109 4.0448751 5.2540646 28 0 0 0 44.88895
16.780025 4.2282104 5.2757835 141 0 0 0 45.666378
17.391867 4.8364773 5.0567651 33 0 0 0 45.273998
32.266003 5.6177764 5.0977345 30 0 0 0 46.841042
-24.761591 6.8219595 5.2688923 14 0 0 0 3.89714
21.671776 7.1878147 5.2542896 21 0 0 0 44.493778
-25.417727 7.6774507 5.4465528 19 0 0 0 4.2978301
21.359898 7.6725416 5.2230587 26 0 0 0 44.103512
-14.246938 8.011322 5.3607578 31 0 0 0 7.8007898
-11.654604 8.3449841 5.2278194 78.5 0 0 0 9.5517702
-11.124552 8.1705074 5.2017245 33 0 0 0 9.7434902
18.635447 8.2942476 5.2001133 88 0 0 0 42.942608
11.84302 8.8400755 5.2409353 134 0 0 0 39.425552
12.187885 8.6379147 5.2973027 64 0 0 0 39.813271
25.01388 8.9767313 5.4570932 11 0 0 0 44.103512
0.57431561 13.350909 5.0599513 19 0 0 0 25.361481
2.5958652 13.448008 5.1887078 110 0 0 0 27.70385
-1.7907329 13.829226 5.2744818 13 0 0 0 22.622179
-0.082691029 13.990026 5.2946897 50 0 0 0 24.573709
0.95016319 13.983409 5.3060451 31 0 0 0 25.746719
5.6574688 13.844692 5.2988291 48 0 0 0 30.827021
-1.1354581 14.250025 5.0577292 53 0 0 0 23.410299
-0.78864372 14.347586 5.2610579 47.5 0 0 0 23.79867
6.1542459 14.044685 5.0556183 58 0 0 0 31.21096
12.955829 14.371734 5.4150515 36 0 0 0 36.297951
-0.26439705 14.833109 5.2495975 27.5 0 0 0 24.380798
0.82094407 14.701382 5.2121382 30.5 0 0 0 25.5541
16.762249 14.520756 5.1034436 37 0 0 0 38.254009
7.3959937 15.795566 5.3132329 33 0 0 0 31.59746
7.8402638 15.724072 5.3524046 87 0 0 0 31.99593
8.2922344 15.652907 5.3959227 97 0 0 0 32.384541
6.2891035 16.499763 5.3780603 43 0 0 0 30.427139
-24.565199 17.233263 5.4172945 43 0 0 0 9.3600502
7.709785 17.555296 5.3648324 30 0 0 0 31.21096
-23.432888 18.213583 5.3581228 34 0 0 0 10.13306
-22.374998 18.285776 5.2173529 50 0 0 0 10.52879
-21.392811 19.305696 5.2028046 30 0 0 0 11.30223
-16.587116 20.103987 5.3474922 74 0 0 0 13.6493
-19.988993 20.900473 5.2214904 40 0 0 0 12.47364
36.379333 -21.80817 5.5512676 22 0 0 0 58.147141
10.751052 -21.372753 5.5121775 16 0 0 0 67.156548
11.424594 -21.387312 5.585927 24 0 0 0 66.760689
12.578246 -20.998056 5.6381106 4 0 0 0 65.980034
12.769898 -20.178673 5.5012016 30 0 0 0 65.588951
2.4154167 -19.614721 5.5354867 5 0 0 0 72.616234
2.8549311 -19.251734 5.9304481 10 0 0 0 72.232361
11.482694 -19.171873 5.6994762 35 0 0 0 65.980034
12.040131 -19.027039 5.7421455 45 0 0 0 65.588951
13.407462 -19.0492 5.9389939 14 0 0 0 64.807137
3.2920821 -18.980347 5.8703566 65 0 0 0 71.843559
-16.185984 -17.02136 5.982626 8 0 0 0 86.700203
-18.464327 -16.756502 5.7359166 14 0 0 0 87.86924
-18.277006 -15.786672 5.5565777 8 0 0 0 88.256989
-17.701845 -15.290054 5.9570613 21 0 0 0 88.256989
-14.154942 -14.886092 5.7463779 21 0 0 0 86.700203
17.229639 -14.870659 5.8019385 34 0 0 0 60.891159
28.75737 -14.479618 5.816916 6 0 0 0 56.977299
-13.269341 -13.959917 5.8635173 16 0 0 0 86.700203
28.212748 -13.347767 5.6397457 5 0 0 0 56.58152
9.1776495 -12.706322 5.5558329 35 0 0 0 64.610054
13.331617 -12.094484 5.9328189 37 0 0 0 61.277222
-21.587242 -11.558436 5.6315441 33 0 0 0 91.778419
-21.138153 -11.994498 5.5899496 36 0 0 0 91.387711
8.7141924 -11.759283 5.5487008 20 0 0 0 64.412971
11.860244 -11.296982 5.8039393 21 0 0 0 61.6703
-21.80994 -10.997796 5.6174517 32 0 0 0 92.158966
-17.562456 -10.544441 5.7289443 19 0 0 0 91.011108
-21.167339 -10.030299 5.9633951 27 0 0 0 92.550041
-19.212126 -10.287425 5.550971 21 0 0 0 91.778419
10.988978 -10.468797 5.7529545 19 0 0 0 61.6703
41.540443 -10.400454 5.5993004 16 0 0 0 53.471741
-22.631311 -9.3932514 5.6346741 53 0 0 0 93.338577
-23.138233 -8.9444122 5.7039104 23 0 0 0 93.736961
-12.076873 -8.0903044 5.5048895 30 0 0 0 90.217934
-12.383503 -7.862536 5.5547276 34 0 0 0 90.615715
-13.550681 -6.0263548 5.6157041 59 0 0 0 92.94944
-18.283981 -5.5652461 5.8169861 33 0 0 0 94.919167
-17.660044 -4.4380436 5.9945149 30 0 0 0 95.676384
15.727208 -3.5245905 5.7129226 41 0 0 0 53.077408
15.953778 -3.1653683 5.7648211 17 0 0 0 52.687351
18.228455 -3.1556094 5.6380706 22 0 0 0 52.304581
17.36241 -2.5708869 5.7863808 26 0 0 0 51.904259
16.313259 -2.0012407 5.8249502 19 0 0 0 51.515881
16.087524 -1.5730133 5.7295451 22 0 0 0 51.134621
16.137732 -1.1779525 5.7353234 19 0 0 0 50.74017
22.038099 -0.52969432 5.6180944 40 0 0 0 49.96188
22.445345 0.012581417 5.7193317 18 0 0 0 49.570232
17.195526 0.85720432 5.6765385 30 0 0 0 48.792271
30.860386 0.76949632 5.5738835 12 0 0 0 49.183407
17.752707 1.3234464 5.8678112 35 0 0 0 48.399422
-18.022913 1.7593561 5.9347262 16 0 0 0 1.17554
-21.575329 2.1082973 5.5057263 45 0 0 0 1.17554
14.667521 2.1970024 5.6247668 36 0 0 0 47.223701
19.539265 2.4269428 5.5117607 20 0 0 0 47.611519
15.559958 2.7231405 5.5998526 28 0 0 0 46.841042
17.91062 2.6774416 5.5192003 65 0 0 0 47.223701
15.97363 3.2022808 5.7738643 49 0 0 0 46.439873
31.165318 3.085016 5.6532316 19 0 0 0 48.008888
17.957556 3.5951724 5.5809031 114 0 0 0 46.439873
16.645452 4.1914644 5.6591821 46 0 0 0 45.666378
42.778904 4.2319603 5.6146255 19 0 0 0 48.008888
16.236019 4.5194006 5.7637219 36.5 0 0 0 45.273998
19.994907 4.5121861 5.7359052 32 0 0 0 46.054321
31.111782 4.6328979 5.6771922 28 0 0 0 47.223701
17.276701 5.2691827 5.5047526 33 0 0 0 44.88895
20.959997 5.8256707 5.543396 14 0 0 0 45.273998
20.647923 6.2900271 5.5004148 61 0 0 0 44.88895
-24.917978 6.8608165 5.9319272 39 0 0 0 3.89714
20.259325 6.7208142 5.970943 59 0 0 0 44.493778
20.005283 7.1874804 5.9465237 34 0 0 0 44.103512
20.70225 7.4370608 5.6046505 61 0 0 0 44.103512
21.16798 7.0213017 5.6816802 8 0 0 0 44.493778
-12.824192 7.6186051 5.6196074 16 0 0 0 8.1882696
-12.470738 7.826148 5.5471363 32 0 0 0 8.57199
-13.502023 8.4784966 5.6185517 47 0 0 0 8.57199
18.635292 8.2943239 5.7077308 74 0 0 0 42.942608
-14.242707 8.9538431 5.5183244 30 0 0 0 8.57199
11.794115 8.8038111 5.580976 133 0 0 0 39.425552
17.074415 9.7175398 5.9827876 41 0 0 0 41.374592
-13.366589 10.353721 5.5474143 33 0 0 0 10.13306
16.151667 10.276935 5.8308835 28 0 0 0 40.586552
20.15312 10.182568 5.7513938 13 0 0 0 42.15078
26.129297 12.391842 5.9340997 6 0 0 0 42.546886
54.027729 13.551872 5.8902817 20 0 0 0 45.666378
6.2368803 14.244419 5.5079761 54 0 0 0 31.21096
6.9843788 14.028159 5.9353909 10 0 0 0 31.99593
12.429597 14.495499 5.81463 5 0 0 0 35.895401
13.249306 14.341555 5.9452009 11 0 0 0 36.490715
-1.1611896 14.599399 5.5394554 57 0 0 0 23.410299
16.441683 14.966556 5.662889 32 0 0 0 37.867191
16.816162 14.567362 5.6667824 32 0 0 0 38.254009
1.4117376 15.15842 5.7613297 39 0 0 0 26.13611
12.006301 15.480137 5.9641943 26 0 0 0 35.121262
12.978852 15.127467 5.5767622 12 0 0 0 35.895401
5.5739222 15.797541 5.9298124 33 0 0 0 30.03867
10.925743 15.618884 5.8039317 17 0 0 0 34.334766
11.459411 15.551535 5.8816028 16 0 0 0 34.727448
-25.370861 16.88773 5.5019555 62 0 0 0 8.9679298
10.381365 16.511896 5.9376569 64 0 0 0 33.557301
6.1068277 17.279844 5.5802927 35 0 0 0 30.03867
9.7881136 17.404036 5.5858603 40 0 0 0 32.778141
9.5288649 17.960861 5.6869407 96 0 0 0 32.384541
-22.134851 18.089117 5.8629375 46 0 0 0 10.52879
9.2277727 18.474827 5.7754555 83 0 0 0 31.99593
-20.873272 18.835173 5.7666483 50 0 0 0 11.30223
8.7650518 18.684156 5.7716608 39 0 0 0 31.59746
6.7499442 19.068426 5.6572189 72 0 0 0 30.03867
7.2931619 19.095024 5.7164044 44 0 0 0 30.427139
7.8004632 19.006649 5.7456107 24 0 0 0 30.827021
-20.680834 19.603107 5.8444052 52 0 0 0 11.69892
-16.997358 19.595215 5.9555116 36 0 0 0 13.25526
-20.330086 20.239777 5.8836899 23 0 0 0 12.0831
-16.583101 20.092495 5.9812641 72 0 0 0 13.6493
-21.676691 21.586252 5.5220509 32 0 0 0 12.0831
-16.064405 21.543472 5.5131645 40 0 0 0 14.42952
-23.519791 22.306292 5.8500876 26 0 0 0 11.69892
11.783927 -20.814318 6.0978627 40 0 0 0 66.367081
22.930077 -20.793484 6.3591709 23 0 0 0 61.277222
10.641225 -19.922289 6.3215213 48 0 0 0 66.760689
3.7354188 -18.804293 6.3168392 9 0 0 0 71.455688
4.1729956 -18.60738 6.283432 18 0 0 0 71.057549
11.938787 -17.881334 6.0188522 26 0 0 0 65.200394
-16.919682 -16.940611 6.0974617 11 0 0 0 87.091049
-17.303867 -16.495495 6.0880494 8 0 0 0 87.487503
-17.466789 -15.851521 6.0069642 13 0 0 0 87.86924
-15.687397 -15.707166 6.2072639 6 0 0 0 87.091049
-19.403816 -15.163785 6.2693968 8 0 0 0 89.040802
-18.670521 -15.343219 6.1531305 19 0 0 0 88.643486
-16.921328 -15.356668 6.3880601 19 0 0 0 87.86924
15.848258 -15.098277 6.1258264 46 0 0 0 61.6703
16.157852 -14.653695 6.1045957 26 0 0 0 61.277222
16.817257 -14.514933 6.2162709 20 0 0 0 60.891159
15.821752 -13.652022 6.3641882 27 0 0 0 60.891159
27.752502 -13.129845 6.3043466 6 0 0 0 56.58152
-14.071707 -12.771472 6.2553778 9 0 0 0 87.86924
28.213718 -12.509439 6.3369865 19 0 0 0 56.198208
11.792525 -12.390812 6.0594816 24 0 0 0 62.448009
21.953609 -11.736424 6.3409986 37 0 0 0 57.372398
-21.660667 -10.922603 6.1749172 21 0 0 0 92.158966
-20.75152 -10.464441 6.4946547 17 0 0 0 92.158966
-16.808895 -10.092304 6.4518771 27 0 0 0 91.011108
-16.029285 -10.16762 6.2477264 49 0 0 0 90.615715
-28.751961 -9.5142612 6.213903 21 0 0 0 94.517838
-27.666273 -9.9149256 6.0313048 23 0 0 0 94.130318
13.383207 -9.427886 6.2025476 44 0 0 0 59.3204
21.127197 -4.740283 6.0584612 30 0 0 0 53.077408
22.728075 -3.9371853 6.4511728 21 0 0 0 52.304581
21.468637 -3.17799 6.072145 28 0 0 0 51.904259
17.194725 -2.9735258 6.1816645 19 0 0 0 52.304581
21.45649 -2.6389689 6.0486007 37 0 0 0 51.515881
19.87298 -1.94616 6.0819879 20 0 0 0 51.134621
21.814268 -1.0612295 6.1099191 10 0 0 0 50.3479
18.850853 0.47506237 6.2129726 57 0 0 0 49.183407
-22.407854 0.54094177 6.2463512 19 0 0 0 0
17.575027 0.88242441 6.2331991 11 0 0 0 48.792271
-17.612253 1.7129163 6.2303424 18 0 0 0 1.17554
17.970049 3.594579 6.0388393 34 0 0 0 46.439873
17.136667 4.3213186 6.2595024 33 0 0 0 45.666378
-18.210356 5.9775434 6.2836218 36 0 0 0 4.6768498
20.438671 5.6853428 6.4575052 21 0 0 0 45.273998
-19.730846 6.4757071 6.2970772 20 0 0 0 4.6768498
-17.796412 6.3267932 6.192451 34 0 0 0 5.0662498
-17.201408 6.10741 6.4296017 41 0 0 0 5.0662498
18.99914 6.3076715 6.0960016 26 0 0 0 44.493778
20.630648 6.2849636 6.0325527 21 0 0 0 44.88895
-19.226728 7.3689656 6.2441664 42 0 0 0 5.45895
20.093348 7.2231708 6.4989128 17 0 0 0 44.103512
18.682854 8.3194857 6.2265067 46 0 0 0 42.942608
18.881783 8.970459 6.3632908 22 0 0 0 42.546886
58.245399 8.6549892 6.2258549 11 0 0 0 47.223701
16.819662 9.5692472 6.3733525 12 0 0 0 41.374592
18.13776 9.7384558 6.2671757 42 0 0 0 41.759113
19.275597 10.343055 6.1176696 11 0 0 0 41.759113
13.735124 11.337193 6.3059855 22 0 0 0 38.640369
11.790215 11.86746 6.3359895 15 0 0 0 37.073921
20.919485 11.893644 6.1264939 11 0 0 0 41.374592
10.445077 13.482697 6.4579697 11 0 0 0 35.121262
9.6607914 13.826316 6.386795 21 0 0 0 34.334766
13.155194 13.890766 6.2999463 8 0 0 0 36.683479
13.617448 13.687493 6.3576379 14 0 0 0 37.073921
14.488939 13.866507 6.1052046 17 0 0 0 37.46909
6.5395303 14.927867 6.1705403 14 0 0 0 31.21096
12.118145 14.851258 6.3115191 7 0 0 0 35.50539
12.701495 14.805766 6.4226432 18 0 0 0 35.895401
4.9061027 15.088101 6.0068493 32 0 0 0 29.649469
12.565613 15.402265 6.0511322 11 0 0 0 35.50539
54.689655 15.154494 6.0002375 25 0 0 0 45.273998
9.3578482 15.742651 6.4809446 21 0 0 0 33.168381
10.346395 15.58963 6.1613884 29 0 0 0 33.947712
16.214241 15.505293 6.2717733 21 0 0 0 37.46909
7.808866 16.661507 6.0589633 44 0 0 0 31.59746
9.7574902 16.861828 6.4136004 23.5 0 0 0 32.973259
7.1422281 17.41667 6.1970868 32 0 0 0 30.827021
-23.152742 17.995375 6.013772 30 0 0 0 10.13306
9.8884277 17.588224 6.1408734 32 0 0 0 32.778141
10.588902 17.792103 6.3004065 29 0 0 0 33.168381
-18.305784 20.09231 6.2394595 24 0 0 0 12.86896
28.551079 21.226164 6.4136219 23 0 0 0 39.425552
-16.112047 21.600466 6.1864548 12 0 0 0 14.42952
28.082474 21.9695 6.4275689 22 0 0 0 39.0299
2.2196443 -22.513973 6.8882613 11 0 0 0 73.010895
0.54488707 -22.071007 6.7226334 22 0 0 0 74.181137
10.510303 -20.893667 6.5449681 23 0 0 0 67.156548
10.96201 -19.356173 6.7735963 21 0 0 0 66.367081
9.820137 -18.387001 6.8655524 20 0 0 0 66.760689
27.202925 -17.232391 6.6117558 32 0 0 0 58.5439
27.749996 -16.638369 6.6428838 27 0 0 0 58.147141
-17.856316 -15.42342 6.5948586 10 0 0 0 88.256989
26.087681 -14.77809 6.8926115 24 0 0 0 57.756207
26.042999 -13.919642 6.7888141 31 0 0 0 57.372398
12.173449 -13.434462 6.8645382 21 0 0 0 62.848808
13.245436 -11.713093 6.696454 25.5 0 0 0 61.08419
21.969183 -11.744357 6.9648538 31 0 0 0 57.372398
25.94302 -11.498107 6.5249248 28 0 0 0 56.198208
-15.747223 -9.9965267 6.5970745 70 0 0 0 90.615715
16.677666 -9.9938498 6.8821964 20 0 0 0 58.147141
-28.058283 -9.2903633 6.7887716 39 0 0 0 94.517838
15.85905 -8.9822969 6.9011731 33 0 0 0 57.756207
16.400169 -8.2522373 6.9514446 45 0 0 0 56.977299
17.267805 -8.1630602 6.7617316 43 0 0 0 56.58152
16.554096 -7.8260918 6.9332738 51 0 0 0 56.58152
17.339094 -7.681457 6.7140546 57 0 0 0 56.198208
16.798918 -7.4423828 6.9570155 68 0 0 0 56.198208
17.54981 -7.2643037 6.7244573 62 0 0 0 55.809639
18.288153 -0.43228585 6.9271512 9 0 0 0 49.96188
18.785301 0.2477071 6.6521025 23 0 0 0 49.37682
18.958769 1.4199902 6.7304845 30 0 0 0 48.399422
17.471678 1.7423146 6.6504669 9 0 0 0 48.008888
18.209951 2.7257051 6.5195575 62 0 0 0 47.223701
17.591036 3.9781907 6.8295965 23 0 0 0 46.054321
16.838593 4.2465296 6.5778637 9 0 0 0 45.666378
-18.614347 5.6038942 6.8471651 40 0 0 0 4.2978301
-18.225309 5.9756632 6.7559042 23 0 0 0 4.6768498
-17.479542 5.7298231 6.9273729 59 0 0 0 4.6768498
19.102442 5.8208957 6.5761266 22 0 0 0 44.88895
-17.169254 6.0961084 6.8615875 43 0 0 0 5.0662498
-16.943237 6.4859982 6.8328366 53 0 0 0 5.45895
18.817114 6.2439151 6.5291224 24 0 0 0 44.493778
18.987919 6.8232317 6.6437249 60 0 0 0 44.103512
-23.813978 7.827734 6.9871159 21 0 0 0 4.6768498
15.375269 7.7823443 6.5273752 11 0 0 0 42.15078
18.771046 8.3548603 6.7644296 44 0 0 0 42.942608
14.853555 8.9522533 6.5684781 14 0 0 0 40.980621
18.313354 8.6973934 6.6751962 116 0 0 0 42.546886
18.538717 9.369482 6.8379936 54 0 0 0 42.15078
19.230755 9.7222891 6.5579362 30 0 0 0 42.15078
13.95765 10.954844 6.7183795 10 0 0 0 39.0299
20.55695 11.688212 6.6095448 12 0 0 0 41.374592
10.959199 14.881841 6.9941497 17 0 0 0 34.727448
11.920874 14.621147 6.6756744 12 0 0 0 35.50539
17.019718 14.748408 6.8506193 8 0 0 0 38.254009
10.067436 15.18331 6.8944979 19 0 0 0 33.947712
10.70157 15.305902 6.6087976 25 0 0 0 34.334766
11.104639 15.078212 6.6265507 19 0 0 0 34.727448
18.688839 15.397245 6.7662692 28 0 0 0 38.640369
10.460083 15.771697 6.6961799 20 0 0 0 33.947712
10.166834 16.178942 6.7603583 24 0 0 0 33.557301
10.604899 16.858597 6.5556855 28 0 0 0 33.557301
11.731277 16.757336 6.7321882 26 0 0 0 34.334766
-23.076021 17.929502 6.7064557 54 0 0 0 10.13306
-21.96537 17.944071 6.5096636 44 0 0 0 10.52879
60.348785 18.328176 6.6638322 6 0 0 0 44.88895
-26.610584 18.674612 6.6653643 25 0 0 0 9.3600502
-13.767989 19.420315 6.6406322 11 0 0 0 14.83017
-18.195446 19.971107 6.8636808 33 0 0 0 12.86896
-16.993965 19.591814 6.5896263 36 0 0 0 13.25526
-13.231546 19.667757 6.6126957 17 0 0 0 15.21406
-16.638428 20.160465 6.6416035 36 0 0 0 13.6493
-16.328894 20.80517 6.7198586 34 0 0 0 14.0403
13.865213 20.858322 6.9963703 25 0 0 0 33.947712
13.244213 21.028414 6.9422808 10 0 0 0 33.557301
-16.04203 21.50666 6.8170176 26 0 0 0 14.42952
-15.694085 22.154934 6.8981981 47 0 0 0 14.83017
15.514822 22.132164 6.8747063 17 0 0 0 34.334766
15.176691 22.822025 6.9705334 21 0 0 0 33.947712
12.509686 -22.093088 7.1015139 21 0 0 0 66.367081
1.5984677 -21.692017 7.1618781 33 0 0 0 73.403824
9.5967684 -21.65225 7.209991 21 0 0 0 67.927856
1.542533 -20.838642 7.3938408 24 0 0 0 73.403824
12.196413 -20.351799 7.2223663 8 0 0 0 65.980034
9.8202076 -19.523258 7.1962857 31 0 0 0 67.156548
11.173863 -19.73686 7.4668965 20 0 0 0 66.367081
8.932189 -18.883127 7.3924537 21 0 0 0 67.538757
12.36911 -18.523426 7.3332601 12 0 0 0 65.200394
27.85302 -16.692944 7.4619846 12 0 0 0 58.147141
-17.755911 -16.119438 7.2922416 13 0 0 0 87.86924
-16.45891 -16.48513 7.0848455 22 0 0 0 87.091049
-19.971703 -15.607399 7.0815277 11 0 0 0 89.040802
16.308647 -15.535203 7.4142952 18 0 0 0 61.6703
15.096529 -15.106049 7.0320997 41 0 0 0 62.062153
25.259727 -14.309231 7.3884745 22 0 0 0 57.756207
-20.175028 -13.505965 7.3809943 26 0 0 0 90.217934
15.691249 -13.534077 7.3324714 42 0 0 0 60.891159
25.923544 -13.047526 7.3857937 37 0 0 0 56.977299
16.840715 -10.091051 7.4305558 43 0 0 0 58.147141
24.687532 -9.5205288 7.3948202 59 0 0 0 55.424419
17.29566 -9.2409277 7.4219017 24 0 0 0 57.372398
18.549387 0.93142092 7.0321059 9 0 0 0 48.792271
-20.137392 1.4649496 7.1099091 13 0 0 0 0.78500003
-21.508675 1.5727917 7.0687432 16 0 0 0 0.78500003
19.390511 2.4162164 7.395752 15 0 0 0 47.611519
-17.987093 5.4140887 7.0739412 50 0 0 0 4.2978301
-26.756796 8.0791664 7.0981512 22 0 0 0 4.2978301
18.13084 8.0784521 7.0240207 35 0 0 0 42.942608
18.069042 8.5895786 7.0793505 60 0 0 0 42.546886
18.370396 9.2928524 7.283236 86 0 0 0 42.15078
18.140524 9.7442684 7.2848597 63 0 0 0 41.759113
17.85611 10.165342 7.2689147 57 0 0 0 41.374592
17.486778 10.533199 7.2221417 52 0 0 0 40.980621
20.03754 10.751013 7.4812236 14 0 0 0 41.759113
12.410882 13.779847 7.0185966 29 0 0 0 36.297951
17.091742 14.805449 7.4386177 7 0 0 0 38.254009
15.864166 15.171886 7.2220836 21 0 0 0 37.46909
10.039148 15.976996 7.1392946 46 0 0 0 33.557301
-11.488957 17.047976 7.2514811 6 0 0 0 15.21406
-23.250912 18.066454 7.4783916 39 0 0 0 10.13306
-29.930317 18.892519 7.2555656 13 0 0 0 8.57199
-12.915493 19.18799 7.0203676 4 0 0 0 15.21406
-16.94705 19.537956 7.2124801 48 0 0 0 13.25526
-16.5896 20.101521 7.2681642 49 0 0 0 13.6493
-19.665258 20.554792 7.2259717 31 0 0 0 12.47364
23.968731 21.793081 7.4350801 13 0 0 0 37.867191
-15.504779 23.069778 7.0618954 30 0 0 0 15.21406
-15.096183 23.698456 7.1386304 36 0 0 0 15.5995
14.445024 25.627916 7.4789906 13 0 0 0 32.778141
11.348921 29.612749 7.2803125 10 0 0 0 30.427139
-13.661044 -41.377834 7.8705473 39 0 0 0 79.652603
-15.617682 -40.512024 7.8415599 59 0 0 0 80.44062
-14.648723 -40.965424 7.857738 39 0 0 0 80.050972
-16.258938 -39.276428 7.6775684 43 0 0 0 80.835648
-17.204702 -38.836933 7.671453 46 0 0 0 81.228287
-20.060526 -37.554161 7.6878886 38 0 0 0 82.398247
-19.103703 -37.976135 7.6765218 45 0 0 0 82.011559
-21.014904 -37.120026 7.7017102 30 0 0 0 82.791389
0.5673421 -23.114796 7.6110735 6 0 0 0 74.181137
3.4804771 -23.475243 7.8116307 22 0 0 0 72.232361
3.300029 -22.208738 7.9427896 17 0 0 0 72.232361
3.8284144 -22.03336 7.9114909 19 0 0 0 71.843559
9.3625879 -21.13419 7.6097574 13 0 0 0 67.927856
1.519878 -20.533131 7.7903786 10 0 0 0 73.403824
9.8576841 -20.854641 7.5939422 14 0 0 0 67.538757
12.030998 -20.083588 7.7063432 11 0 0 0 65.980034
12.277604 -19.399767 7.5577831 10 0 0 0 65.588951
11.867075 -18.737293 7.8464608 18 0 0 0 65.588951
23.984873 -15.189043 7.9323816 18 0 0 0 58.5439
21.929695 -13.883543 7.894309 15 0 0 0 58.5439
-22.042353 -12.512468 7.7035766 43 0 0 0 91.387711
-23.209116 -11.708153 7.8996086 34 0 0 0 92.158966
23.492624 -11.819745 7.9977455 15 0 0 0 56.977299
-18.826643 -11.311997 7.7622008 21 0 0 0 91.011108
18.798428 -10.042569 7.540164 20 0 0 0 57.372398
18.941799 -9.5287304 7.5017567 17 0 0 0 56.977299
22.648741 -8.1015167 7.9142075 5 0 0 0 55.02932
23.775904 -8.4997091 7.680057 37 0 0 0 55.02932
21.150103 -3.1225836 7.5635734 21 0 0 0 51.904259
20.18363 3.5300326 7.7526379 20 0 0 0 46.841042
21.277721 6.4902973 7.8666139 17 0 0 0 44.88895
18.030203 8.5713043 7.5543189 15 0 0 0 42.546886
17.7446 9.532362 7.6214643 24 0 0 0 41.759113
17.980309 10.235947 7.8269558 13 0 0 0 41.374592
15.783861 13.686255 7.9015608 10 0 0 0 38.254009
17.09486 14.818657 7.9977274 9 0 0 0 38.254009
-23.940166 17.679649 7.5583978 32 0 0 0 9.7434902
-16.966408 19.554033 7.8545499 34 0 0 0 13.25526
-16.605925 20.114811 7.9139171 29 0 0 0 13.6493
-19.7479 20.642153 7.9645085 22 0 0 0 12.47364
15.477946 25.945425 7.6794696 17 0 0 0 33.168381
-9.0037708 -40.119961 8.4417133 15 0 0 0 78.094734
-7.9976425 -40.231564 8.4217577 17 0 0 0 77.707169
-11.770042 -38.823551 8.3283415 11 0 0 0 79.265091
11.79477 -20.813801 8.4610682 11 0 0 0 66.367081
10.516663 -19.670454 8.4379568 22 0 0 0 66.760689
11.771246 -19.634657 8.0979404 13 0 0 0 65.980034
-20.565762 -11.679478 8.3557205 18 0 0 0 91.387711
18.301357 -11.584373 8.1935472 26 0 0 0 58.5439
22.426182 -11.288518 8.2590122 39 0 0 0 56.977299
-22.160837 2.7069051 8.4074669 21 0 0 0 1.56558
61.125477 20.228317 8.3861217 10 0 0 0 44.493778
-23.182989 21.979589 8.1128454 20 0 0 0 11.69892
11.557361 21.756969 8.0987272 35 0 0 0 32.384541
11.19564 22.385283 8.2270565 33 0 0 0 31.99593
14.740346 22.176912 8.0913496 30 0 0 0 33.947712
14.778973 24.778656 8.0529242 20 0 0 0 33.168381
17.33552 27.492111 8.2584152 40 0 0 0 33.557301
11.474882 29.939001 8.1478338 20 0 0 0 30.427139
-4.1766186 -42.440357 8.7555323 33 0 0 0 76.141594
-3.1306746 -42.480957 8.7456837 21 0 0 0 75.755569
-5.1743417 -41.983067 8.6847916 22 0 0 0 76.534676
-13.671922 -41.411064 8.9498177 51 0 0 0 79.652603
-6.1499968 -41.488022 8.6110201 16 0 0 0 76.929527
-15.637156 -40.562721 8.9209299 39 0 0 0 80.44062
-14.659543 -40.995907 8.9347754 60 0 0 0 80.050972
-16.274878 -39.315071 8.7319946 47 0 0 0 80.835648
-17.226021 -38.885166 8.7273359 45 0 0 0 81.228287
-19.130842 -38.030148 8.7347984 47 0 0 0 82.011559
-20.093472 -37.615868 8.7497292 35 0 0 0 82.398247
-21.030363 -37.147354 8.7576284 37 0 0 0 82.791389
-21.982529 -36.699173 8.7759285 21 0 0 0 83.183037
10.105778 -20.070965 8.5006847 25 0 0 0 67.156548
12.690085 -20.033587 8.9686117 12 0 0 0 65.588951
-17.438723 -15.073453 8.7103767 15 0 0 0 88.256989
22.968985 -13.767633 8.8066311 21 0 0 0 58.147141
22.510365 -12.752641 8.509449 27 0 0 0 57.756207
24.073769 -12.86685 8.9757328 13 0 0 0 57.372398
-25.783707 7.1012464 8.7684078 22 0 0 0 3.89714
63.320446 15.892975 8.5034084 10 0 0 0 45.666378
64.322533 17.833984 8.6929922 8 0 0 0 45.273998
-18.078793 19.843998 8.8064547 19 0 0 0 12.86896
-16.62229 20.142467 8.568161 11 0 0 0 13.6493
15.506034 21.004641 8.5806742 18 0 0 0 34.727448
-23.116053 21.916443 8.8791809 17 0 0 0 11.69892
-25.485056 23.009466 8.7185402 24 0 0 0 11.30223
-15.24541 23.926355 8.607708 21 0 0 0 15.5995
-11.816776 -39.002602 9.3636503 14 0 0 0 79.265091
5.0287328 -25.240665 9.1001787 18 0 0 0 71.455688
