# .PCD v0.7 - Point Cloud Data file format
VERSION 0.7
FIELDS x y z intensity normal_x normal_y normal_z curvature
SIZE 4 4 4 4 4 4 4 4
TYPE F F F F F F F F
COUNT 1 1 1 1 1 1 1 1
WIDTH 940
HEIGHT 1
VIEWPOINT 0 0 0 1 0 0 0
POINTS 940
DATA ascii
8.3137999 6.8702993 0.22546244 1028.5 0 0 0 38.656166
8.7110128 6.6703019 0.2289263 1042.5 0 0 0 39.239449
9.8184738 6.9553642 0.24779177 682.5 0 0 0 39.820847
10.226107 6.8711252 0.25326735 729.5 0 0 0 40.215248
10.709352 6.6329584 0.25842139 742.25 0 0 0 40.798225
-21.043058 7.4812741 0.24083947 38 0 0 0 5.0658202
8.1125851 7.0480676 0.22445935 600 0 0 0 38.261421
8.5582428 7.810214 0.23945931 273 0 0 0 37.868153
-25.516865 8.3827047 0.28551272 66 0 0 0 4.67909
5.3624029 8.3392696 0.21070994 1297.25 0 0 0 33.75069
5.7612228 8.1270866 0.16974212 1015 0 0 0 34.471386
5.0336637 8.504734 0.21039835 1209 0 0 0 33.16853
8.9773979 8.6026936 0.41031653 310 0 0 0 37.477154
9.0146236 8.6412306 0.099495284 321 0 0 0 37.477154
9.416399 9.4772415 0.27089071 302.5 0 0 0 37.07766
2.2718201 9.8646736 0.2167502 1130.25 0 0 0 28.284935
2.6141186 9.6981525 0.21509123 1092.5 0 0 0 28.873671
-15.383295 10.203739 0.19027218 238 0 0 0 8.9668102
1.4530816 10.284473 0.22226907 1107 0 0 0 26.923611
1.8083971 10.099948 0.21964025 1071.5 0 0 0 27.513496
9.7812748 10.338404 0.28817928 197 0 0 0 36.689472
8.955945 10.991655 0.10891672 161 0 0 0 35.51416
9.235961 10.781557 0.10887076 313 0 0 0 35.901901
9.5090904 10.562134 0.10883665 233 0 0 0 36.303848
8.8747292 11.455574 0.11076767 205 0 0 0 35.122486
9.8886232 11.25436 0.48770159 240 0 0 0 36.102875
9.2743073 11.963476 0.49274868 312 0 0 0 35.122486
9.5434799 11.703837 0.49149859 256 0 0 0 35.51416
9.000536 12.220175 0.49415115 220 0 0 0 34.728458
7.531467 13.415823 0.117325 181 0 0 0 32.773468
7.3444219 13.869786 0.11942365 125 0 0 0 32.392319
7.1876273 14.418107 0.12216524 162 0 0 0 31.99843
-14.282125 14.892095 0.19471604 93 0 0 0 12.47077
-15.595314 15.489916 0.20714456 85 0 0 0 12.08237
-13.700131 15.002664 0.19060887 125 0 0 0 12.86787
7.0915542 15.143204 0.12605113 115 0 0 0 31.60236
-16.64081 15.741531 0.21639927 111 0 0 0 11.6997
-13.624544 15.676653 0.19255956 78 0 0 0 13.25658
-13.058057 15.788589 0.18881053 61 0 0 0 13.64626
-12.954122 16.471025 0.19081786 64 0 0 0 14.03373
7.0992894 16.177504 0.13193323 77 0 0 0 31.21229
-12.799885 17.12476 0.19246604 55 0 0 0 14.43183
7.3769345 17.985765 0.14201385 190 0 0 0 30.82707
-24.405704 18.013735 0.28824276 24 0 0 0 9.7534304
-9.8972664 18.34045 0.17964919 220 0 0 0 16.76861
6.7293687 18.302818 0.14260426 215.5 0 0 0 30.235146
-23.987299 18.629559 0.28625375 23 0 0 0 10.13565
-9.1137781 20.351915 0.18574788 194 0 0 0 17.943331
7.0078506 21.442438 0.1602305 28 0 0 0 29.65056
6.5421743 21.818157 0.16179161 36 0 0 0 29.26136
-8.1379433 22.49017 0.19266918 108 0 0 0 19.11977
-4.0683661 22.95166 0.17991956 86 0 0 0 21.847111
-1.7551148 22.662121 0.17179503 27 0 0 0 23.411289
-2.9433331 23.176516 0.17788537 168 0 0 0 22.63134
-3.6706357 24.167351 0.18586709 84 0 0 0 22.24028
-29.004219 24.917671 0.34659606 13 0 0 0 10.91751
-6.3207903 24.879866 0.19893104 92 0 0 0 20.677691
-28.555424 25.775408 0.34552348 38 0 0 0 11.31297
-7.8779392 25.67157 0.20944227 26 0 0 0 19.894951
-10.469407 26.898485 0.22765152 18 0 0 0 18.727489
-6.357976 27.916325 0.21677808 43 0 0 0 21.064131
0.62334836 28.808014 0.20444421 40 0 0 0 24.968121
-0.79873997 29.077274 0.20838389 26 0 0 0 24.19105
-20.231518 30.1227 0.29958504 7 0 0 0 15.21153
1.4255892 30.731964 0.21497975 13 0 0 0 25.35581
-18.791166 32.990772 0.30402052 38 0 0 0 16.387699
-1.7334955 33.511127 0.23690178 51 0 0 0 23.79793
3.3430076 34.805439 0.23758799 27 0 0 0 26.14035
2.4996448 35.046227 0.23974366 17 0 0 0 25.75795
4.2424793 35.084419 0.23869917 26 0 0 0 26.52947
-0.087252289 36.091232 0.24937478 31 0 0 0 24.58519
-22.966675 38.140984 0.35416085 20 0 0 0 15.99546
-18.166555 38.195751 0.32670563 14 0 0 0 17.55106
-19.590853 38.716465 0.33716026 13 0 0 0 17.16651
-18.755518 45.033047 0.36587635 22 0 0 0 18.341431
-12.998828 46.61726 0.34942025 15 0 0 0 20.29693
-19.854498 -21.912151 0.97469264 42 0 0 0 86.351982
2.1546969 -17.552389 0.60498649 125 0 0 0 72.657356
-11.428576 -17.109715 0.69032764 95 0 0 0 83.985802
-10.936739 -17.27626 0.68645942 155 0 0 0 83.60173
2.5406053 -17.199373 0.5955807 147 0 0 0 72.265205
-11.895743 -16.896664 0.69291854 147 0 0 0 84.384949
2.9106851 -16.839128 0.58619326 131 0 0 0 71.872269
3.3623281 -16.962351 0.5929395 114 0 0 0 71.48555
3.7153361 -16.599453 0.58401251 138 0 0 0 71.093033
-1.6160115 -16.350887 0.96458203 31 0 0 0 76.171669
-5.6604629 -15.818059 0.98320907 64 0 0 0 80.081474
-1.9175013 -15.505778 0.91872489 199 0 0 0 76.56324
-20.7777 -14.639933 0.84154427 20 0 0 0 89.875565
3.5742488 -14.319606 0.5115189 381 0 0 0 70.704681
4.302568 -14.22874 0.51521748 255 0 0 0 69.914474
5.0864234 -14.256765 0.524248 324 0 0 0 69.124527
5.5076327 -14.317535 0.53093064 178 0 0 0 68.736725
3.8305154 -13.889177 0.50031936 293 0 0 0 70.308258
0.95572233 -13.077928 0.77806693 11 0 0 0 73.4272
1.626664 -13.269534 0.79290354 12 0 0 0 72.657356
-11.149976 -12.933339 0.57816541 194 0 0 0 85.954231
0.61209852 -12.630958 0.75143218 82 0 0 0 73.829048
1.2623786 -12.913216 0.77040303 90 0 0 0 73.039749
-18.073444 -12.083164 0.72497708 132 0 0 0 90.260315
2.1297255 -12.33713 0.74504131 176 0 0 0 71.872269
2.3744802 -11.994964 0.72861922 25 0 0 0 71.48555
-21.500319 -11.498047 0.80858868 15 0 0 0 91.820068
-0.55287015 -11.145496 0.806108 247 0 0 0 75.398575
2.7993944 -11.21714 0.97862732 40 0 0 0 70.704681
27.557449 -10.640265 0.97877997 89 0 0 0 55.445358
9.4989214 -10.001719 0.81902099 565 0 0 0 62.472401
-1.4185297 -9.5403557 0.69996393 630.5 0 0 0 76.960144
18.631128 -7.7293882 0.68011433 282 0 0 0 55.829006
13.326775 -6.3171625 0.68818742 456.5 0 0 0 56.613354
-20.476662 -5.1320839 0.70589936 10 0 0 0 95.719566
-10.6257 -5.0335436 0.84315985 580.5 0 0 0 92.588989
-6.0947695 -5.0125222 0.86712039 626 0 0 0 88.693428
4.2699027 -5.0988994 0.74078536 1099.8334 0 0 0 63.451595
4.5169048 -5.0062342 0.751037 1239 0 0 0 62.86673
8.4646816 -5.3770523 0.72845304 768 0 0 0 58.562031
8.6868677 -5.2228546 0.73565012 501.5 0 0 0 58.17128
-20.555943 -4.6185017 0.70476496 42 0 0 0 96.11055
-15.629309 -4.7454357 0.75430524 269.5 0 0 0 94.957085
-10.855411 -4.8195543 0.8511712 223.5 0 0 0 92.990349
-6.5291643 -4.6086907 0.87781274 449 0 0 0 89.875565
-6.1352425 -4.750186 0.7405355 820.20001 0 0 0 89.157845
-1.2023376 -4.6568213 0.73724872 399.71429 0 0 0 78.625862
-0.93210393 -4.8037443 0.69596088 242.39999 0 0 0 77.658234
4.5078464 -4.9971213 0.7486195 1268 0 0 0 62.86673
-25.758547 -4.4706087 0.86627477 41 0 0 0 96.890839
-14.320458 -3.9669728 0.50755036 19 0 0 0 95.333359
-6.0555611 -2.1747012 0.79379535 76 0 0 0 94.166122
-5.8931003 -2.2817807 0.64225543 961.40002 0 0 0 93.775345
29.881905 -2.2030761 0.97653347 40 0 0 0 50.754353
24.488646 -1.2019116 0.80414814 110 0 0 0 50.369579
26.519648 -0.64841932 0.86583179 70 0 0 0 49.974232
21.329582 0.0026151459 0.70188951 134 0 0 0 49.582127
21.045774 0.52028811 0.69214284 174 0 0 0 49.197887
20.872372 1.0301204 0.68624675 301 0 0 0 48.801998
20.146029 1.9911026 0.66382599 169 0 0 0 48.025448
20.598045 1.525215 0.67762458 321 0 0 0 48.421581
17.649284 2.1843433 0.58646953 300 0 0 0 47.630501
17.762808 2.6436405 0.59099025 439 0 0 0 47.238808
15.157743 3.4159949 0.70409316 382.5 0 0 0 46.065247
17.191954 3.4309127 0.57603174 341 0 0 0 46.459969
17.568926 3.0584986 0.58623779 408 0 0 0 46.854713
14.339738 3.9832768 0.85716403 507 0 0 0 45.291538
14.646786 3.6822696 0.68458879 484.5 0 0 0 45.680233
14.453977 4.4010077 0.86898029 520 0 0 0 44.90332
11.999742 4.9924479 0.75013095 639 0 0 0 43.347233
14.231071 4.7192068 0.86189651 503 0 0 0 44.505741
11.274326 5.3576298 0.72079647 680 0 0 0 42.5555
11.635711 5.1813579 0.73530769 665 0 0 0 42.949768
13.724995 5.1199265 0.84201527 427 0 0 0 43.925049
11.427784 5.7794728 0.73806244 763 0 0 0 42.164951
11.173813 6.1796875 0.73533607 782.5 0 0 0 41.579231
8.2079153 6.8969979 0.79976535 986.33331 0 0 0 38.524586
8.6914787 6.655509 0.77082121 1027.5 0 0 0 39.239449
9.8173409 6.954731 0.84380317 680.5 0 0 0 39.820847
10.207046 6.8572454 0.70848674 759 0 0 0 40.215248
10.69858 6.6253071 0.72457093 759.5 0 0 0 40.798225
8.0624838 7.0035725 0.61936635 759 0 0 0 38.261421
8.5118313 7.7680573 0.80920959 430.5 0 0 0 37.868153
5.2405572 8.3744011 0.69942021 1226 0 0 0 33.556637
5.6817884 8.1555395 0.70311689 1260.5 0 0 0 34.34285
8.9463701 8.5730772 0.71300036 232 0 0 0 37.477154
9.3517218 9.4107332 0.7609821 305 0 0 0 37.07766
2.2666166 9.8395758 0.71535671 1071.75 0 0 0 28.284935
2.6090055 9.6770458 0.71019912 1018.5 0 0 0 28.873671
1.4493289 10.253235 0.73322845 1039 0 0 0 26.923611
1.8048896 10.076759 0.72510022 1044.25 0 0 0 27.513496
9.8222046 10.379433 0.81704032 239 0 0 0 36.689472
10.34826 11.484511 0.88112855 197 0 0 0 36.303848
10.256354 11.960946 0.89750963 191 0 0 0 35.901901
9.7796764 12.296824 0.8953405 210.5 0 0 0 35.318321
9.5270119 12.9301 0.91469413 149 0 0 0 34.728458
8.1151972 14.440802 0.53783166 96 0 0 0 32.773468
-15.997839 15.137396 0.75726557 188 0 0 0 11.6997
8.0356302 15.157232 0.55624324 120 0 0 0 32.392319
8.5762806 15.254518 0.9951663 123 0 0 0 32.773468
-15.021093 15.675516 0.74353212 159 0 0 0 12.47077
-16.238024 16.140213 0.78426731 63 0 0 0 12.08237
-14.864241 16.294273 0.75319558 88 0 0 0 12.86787
8.0114288 16.048714 0.5805496 71 0 0 0 31.99843
-19.343908 17.441525 0.89231014 59 0 0 0 11.31297
7.3737707 17.967829 0.62713426 235 0 0 0 30.82707
7.8069053 17.766247 0.62655175 208 0 0 0 31.21229
8.239852 17.56496 0.62579507 166 0 0 0 31.60236
6.7288828 18.289852 0.62940198 261 0 0 0 30.235146
7.0150299 21.44931 0.72393602 81 0 0 0 29.65056
6.7072301 22.346403 0.74763 35 0 0 0 29.26136
-4.0103512 22.64933 0.75164878 108 0 0 0 21.847111
-3.706949 24.450497 0.80454886 51 0 0 0 22.24028
-6.3299384 24.941299 0.84104753 71 0 0 0 20.677691
-7.7549076 25.288189 0.86633527 88 0 0 0 19.894951
-8.7846441 26.335335 0.90923184 56 0 0 0 19.50934
-6.3738618 28.017735 0.93414545 18 0 0 0 21.064131
-3.6378429 28.844429 0.93893868 43 0 0 0 22.63134
-2.93472 28.986895 0.93951607 25 0 0 0 23.019211
-5.8552842 29.025539 0.96019638 7 0 0 0 21.45999
2.2259002 31.2197 0.99837178 33 0 0 0 25.75795
0.97114426 -39.935764 1.3203037 14 0 0 0 74.213791
-19.995117 -35.297619 1.3278316 11 0 0 0 82.821793
26.204912 -33.606365 1.4141723 27 0 0 0 64.043808
23.93074 -32.295517 1.3358769 29 0 0 0 64.440659
-22.976971 -30.984869 1.2621304 17 0 0 0 84.770119
-23.438471 -30.038008 1.2466615 19 0 0 0 85.159874
-23.901114 -29.128305 1.2328894 39 0 0 0 85.560593
-25.491055 -26.779455 1.2094222 18 0 0 0 86.747116
-26.012156 -26.017647 1.203377 34 0 0 0 87.136398
-26.588764 -25.320185 1.2007458 46 0 0 0 87.527168
-27.071314 -24.541637 1.1949146 29 0 0 0 87.907211
-9.4966421 -21.424759 1.356702 18 0 0 0 81.257721
-30.76009 -19.483843 1.1897734 39 0 0 0 90.652313
-31.307358 -18.76997 1.1926093 55 0 0 0 91.045998
-1.3039591 -17.636019 1.4757314 20 0 0 0 75.786797
33.208305 -17.763927 1.2443032 9 0 0 0 57.38694
-11.420142 -17.097151 1.1929196 133 0 0 0 83.985802
-10.945786 -17.29059 1.1877013 156 0 0 0 83.60173
28.423079 -16.116486 1.0851195 50 0 0 0 57.787487
-26.720793 -15.142611 1.009159 16 0 0 0 91.43885
-1.8661915 -15.111654 1.2750121 191 0 0 0 76.56324
0.36364561 -15.032958 1.2608416 92 0 0 0 74.213791
-20.763481 -14.630121 1.4627459 9 0 0 0 89.875565
-9.966011 -14.157146 1.0099258 172 0 0 0 84.384949
1.3317351 -13.593162 1.1489036 52 0 0 0 73.039749
-10.880762 -13.265546 1.0006777 152 0 0 0 85.560593
1.6541717 -13.473074 1.142218 48 0 0 0 72.657356
2.6127784 -13.180787 1.4576904 15 0 0 0 71.48555
-4.5472927 -12.714586 1.2967423 307 0 0 0 80.081474
0.77292073 -12.717237 1.0738649 62 0 0 0 73.628128
2.3543444 -12.703815 1.0893121 112 0 0 0 71.678909
-18.139486 -12.127464 1.2616127 106 0 0 0 90.260315
-4.4945812 -11.658154 1.2023516 219.5 0 0 0 80.476799
0.86465621 -11.814096 1.2883072 45 0 0 0 73.4272
2.9833724 -11.950988 1.3393888 34 0 0 0 70.704681
-22.328209 -11.244917 1.4402473 21 0 0 0 92.199593
-0.28550234 -11.433202 1.2443787 298 0 0 0 74.999039
1.3969667 -11.389877 1.249385 158 0 0 0 72.657356
1.6773106 -11.363733 1.2507683 55 0 0 0 72.265205
1.8791169 -10.880943 1.2037959 81 0 0 0 71.872269
9.5044117 -10.003729 1.1629461 503 0 0 0 62.472401
-1.4124354 -9.5049915 1.0503384 710 0 0 0 76.960144
9.4988222 -9.9976006 1.4973485 434 0 0 0 62.472401
-1.4012437 -9.4408255 1.2778249 508 0 0 0 76.960144
-0.92156821 -9.3373938 1.4888958 526 0 0 0 76.171669
18.681284 -7.7496204 1.1773422 196 0 0 0 55.829006
45.422985 -6.7369995 1.4850967 21 0 0 0 51.923679
13.341351 -6.3206229 1.2377678 370 0 0 0 56.613354
8.5341501 -5.715982 1.3760977 36 0 0 0 58.956341
-10.715971 -5.07757 1.2855724 443 0 0 0 92.588989
-6.2086225 -5.1079025 1.2789537 465 0 0 0 88.693428
4.2486081 -5.0717063 1.226176 1162.1666 0 0 0 63.451588
4.5215821 -5.0101366 1.2502832 638.66669 0 0 0 62.86673
8.4764252 -5.3819323 1.2223759 826 0 0 0 58.562031
8.7457476 -5.2567225 1.1156949 188 0 0 0 58.17128
-22.858332 -4.5489783 1.3467433 106 0 0 0 96.506714
-20.601023 -4.6289182 1.2233112 57 0 0 0 96.11055
-15.627794 -4.7482753 1.3609192 234 0 0 0 94.957085
-10.870459 -4.8275557 1.2894675 392 0 0 0 92.990349
-6.3016167 -4.6859078 1.2510154 691.44446 0 0 0 89.474487
-1.2148651 -4.6137447 1.2415072 556.45001 0 0 0 78.709358
-0.97287023 -4.8851748 1.0509205 221 0 0 0 77.736076
-25.288124 -4.3894119 1.4796683 43 0 0 0 96.890839
-6.6664166 -4.4664149 1.4756322 348 0 0 0 90.260315
33.830784 -4.1728034 1.1096576 36 0 0 0 51.53754
31.687395 -3.1204844 1.0371913 45 0 0 0 51.148808
24.420687 -1.1979078 1.4011683 108 0 0 0 50.369579
23.816381 -0.581949 1.3649468 42 0 0 0 49.974232
21.37079 0.003204989 1.2269715 123 0 0 0 49.582127
21.007425 0.51990336 1.2060112 155 0 0 0 49.197887
20.805315 1.027364 1.1947461 290 0 0 0 48.801998
20.074957 1.9846056 1.1561143 172 0 0 0 48.025448
20.546295 1.5219246 1.1810282 273 0 0 0 48.421581
17.618954 2.1828337 1.2418489 274 0 0 0 47.630501
17.722843 2.6399555 1.2523301 403 0 0 0 47.238808
15.1153 3.4097755 1.2789415 344 0 0 0 46.065247
17.161396 3.4270139 1.2223158 327.5 0 0 0 46.459969
17.530804 3.0541053 1.243041 374 0 0 0 46.854713
14.326405 3.982614 1.2273904 479 0 0 0 45.291538
14.619507 3.6786642 1.2445568 438 0 0 0 45.680233
14.432677 4.397624 1.2441816 522 0 0 0 44.90332
11.967634 4.9819489 1.2294867 598.5 0 0 0 43.347233
14.220482 4.7187777 1.2351081 456 0 0 0 44.505741
11.257659 5.3524609 1.1825707 660 0 0 0 42.5555
11.613222 5.1741462 1.2059944 613.5 0 0 0 42.949768
13.723413 5.1224031 1.2074516 395 0 0 0 43.925049
11.386439 5.7614403 1.2092149 710 0 0 0 42.164951
11.142422 6.1652613 1.2061412 789.25 0 0 0 41.579227
-22.560394 6.8078489 1.4161466 28 0 0 0 4.3001499
8.1562967 6.9131727 1.2790865 1084 0 0 0 38.458794
8.6801472 6.6493187 1.3074625 1054 0 0 0 39.239449
9.8119135 6.9523187 1.2863744 691 0 0 0 39.820847
10.200589 6.8556738 1.1644478 626 0 0 0 40.215248
10.67605 6.6142669 1.1895094 702.25 0 0 0 40.798225
8.4722824 7.7334986 1.2282177 402 0 0 0 37.868153
5.2289529 8.3585958 1.1826078 1146.1666 0 0 0 33.556637
5.673121 8.1457176 1.1899804 1171 0 0 0 34.34285
8.5573311 8.2052155 1.2681243 290 0 0 0 37.477154
8.8808737 8.5135965 1.0151142 158 0 0 0 37.477154
9.2977619 9.359868 1.2464485 339.5 0 0 0 37.07766
-29.668871 9.7607708 1.1043143 25 0 0 0 4.67909
2.2625136 9.8268719 1.2091365 1083.25 0 0 0 28.284935
2.602942 9.6590881 1.1996834 940 0 0 0 28.873671
1.4462665 10.23905 1.2392442 1050 0 0 0 26.923611
1.8014182 10.063221 1.2255263 998.75 0 0 0 27.513496
9.7669401 10.324823 1.1672721 217 0 0 0 36.689472
10.290908 11.42502 1.2600523 203 0 0 0 36.303848
-32.379379 11.542178 1.2100408 30 0 0 0 5.0658202
10.962187 12.783935 1.3767958 167 0 0 0 35.901901
-10.381468 14.609796 1.4932286 44 0 0 0 14.82612
-9.6367188 15.074873 1.4884561 100 0 0 0 15.60101
-15.625994 15.530621 1.2933823 183 0 0 0 12.08237
-15.150814 15.81407 1.284229 162 0 0 0 12.47077
-10.136597 15.867592 1.0975033 13 0 0 0 15.60101
-8.9502811 15.641823 1.4968687 39 0 0 0 16.387699
-14.885014 16.319597 1.2933648 185 0 0 0 12.86787
-9.3659296 16.37923 1.0973253 123 0 0 0 16.387699
-9.1601896 16.975508 1.1200002 28 0 0 0 16.76861
8.649971 17.317135 1.0981519 212 0 0 0 31.99843
9.0743017 17.10083 1.0977719 129 0 0 0 32.392319
7.366487 17.948841 1.1017739 241 0 0 0 30.82707
7.7942872 17.736517 1.1001656 239 0 0 0 31.21229
8.2286272 17.540092 1.0996116 225 0 0 0 31.60236
6.7207003 18.266335 1.1054049 251 0 0 0 30.235146
-29.423006 21.743361 1.2526687 17 0 0 0 9.7534304
6.5198474 21.725571 1.2832192 63 0 0 0 29.26136
7.1000056 21.704454 1.2914231 43 0 0 0 29.65056
-28.704363 22.319532 1.2424203 14 0 0 0 10.13565
-27.043949 23.239717 1.2136259 16 0 0 0 10.91751
-4.7057366 23.257586 1.3559369 18 0 0 0 21.45999
-20.671799 23.852303 1.062857 35 0 0 0 13.25658
-29.783218 24.357092 1.3101001 20 0 0 0 10.52529
-4.3021927 24.338152 1.4098133 71 0 0 0 21.847111
-3.7108045 24.485971 1.4114165 81 0 0 0 22.24028
-6.328794 24.94315 1.4703673 100 0 0 0 20.677691
-21.675964 27.652708 1.1745368 21 0 0 0 14.03373
-21.168903 28.415117 1.1816334 15 0 0 0 14.43183
-20.783529 29.376715 1.1969619 8 0 0 0 14.82612
-21.17767 31.55447 1.2596718 22 0 0 0 15.21153
-20.280319 31.879477 1.2499374 26 0 0 0 15.60101
-2.410234 31.594231 1.0175971 9 0 0 0 23.411289
-27.320364 33.171032 1.4331816 22 0 0 0 13.64626
-19.956945 33.142239 1.2764463 37 0 0 0 15.99546
-18.936995 33.26701 1.2607217 40 0 0 0 16.387699
-18.114357 33.719772 1.2581218 28 0 0 0 16.76861
4.342937 35.837261 1.1443661 39 0 0 0 26.52947
-0.99668819 37.35046 1.1911066 11 0 0 0 24.19105
-0.079342857 37.197041 1.1844636 24 0 0 0 24.58519
0.89272046 39.599209 1.2577083 16 0 0 0 24.968121
5.1575685 -52.47942 1.7336029 14 0 0 0 73.039749
-0.0092539247 -50.261433 1.6514137 19 0 0 0 74.603638
20.504721 -49.543247 1.7684622 21 0 0 0 68.354042
-0.22487843 -17.98208 1.5008601 50 0 0 0 74.801338
-11.423173 -17.1082 1.7054815 138 0 0 0 83.985802
-10.944916 -17.295938 1.6972984 159 0 0 0 83.60173
-11.928596 -16.949705 1.7178671 134 0 0 0 84.384949
-0.0046665077 -16.713133 1.8029906 50 0 0 0 74.603638
-2.012558 -16.299547 1.7711681 108 0 0 0 76.56324
-0.79434025 -16.093201 1.738995 73 0 0 0 75.398575
28.750523 -16.30114 1.9066218 15 0 0 0 57.787487
-1.5403979 -15.611558 1.6935468 165 0 0 0 76.171669
-10.788679 -14.558968 1.9461299 25 0 0 0 84.770119
0.36044562 -14.902677 1.6120371 29 0 0 0 74.213791
-10.72011 -13.748655 1.8735731 94 0 0 0 85.159874
-4.5186672 -12.641503 1.7822742 53 0 0 0 80.081474
-18.202595 -12.174406 1.8112293 104 0 0 0 90.260315
1.1378475 -11.606194 1.5555004 85 0 0 0 73.039749
2.8081632 -11.860152 1.6251923 148 0 0 0 70.898857
-4.7452087 -11.468771 1.9569117 170 0 0 0 80.859795
0.27766338 -11.466815 1.5300028 374 0 0 0 74.213791
0.55859959 -11.458239 1.8139888 314 0 0 0 73.829048
2.2336378 -11.265749 1.5330592 67 0 0 0 71.48555
27.382633 -10.572066 1.6917794 138 0 0 0 55.445358
-1.7643735 -10.167831 1.7602899 292.5 0 0 0 77.346863
9.5527735 -10.050472 1.8464543 399 0 0 0 62.472401
10.094849 -10.111001 1.9015455 237 0 0 0 62.077831
2.62094 -9.5040436 1.8087449 142 0 0 0 70.308258
-1.1280236 -9.1339989 1.6884269 505 0 0 0 76.56324
-0.35185352 -9.4743023 1.8556867 291.5 0 0 0 75.198807
0.44890249 -9.2388468 1.9250221 50 0 0 0 73.829048
0.82560366 -9.2357759 1.8556185 402.66666 0 0 0 73.1689
1.1189001 -9.1244316 1.6879112 618 0 0 0 72.657356
2.9881473 -9.0761271 1.9893148 46 0 0 0 69.52198
-3.4539661 -8.9642525 1.9958887 92 0 0 0 80.476799
0.20514323 -8.5479898 1.7818067 292 0 0 0 74.213791
1.2948002 -8.7766323 1.630239 125 0 0 0 72.265205
-0.0042468193 -8.3860483 1.7480371 581 0 0 0 74.603638
1.6605389 -8.3813334 1.9904445 72 0 0 0 71.48555
2.0042233 -8.0320482 1.9298199 113 0 0 0 70.704681
17.851522 -7.4018736 1.6081095 78 0 0 0 55.829006
13.363894 -6.3292756 1.7813632 327 0 0 0 56.613354
13.518086 -6.0016627 1.5992432 30 0 0 0 56.2216
8.521184 -5.7069669 1.7550614 257.5 0 0 0 58.956341
-10.811777 -5.1253967 1.7399244 306.5 0 0 0 92.588989
-6.2114792 -5.1991801 1.8210865 446.33334 0 0 0 88.561913
4.1142468 -5.1624761 1.7100309 825 0 0 0 63.845783
8.4927912 -5.3908873 1.5974367 827 0 0 0 58.562031
8.5135231 -5.40376 1.8511119 692 0 0 0 58.562031
-20.589432 -4.6303954 1.7483398 80 0 0 0 96.11055
-15.688789 -4.7669945 1.7645572 213 0 0 0 94.957085
-10.868254 -4.8290448 1.7290258 464.5 0 0 0 92.990349
-6.5499706 -4.8721271 1.9009066 20 0 0 0 89.46904
-6.4010215 -4.7622061 1.7422571 642.59998 0 0 0 89.475571
-1.201177 -4.565731 1.6934761 467.83334 0 0 0 78.709358
4.2131987 -4.9517264 1.8124287 1087.4 0 0 0 63.333893
-6.598218 -4.4217472 1.7534668 639.5 0 0 0 90.260315
31.552273 -3.1063073 1.8096601 63 0 0 0 51.148808
29.622047 -2.1831262 1.6960762 60 0 0 0 50.754353
24.083725 0.0087157302 1.978531 70 0 0 0 49.582127
20.999725 0.52395827 1.7292564 155 0 0 0 49.197887
20.793871 1.0310031 1.713146 273 0 0 0 48.801998
20.083364 1.989508 1.6597695 183 0 0 0 48.025448
20.525236 1.5245199 1.6929888 275 0 0 0 48.421581
17.543335 2.1757102 1.887525 271 0 0 0 47.630501
17.663193 2.6333303 1.9055754 373 0 0 0 47.238808
15.099039 3.4064729 1.6543027 368 0 0 0 46.065247
17.307167 3.2354858 1.8781464 373.5 0 0 0 46.657341
14.270928 3.9690623 1.7657136 473 0 0 0 45.291538
14.591843 3.6735859 1.7938864 412 0 0 0 45.680233
14.394389 4.3878427 1.7925596 532.5 0 0 0 44.90332
11.959366 4.9813247 1.7058576 548 0 0 0 43.347233
13.901222 4.998147 1.7590849 421 0 0 0 44.116821
14.195562 4.712369 1.7813103 440 0 0 0 44.505741
11.230593 5.3424568 1.7922134 635.5 0 0 0 42.5555
11.588673 5.1661167 1.8281513 589.5 0 0 0 42.949768
13.519091 5.2405124 1.7265707 400 0 0 0 43.73328
11.337828 5.7398195 1.8298364 622.5 0 0 0 42.164951
10.878401 6.3773665 1.9715722 668.5 0 0 0 41.183891
11.131387 6.1026902 1.7750374 689.33331 0 0 0 41.646179
7.9979863 6.9527793 1.9245937 925 0 0 0 38.261421
8.1748686 6.8729043 1.7629837 960.33331 0 0 0 38.524586
8.6519241 6.6292591 1.8435197 864.75 0 0 0 39.239449
9.819932 6.9606752 1.7333935 548 0 0 0 39.820847
10.197306 6.8562756 1.7690017 593 0 0 0 40.215248
10.602048 6.6318755 1.7479922 654.33331 0 0 0 40.734501
8.407959 7.6777906 1.6407068 424.5 0 0 0 37.868153
4.997571 8.4470568 1.7848737 1059 0 0 0 33.16853
5.2601037 8.3182554 1.6434587 1044.4 0 0 0 33.634258
5.6581144 8.1253681 1.6773655 934 0 0 0 34.34285
8.5267525 8.1788483 1.7015159 222.5 0 0 0 37.477154
9.2270041 9.2921524 1.7195895 258 0 0 0 37.07766
1.9062824 9.9436197 1.713757 577.5 0 0 0 27.70668
2.2575903 9.8067417 1.7042854 1071.75 0 0 0 28.284935
2.5985091 9.6437235 1.6917675 856 0 0 0 28.873671
1.4426811 10.215114 1.7461783 1003.5 0 0 0 26.923611
1.6803583 10.099703 1.7332056 1061 0 0 0 27.320311
9.6841497 10.239376 1.6739156 256 0 0 0 36.689472
1.2624359 10.829329 1.8422976 371 0 0 0 26.52947
10.223044 11.351794 1.81138 208 0 0 0 36.303848
10.938631 12.756364 1.7826662 197 0 0 0 35.901901
-12.558422 14.448141 1.5982533 98 0 0 0 13.25658
-11.950399 14.446445 1.564557 95 0 0 0 13.64626
11.745638 14.393095 1.7407053 108 0 0 0 35.51416
-10.922727 14.60235 1.5200169 77 0 0 0 14.43183
-9.5843229 14.994491 1.9116493 57 0 0 0 15.60101
-15.694772 16.382088 1.8925865 30 0 0 0 12.47077
-10.999047 16.324007 1.636068 179 0 0 0 15.21153
-9.7522964 16.120346 1.5648006 161 0 0 0 15.99546
12.771728 16.452755 1.6949614 77 0 0 0 35.122486
9.498786 16.889982 1.5812385 218 0 0 0 32.773468
8.6431265 17.310024 1.5797426 227 0 0 0 31.99843
9.0719604 17.102701 1.580233 203 0 0 0 32.392319
-19.905699 17.953247 1.5719347 14 0 0 0 11.31297
7.3563991 17.931913 1.5835809 259 0 0 0 30.82707
7.7849975 17.722631 1.581544 216 0 0 0 31.21229
8.213871 17.515644 1.5800837 248 0 0 0 31.60236
12.915491 17.507416 1.7691902 224 0 0 0 34.728458
6.4945192 18.352133 1.5905414 209 0 0 0 30.036499
6.927259 18.143867 1.5867642 230 0 0 0 30.43379
-22.185345 21.030098 1.7864126 57 0 0 0 11.6997
-18.756895 21.636139 1.6663862 22 0 0 0 13.25658
-25.710526 22.093067 1.9832677 12 0 0 0 10.91751
-18.304638 22.191322 1.6718152 52 0 0 0 13.64626
-4.0728459 23.001225 1.9151591 83 0 0 0 21.847111
-3.5465732 23.360661 1.9358062 68 0 0 0 22.24028
-2.9674053 23.403296 1.9317241 5 0 0 0 22.63134
-8.4102783 25.207977 1.5213547 81 0 0 0 19.50934
-7.8120813 25.482319 1.5244167 109 0 0 0 19.894951
-2.9263034 28.917578 1.6484452 32 0 0 0 23.019211
-1.6135583 31.26568 1.7705351 15 0 0 0 23.79793
2.2270923 31.21661 1.7642788 50 0 0 0 25.75795
-21.653946 42.837406 1.56688 11 0 0 0 17.16651
-21.119688 44.461658 1.6028996 31 0 0 0 17.55106
-20.469357 45.974297 1.6349804 20 0 0 0 17.943331
-18.302652 47.21698 1.6389325 17 0 0 0 18.727489
-13.182995 47.325439 1.5800232 12 0 0 0 20.29693
-19.780909 47.538464 1.6689742 12 0 0 0 18.341431
-17.98502 50.016743 1.7156326 20 0 0 0 19.11977
0.96987969 -39.882492 2.2949691 24 0 0 0 74.213791
-21.428385 -35.752956 2.3830359 14 0 0 0 83.213913
26.144781 -33.528561 2.4519107 19 0 0 0 64.043808
23.050785 -32.758408 2.3119667 22 0 0 0 64.823128
23.127674 -31.212011 2.243268 24 0 0 0 64.440659
-25.445263 -29.503082 2.226825 27 0 0 0 85.954231
-26.547297 -27.888876 2.2005064 26 0 0 0 86.747116
-27.210527 -27.216034 2.1991789 14 0 0 0 87.136398
-10.138978 -22.884367 2.0695524 20 0 0 0 81.257721
-35.164124 -19.925106 2.3060408 30 0 0 0 91.43885
-36.291889 -19.403034 2.3474066 14 0 0 0 91.820068
-0.86723471 -17.643906 2.3374112 158 0 0 0 75.398575
-0.0014964913 -17.509203 2.3175716 54 0 0 0 74.603638
33.477386 -17.906776 2.1838717 13 0 0 0 57.38694
-11.967061 -17.004395 2.2281988 45 0 0 0 84.384949
-11.427333 -17.114483 2.2057781 86 0 0 0 83.985802
-10.973516 -17.341164 2.199928 97 0 0 0 83.60173
0.83942771 -17.1392 2.2724652 17 0 0 0 73.829048
1.2608238 -17.133993 2.2753942 26 0 0 0 73.4272
-2.9451697 -16.98472 2.2805068 28 0 0 0 77.346863
-2.0221477 -16.400957 2.1880367 78 0 0 0 76.56324
-1.15593 -15.663319 2.0816767 89 0 0 0 75.786797
-0.7747106 -15.749108 2.4799612 183 0 0 0 75.398575
1.1449893 -15.569969 2.4568696 64 0 0 0 73.4272
-2.2868237 -15.422994 2.4516773 81 0 0 0 76.960144
-0.0021458815 -15.32908 2.4122825 178 0 0 0 74.603638
1.4978898 -15.24981 2.4122519 11 0 0 0 73.039749
1.8659908 -15.16605 2.4058213 174 0 0 0 72.657356
2.2485218 -15.192204 2.2269006 30.5 0 0 0 72.265205
-8.3729515 -14.797226 2.2467759 22 0 0 0 82.821793
2.5773978 -14.88619 2.0057676 16 0 0 0 71.872269
3.1873679 -14.223665 2.2973239 130 0 0 0 71.093033
-18.281584 -12.227375 2.3531952 103 0 0 0 90.260315
-9.5265255 -12.223343 2.050225 111 0 0 0 85.159874
2.4771292 -12.487613 2.0105252 52 0 0 0 71.48555
0.28605178 -11.803331 2.1577864 163 0 0 0 74.213791
0.56245828 -11.536002 2.11169 99 0 0 0 73.829048
1.4247224 -11.597288 2.4237292 153 0 0 0 72.657356
1.7216605 -11.647734 2.4422967 155 0 0 0 72.265205
2.0039754 -11.587233 2.4394073 18 0 0 0 71.872269
-4.657567 -11.257024 2.3694818 96 0 0 0 80.859795
-4.3482504 -11.284553 2.2067635 247 0 0 0 80.476799
-1.6617084 -11.200298 2.3478281 670 0 0 0 76.960144
-1.8666918 -10.758527 2.2651443 25 0 0 0 77.346863
10.719155 -10.734507 2.3923821 408 0 0 0 62.077831
27.290579 -10.530296 2.4148648 157 0 0 0 55.445358
-1.5249286 -10.288718 2.4136214 389 0 0 0 76.960144
-1.267131 -10.279396 2.4037161 204 0 0 0 76.56324
1.8168415 -10.499851 2.4741795 67 0 0 0 71.872269
9.6670198 -10.170102 2.215431 420 0 0 0 62.472401
-3.6683588 -9.5254631 2.3682027 255 0 0 0 80.476799
-3.1629701 -9.5834942 2.0952625 202 0 0 0 79.685265
-1.6968631 -9.7882242 2.3065813 102 0 0 0 77.346863
0.23058161 -9.5039015 2.4429989 344 0 0 0 74.213791
0.97738266 -9.9637384 2.3260098 283 0 0 0 73.039749
-7.374229 -9.0001574 2.4095416 18 0 0 0 85.560593
-3.8166845 -9.229888 2.3178849 148 0 0 0 80.859795
-3.3327146 -9.3240223 2.0562835 616 0 0 0 80.081474
-0.782318 -9.0839806 2.2326035 366.5 0 0 0 75.979233
-0.002270221 -9.4422655 2.1949358 452 0 0 0 74.603638
1.1654146 -9.4866972 2.2222581 135 0 0 0 72.657356
2.3560338 -9.4405823 2.0246041 109 0 0 0 70.704681
-4.5843296 -8.5928459 2.2607355 76 0 0 0 82.435768
-4.052165 -8.5831318 2.3200274 451.5 0 0 0 81.646065
-3.8793418 -8.7670736 2.2260852 265 0 0 0 81.257721
-3.1863723 -8.9195595 2.1999137 116 0 0 0 80.081474
-1.7496431 -8.8042192 2.3072572 69 0 0 0 77.736076
-1.2693206 -8.5599833 2.2256525 308 0 0 0 76.960144
-0.26924241 -8.6629591 2.2845144 410.75 0 0 0 75.09996
0.65322047 -8.9098501 2.078912 308 0 0 0 73.4272
1.9054623 -8.516551 2.0325134 250 0 0 0 71.093033
-4.082262 -8.1254072 2.1130002 122 0 0 0 82.039604
-3.1223121 -8.1079617 2.4491813 15 0 0 0 80.476799
-2.9815731 -8.3463564 2.4978178 377 0 0 0 80.081474
-1.2797427 -8.280036 2.2579966 316.25 0 0 0 77.054276
-0.82099229 -8.3281183 2.1536136 496 0 0 0 76.171669
2.4049368 -8.3235178 2.018604 194 0 0 0 70.111366
19.626331 -8.1357756 2.2809205 29 0 0 0 55.829006
-4.0024605 -7.9666991 2.2909927 129 0 0 0 82.039604
-3.7417164 -7.9259777 2.470293 37 0 0 0 81.646065
-3.1547275 -7.6297164 2.1240656 56 0 0 0 80.859795
-3.9395018 -7.3851547 2.3604646 22 0 0 0 82.435768
13.359236 -6.3250704 2.3287253 426 0 0 0 56.613354
-6.1363406 -5.5767746 2.3392644 525 0 0 0 87.907211
8.582551 -5.7463589 2.2764344 205.5 0 0 0 58.956341
-6.2345796 -5.2176027 2.2270091 547.83331 0 0 0 88.560394
3.931288 -5.1203556 2.2301338 686.25 0 0 0 64.143021
8.528533 -5.4118505 2.2267647 594.5 0 0 0 58.562031
-25.945456 -4.5084805 2.1731534 119 0 0 0 96.890839
-20.559662 -4.6240015 2.2579947 130 0 0 0 96.11055
-15.73141 -4.7831421 2.1738696 204 0 0 0 94.957085
-10.957138 -4.868741 2.3359432 528.5 0 0 0 92.990349
-6.474349 -4.5738688 2.139811 503 0 0 0 89.875565
3.9431801 -4.9025974 2.3553407 606.66669 0 0 0 63.779774
4.1303387 -4.866014 2.24543 795.5 0 0 0 63.353504
-15.972559 -4.4308949 2.1913784 24 0 0 0 95.333359
-7.5661659 -4.0576019 2.4222865 499 0 0 0 91.820068
-7.2427592 -4.2741647 2.3036823 438.33334 0 0 0 91.176949
-6.6767106 -4.3334632 2.2068875 524.59998 0 0 0 90.495514
-6.2544169 -4.3430133 2.4006464 466.33334 0 0 0 90.003815
29.552429 -2.1719735 2.4305618 59 0 0 0 50.754353
24.387548 -1.1913276 2.0078568 102 0 0 0 50.369579
26.462685 -0.64093977 2.1723809 63 0 0 0 49.974232
20.701258 0.51705152 2.2088623 146 0 0 0 49.197887
20.748407 1.0292963 2.2147696 290 0 0 0 48.801998
20.035543 1.9852905 2.1456561 158 0 0 0 48.025448
20.504185 1.5234911 2.1914084 291 0 0 0 48.421581
17.535425 2.1782925 2.3219583 283 0 0 0 47.630501
17.635117 2.6327469 2.341831 351 0 0 0 47.238808
-63.289623 3.0957308 2.260746 11 0 0 0 0.39765
15.069254 3.4030795 2.2232041 281.5 0 0 0 46.065247
17.270596 3.2322927 2.3071389 327.5 0 0 0 46.657341
14.241333 3.962687 2.3109312 436 0 0 0 45.291538
14.554268 3.6660171 2.3464422 436 0 0 0 45.680233
14.355854 4.377984 2.3450356 452 0 0 0 44.90332
11.942677 4.9747553 2.1846907 414 0 0 0 43.347233
13.893848 4.9973187 2.30632 465 0 0 0 44.116821
14.148821 4.6987343 2.3290026 394 0 0 0 44.505741
11.219335 5.33743 2.2528045 528 0 0 0 42.5555
11.574151 5.1599998 2.2975368 533 0 0 0 42.949768
13.513003 5.2399364 2.2639356 413 0 0 0 43.73328
11.215805 5.8533726 2.2926779 575.5 0 0 0 41.972515
8.1937056 6.4450431 2.4069545 418 0 0 0 39.044338
10.865049 6.369699 2.2816565 610 0 0 0 41.183891
7.9909916 6.9479532 2.3140113 911.5 0 0 0 38.261421
8.3158598 6.7618012 2.2979944 778.33331 0 0 0 38.785557
8.7709246 6.5512443 2.2572718 843 0 0 0 39.434559
9.7962646 6.9441514 2.3242559 509.5 0 0 0 39.820847
10.190198 6.8516808 2.224791 550 0 0 0 40.215248
10.509556 6.6959448 2.2573943 515 0 0 0 40.607048
8.3293438 7.60639 2.1847274 378.5 0 0 0 37.868153
4.9875207 8.4313793 2.1430235 910.5 0 0 0 33.16853
5.2147593 8.1574812 2.1876397 682.59998 0 0 0 33.711571
5.6389694 8.0991297 2.1585579 890 0 0 0 34.34285
8.4741716 8.128643 2.1282284 109 0 0 0 37.477154
8.5415049 8.1927767 2.4365597 106 0 0 0 37.477154
4.8341951 8.6524849 2.2893624 129 0 0 0 32.773468
9.1463766 9.2112885 2.187247 295 0 0 0 37.07766
1.8037033 9.8532648 2.1497233 767 0 0 0 27.57789
2.2539859 9.7920446 2.1964436 918.75 0 0 0 28.284935
2.6154885 9.7058716 2.1976757 450.5 0 0 0 28.873671
1.3202829 10.26089 2.2602172 788.75 0 0 0 26.72654
1.676493 10.081845 2.3582356 882 0 0 0 27.320311
9.6092186 10.162175 2.1807775 271 0 0 0 36.689472
10.130566 11.251363 2.3577008 188 0 0 0 36.303848
10.836318 12.641869 2.176728 170 0 0 0 35.901901
-10.755994 14.376703 2.3719814 115 0 0 0 14.43183
11.6245 14.249954 2.4004653 108 0 0 0 35.51416
-12.716185 14.633129 2.0876403 196 0 0 0 13.25658
-11.505321 14.624795 2.0023468 75 0 0 0 14.03373
-10.374336 14.598713 2.3649552 37 0 0 0 14.82612
-12.407018 15.004887 2.095242 154 0 0 0 13.64626
-11.246718 15.041321 2.0195398 49 0 0 0 14.43183
-10.415292 15.449575 2.4583595 30 0 0 0 15.21153
-10.68594 15.857994 2.0533884 27 0 0 0 15.21153
-10.034135 15.701105 2.4574203 27 0 0 0 15.60101
12.687939 16.344885 2.1872261 71 0 0 0 35.122486
9.4877892 16.869747 2.0499659 203 0 0 0 32.773468
8.2032013 17.491955 2.0476584 213 0 0 0 31.60236
8.6327534 17.288399 2.0475974 262 0 0 0 31.99843
9.0591574 17.077829 2.047986 237 0 0 0 32.392319
12.906611 17.494936 2.296587 254 0 0 0 34.728458
-19.895267 17.940214 2.2362618 63 0 0 0 11.31297
7.3480577 17.910381 2.0522811 262 0 0 0 30.82707
7.7797527 17.709557 2.0506022 234 0 0 0 31.21229
-23.372227 18.158249 2.4743943 52 0 0 0 10.13565
6.491919 18.343128 2.0626841 225 0 0 0 30.036499
6.9205151 18.124826 2.0566869 232 0 0 0 30.43379
-21.82741 18.739986 2.4017086 15 0 0 0 10.91751
-19.553934 18.521326 2.2460713 52 0 0 0 11.6997
-19.506777 19.407194 2.2920845 39 0 0 0 12.08237
-18.475903 20.277102 2.2810559 52 0 0 0 12.86787
-27.204586 21.152563 2.0207322 28 0 0 0 10.13565
-26.929222 22.018724 2.0369623 16 0 0 0 10.52529
-18.540346 23.634422 2.4888361 24 0 0 0 14.03373
-10.250877 26.348129 2.3227341 6 0 0 0 18.727489
-0.079480164 26.652987 2.1732883 17 0 0 0 24.58519
0.57425886 26.614355 2.1697664 39 0 0 0 24.968121
-20.992153 28.181116 2.0309544 12 0 0 0 14.43183
-1.466942 28.218199 2.304229 20 0 0 0 23.79793
-20.310989 28.710312 2.0300493 8 0 0 0 14.82612
-0.79744303 29.204618 2.3802876 15 0 0 0 24.19105
-20.789114 30.977898 2.1491647 29 0 0 0 15.21153
-20.208189 33.566654 2.2502828 20 0 0 0 15.99546
4.3536158 35.911396 2.0321767 25 0 0 0 26.52947
-0.078395784 44.062172 2.4756255 39 0 0 0 24.58519
-3.7889805 -51.258663 2.9438558 13 0 0 0 75.786797
-14.783984 -44.741997 2.6950128 14 0 0 0 79.685265
-13.455862 -44.346119 2.6517215 23 0 0 0 79.293854
-16.499893 -42.768543 2.6214373 14 0 0 0 80.476799
-21.499571 -40.222763 2.6052511 18 0 0 0 82.435768
-18.865696 -39.886444 2.5227227 17 0 0 0 81.646065
-8.0714293 -26.616756 2.9731438 14 0 0 0 79.293854
-40.106743 -24.043501 2.6624062 12 0 0 0 91.045998
-37.763985 -23.918549 2.5467608 23 0 0 0 90.652313
25.602983 -19.992344 2.6882041 22 0 0 0 60.124859
-0.4195931 -17.046474 2.6793678 24 0 0 0 74.999039
-2.0499313 -16.626783 2.632009 67 0 0 0 76.56324
-6.01302 -15.603941 2.6250868 71 0 0 0 80.476799
-2.3005574 -15.515776 2.8542192 138 0 0 0 76.960144
-1.1715707 -15.876298 2.503212 40 0 0 0 75.786797
-0.0019900934 -15.796899 2.8756638 46 0 0 0 74.603638
0.38824001 -15.915072 2.5041904 99 0 0 0 74.213791
2.7372332 -15.805358 2.5243006 37 0 0 0 71.872269
-0.37524205 -15.217684 2.7720332 84 0 0 0 74.999039
-9.9093428 -14.087335 2.7010286 46 0 0 0 84.384949
1.0531926 -14.330496 2.6193714 131 0 0 0 73.4272
2.8183265 -14.199798 2.6398022 44 0 0 0 71.48555
3.167192 -14.133744 2.6413565 14 0 0 0 71.093033
-14.386688 -13.714767 2.6190934 11 0 0 0 87.527168
-15.120116 -13.059884 2.6323664 27 0 0 0 88.298889
-14.45472 -13.118178 2.5726807 53 0 0 0 87.907211
-10.929994 -12.687667 2.6267443 41 0 0 0 85.954231
-18.365759 -12.288455 2.9075778 96 0 0 0 90.260315
0.58819216 -12.013468 2.7875812 151 0 0 0 73.829048
2.4371486 -12.286595 2.5965257 121 0 0 0 71.48555
-18.57165 -11.776917 2.8937283 83 0 0 0 90.652313
0.28913397 -11.843253 2.7459085 106 0 0 0 74.213791
-3.9318054 -11.005919 2.9936171 222 0 0 0 80.081474
1.6432036 -11.106524 2.6049597 286 0 0 0 72.265205
2.4671733 -11.011812 2.8955801 241 0 0 0 71.093033
2.8091638 -10.681187 2.8350906 167 0 0 0 70.50647
3.2941487 -10.882094 2.9177444 44 0 0 0 69.914474
3.6712174 -10.69504 2.9024856 136.5 0 0 0 69.323257
10.692739 -10.707817 2.7612991 905 0 0 0 62.077831
0.73510772 -10.012391 2.5784507 638 0 0 0 73.4272
1.1367295 -10.277405 2.6552086 212 0 0 0 72.848557
0.6996603 -9.5122242 2.9222915 203 0 0 0 73.4272
2.9757979 -9.8344841 2.8949878 205 0 0 0 69.914474
-21.81168 -9.0448675 2.5242791 42 0 0 0 93.381981
-1.8616816 -9.3773966 2.9273684 78 0 0 0 77.736076
-0.89280874 -9.0771627 2.794755 425 0 0 0 76.171669
0.33571434 -9.2072554 2.5974936 185 0 0 0 74.021423
0.78878719 -9.1959629 2.6023955 402 0 0 0 73.233475
2.1818588 -9.208704 2.6686723 316 0 0 0 70.898857
-6.7303495 -8.6416016 2.8069406 105 0 0 0 85.159874
-2.823982 -8.5638828 2.6510341 141 0 0 0 79.685265
-0.85390007 -8.6639261 2.8840847 211 0 0 0 76.171669
-0.16414629 -8.8162584 2.757725 329.75 0 0 0 74.901222
0.32122651 -8.7518005 2.7953756 146 0 0 0 74.021423
2.3576941 -8.5477562 2.5025086 300 0 0 0 70.308258
-14.327979 -8.1311398 2.9924605 15 0 0 0 91.43885
-8.2826538 -8.300189 2.7148745 105 0 0 0 87.136398
-7.7536039 -8.1612368 2.7433939 37 0 0 0 86.747116
-1.4331748 -8.2815065 2.9907377 198 0 0 0 77.346863
0.30502623 -8.3511486 2.6672063 360.5 0 0 0 74.021423
18.600182 -8.2478781 2.6873722 183 0 0 0 56.2216
-7.8609848 -7.878181 2.8516123 75 0 0 0 87.136398
-6.8294282 -7.9342127 2.684243 36 0 0 0 85.954231
-2.7283845 -7.6461244 2.8893232 150 0 0 0 80.081474
-0.95120806 -7.7303162 2.7739711 125 0 0 0 76.56324
-0.19249772 -7.8294854 2.7903023 226.66667 0 0 0 75.00042
-5.0029902 -7.1194911 2.8814847 54 0 0 0 84.384949
-2.7957184 -7.2676959 2.9630806 39 0 0 0 80.476799
-2.3743918 -7.2067938 2.8881993 109 0 0 0 79.685265
-1.0565215 -7.1379662 2.748544 7 0 0 0 76.960144
-0.64177543 -7.4642329 2.6697712 392 0 0 0 75.979233
-0.00061620388 -7.427454 2.8291264 149 0 0 0 74.603638
-7.1287136 -6.80338 2.7735212 28 0 0 0 87.527168
-5.1902366 -6.7811379 2.6874914 515 0 0 0 85.029961
3.6644728 -6.8727374 2.9695368 75 0 0 0 66.782913
-8.17377 -6.0777617 2.7392735 97 0 0 0 89.46904
-5.7270317 -6.132092 2.848567 359.33334 0 0 0 86.615395
-4.7511106 -6.1073685 2.7560704 351.33334 0 0 0 85.163536
13.355384 -6.322865 2.6942196 323 0 0 0 56.613354
-6.144702 -5.5872488 2.7516837 384 0 0 0 87.909531
-5.8992481 -5.7741528 2.8362992 415.75 0 0 0 87.331787
-5.0992069 -5.9308414 2.9766626 125 0 0 0 85.954231
8.5307579 -5.7102451 2.7681141 331.5 0 0 0 58.956341
-20.548626 -5.1588926 2.7909179 130 0 0 0 95.719566
-15.626169 -5.1739745 2.7874346 205.5 0 0 0 94.562393
-7.0156698 -5.2181301 2.8965018 286 0 0 0 89.46904
-6.8349595 -5.0857491 2.6124628 339 0 0 0 89.46904
-6.2575712 -5.2811508 2.6133213 397 0 0 0 88.496155
8.4652805 -5.3702197 2.8290019 592 0 0 0 58.562031
8.514431 -5.4015317 2.5944071 601 0 0 0 58.562031
9.1116009 -5.4697189 2.9966588 310 0 0 0 58.17128
-20.498222 -4.614254 2.7683947 107 0 0 0 96.11055
-10.988912 -4.8853312 2.7849801 544 0 0 0 92.990349
-15.775146 -4.3765287 2.7724957 171 0 0 0 95.333359
-10.56393 -4.3894725 2.9321206 54 0 0 0 93.381981
-8.1973629 -4.1415663 2.8148007 219 0 0 0 92.199593
-7.5238848 -4.0359435 2.7248187 568.5 0 0 0 91.820068
-7.447504 -4.2344141 2.6277094 249 0 0 0 91.43885
-6.6092367 -4.3159513 2.6189404 387 0 0 0 90.456314
-6.2593708 -4.0862293 2.6651921 395.5 0 0 0 90.456314
-5.8880959 -4.1638508 2.6593213 370.5 0 0 0 89.875565
-15.77942 -3.9631512 2.9575355 102 0 0 0 95.719566
-9.759079 -3.6847947 2.849623 129.66667 0 0 0 93.906166
-9.4363756 -3.9218438 2.8771002 45 0 0 0 93.381981
-7.5867739 -3.8321047 2.8180075 452 0 0 0 92.199593
-6.5710335 -3.8460875 2.6198101 368 0 0 0 91.242424
-6.4100151 -3.788517 2.7760706 471.33334 0 0 0 91.176949
-5.8588285 -3.9313543 2.6901312 420 0 0 0 90.260315
-11.954413 -3.3180923 2.5693088 78 0 0 0 95.333359
-11.115231 -3.0879426 2.9576705 27 0 0 0 95.333359
-10.880766 -3.022769 2.618609 41 0 0 0 95.333359
-9.6704674 -3.3378236 2.7551074 98 0 0 0 94.364258
-7.1575289 -3.1881466 2.9853022 377 0 0 0 92.990349
-6.7712588 -3.4241717 2.8915842 170 0 0 0 92.199593
-6.4439716 -3.4602041 2.7883723 480 0 0 0 91.820068
-11.425748 -2.576762 2.7150526 173 0 0 0 96.11055
-10.465968 -2.6326902 2.7695179 190 0 0 0 95.719566
-9.6661654 -2.4320207 2.8085797 78 0 0 0 95.719566
-7.4582062 -2.4778926 2.99528 254 0 0 0 94.562393
-10.446522 -1.8224429 2.9864402 143 0 0 0 96.890839
-8.5512714 -1.7103757 2.8931286 167 0 0 0 96.506714
-8.2764158 -1.2390387 2.9839072 102 0 0 0 97.289963
24.325075 -1.1876147 2.5950329 114 0 0 0 50.369579
26.337917 -0.63721234 2.8029296 80 0 0 0 49.974232
24.050789 0.0093503436 2.5607543 100 0 0 0 49.582127
20.688911 0.52091855 2.7171748 208 0 0 0 49.197887
20.710052 1.0315739 2.721359 215 0 0 0 48.801998
19.979254 1.9837638 2.6341913 193 0 0 0 48.025448
20.427845 1.5219506 2.6878388 240 0 0 0 48.421581
17.516314 2.176374 2.7569649 248 0 0 0 47.630501
17.612602 2.6298387 2.780273 355 0 0 0 47.238808
15.015696 3.3915551 2.788105 196 0 0 0 46.065247
17.254927 3.2298591 2.740238 337.5 0 0 0 46.657341
14.205132 3.9529686 2.6708364 370 0 0 0 45.291538
14.533174 3.6610596 2.7147748 355 0 0 0 45.680233
14.319997 4.3674006 2.7105591 449 0 0 0 44.90332
11.19185 4.9929671 2.8259821 380 0 0 0 42.949768
11.903862 4.9603348 2.8138614 307 0 0 0 43.347233
13.865066 4.9872923 2.6670554 384 0 0 0 44.116821
14.128584 4.6923428 2.6949384 434 0 0 0 44.505741
11.198571 5.3290954 2.7066531 513.5 0 0 0 42.5555
11.561996 5.15482 2.607317 437 0 0 0 42.949768
13.547359 5.2536359 2.8093677 165.5 0 0 0 43.73328
11.165283 5.8289132 2.7473974 496.5 0 0 0 41.972515
8.1809139 6.4350791 2.6594315 313 0 0 0 39.044338
10.878339 6.3188457 2.6922462 559.66669 0 0 0 41.248722
-7.1299133 6.6993918 2.7441418 59 0 0 0 11.6997
7.9603477 6.9226923 2.8257461 807 0 0 0 38.261421
8.2193918 6.7989626 2.8570342 677 0 0 0 38.656166
8.7449665 6.5344296 2.6530237 666 0 0 0 39.434559
10.242819 6.88836 2.6926622 175 0 0 0 40.215248
10.656907 6.6681671 2.793196 188 0 0 0 40.734501
9.8985395 7.019012 2.7956035 78 0 0 0 39.820847
8.2535915 7.5402288 2.7151861 315 0 0 0 37.868153
4.9731841 8.409276 2.7395496 851.33331 0 0 0 33.16853
5.3188615 8.2337208 2.7973948 831.79999 0 0 0 33.789814
5.6305246 8.0881023 2.6416283 743.5 0 0 0 34.34285
8.5725927 8.2252264 2.7369976 135 0 0 0 37.477154
-28.256481 8.5323019 2.5001035 21 0 0 0 4.3001499
-7.7991595 8.5034428 2.9481401 120 0 0 0 12.86787
3.8931136 8.9403582 2.9754162 802 0 0 0 31.21229
4.2163787 8.7808285 2.9724731 788 0 0 0 31.800396
4.7132983 8.5615845 2.8005667 698.25 0 0 0 32.678181
3.3526349 9.2101002 2.9899971 784 0 0 0 30.235146
3.6761284 9.0443754 2.9786386 827 0 0 0 30.82707
9.0520325 9.1182365 2.7988858 244.5 0 0 0 37.07766
1.9064438 9.9454632 2.7113898 854 0 0 0 27.70668
2.2477407 9.7661324 2.6839352 884.25 0 0 0 28.284935
2.692486 9.6760092 2.7310779 353.66666 0 0 0 29.002901
1.31792 10.244638 2.7648242 775.5 0 0 0 26.726542
1.6743026 10.065594 2.7316241 792.5 0 0 0 27.320311
9.5451393 10.094596 2.6817169 222.5 0 0 0 36.689472
10.089468 11.205786 2.7220743 203 0 0 0 36.303848
10.744265 12.534667 2.7718573 132 0 0 0 35.901901
11.532803 14.137771 2.8338618 108 0 0 0 35.51416
-12.812929 15.49622 2.656074 34 0 0 0 13.64626
12.575023 16.205486 2.6735184 58 0 0 0 35.122486
9.4729185 16.849098 2.7622705 211.5 0 0 0 32.773468
8.1879311 17.465836 2.7579143 235 0 0 0 31.60236
8.620369 17.269758 2.7591405 206.5 0 0 0 31.99843
9.0458078 17.058628 2.7597148 226.5 0 0 0 32.392319
12.886193 17.473249 2.8279192 168 0 0 0 34.728458
7.3404417 17.899422 2.526958 218 0 0 0 30.82707
7.7643013 17.681124 2.761456 230 0 0 0 31.21229
-21.014513 18.041653 2.9843125 51 0 0 0 10.91751
-20.079487 18.1098 2.9121437 78 0 0 0 11.31297
6.4824567 18.324991 2.5388036 198 0 0 0 30.036499
6.9117217 18.109863 2.5318403 234 0 0 0 30.43379
-18.985888 18.889223 2.8805921 65 0 0 0 12.08237
6.0499406 18.53937 2.547096 34 0 0 0 29.65056
-23.429976 19.143307 2.5267749 17 0 0 0 10.52529
-19.078455 19.937971 2.9653614 55 0 0 0 12.47077
-7.0473456 22.95792 2.5563054 18 0 0 0 19.894951
-6.5110526 23.229504 2.5667448 13 0 0 0 20.29693
4.3390608 35.831978 2.9263306 17 0 0 0 26.52947
-16.071575 41.443386 2.5296412 22 0 0 0 18.727489
-15.401427 42.807713 2.5857542 16 0 0 0 19.11977
-19.275282 43.289238 2.700377 21 0 0 0 17.943331
-22.366232 44.259571 2.8307455 6 0 0 0 17.16651
-21.533297 45.343815 2.861881 10 0 0 0 17.55106
-4.1868215 83.435188 2.6275654 5 0 0 0 23.79793
8.3474121 -56.355637 3.2659769 18 0 0 0 72.265205
-1.2978538 -52.507389 3.0090046 26 0 0 0 74.999039
20.433395 -49.370239 3.0703928 29 0 0 0 68.354042
-33.929127 -43.4786 3.1385155 14 0 0 0 85.159874
22.908754 -32.543983 3.288363 27 0 0 0 64.823128
23.566456 -31.791342 3.2700043 12 0 0 0 64.440659
23.84597 -30.571241 3.2044539 8 0 0 0 64.043808
-26.517134 -27.86713 3.1561205 25 0 0 0 86.747116
-35.339226 -20.032814 3.3290787 10 0 0 0 91.43885
-1.7603039 -17.879217 3.2648933 35 0 0 0 76.171669
3.0392499 -17.542328 3.2386019 61 0 0 0 71.872269
-5.4801068 -16.604271 3.1763022 53 0 0 0 79.685265
-0.79582965 -16.18198 3.3463871 28 0 0 0 75.398575
-5.6147628 -15.707626 3.0315189 99 0 0 0 80.081474
23.289797 -15.571764 3.0024526 23 0 0 0 58.956341
27.789446 -15.748827 3.4158695 9 0 0 0 57.787487
-10.408257 -14.796219 3.2828612 103 0 0 0 84.384949
-1.8457931 -14.967688 3.1165357 220 0 0 0 76.56324
-2.5864508 -13.021371 3.0714643 73 0 0 0 77.736076
-22.345634 -12.675892 3.3746111 16 0 0 0 91.43885
-9.1169033 -12.96158 3.2696385 39 0 0 0 84.384949
2.5709143 -12.945761 3.3809645 154 0 0 0 71.48555
-18.428062 -12.330294 3.4660611 81 0 0 0 90.260315
2.1123297 -12.197333 3.4801252 226 0 0 0 71.872269
-18.395689 -11.665608 3.4057605 46 0 0 0 90.652313
-11.367446 -11.956272 3.4021211 42 0 0 0 86.747116
-10.859311 -11.998013 3.3378553 50 0 0 0 86.351982
1.450086 -11.784954 3.3389921 92 0 0 0 72.657356
-13.29807 -11.487494 3.1892245 49 0 0 0 88.298889
-11.106301 -11.122548 3.242981 20 0 0 0 87.136398
-4.9360962 -11.154029 3.1225851 134 0 0 0 81.257721
1.1109927 -11.292796 3.4709971 98 0 0 0 73.039749
-5.5172229 -10.979468 3.4503002 60 0 0 0 82.039604
-1.5721421 -10.620838 3.2840042 49 0 0 0 76.960144
-1.0493107 -10.657566 3.0128903 53 0 0 0 76.171669
-0.78948253 -10.701101 3.0189276 132 0 0 0 75.786797
-0.26804867 -10.875912 3.0607805 243 0 0 0 74.999039
2.9444683 -10.656354 3.3841064 46 0 0 0 70.308258
27.244274 -10.511673 3.1206632 117 0 0 0 55.445358
-10.505912 -10.021689 3.353507 76 0 0 0 87.527168
-4.5911999 -10.377466 3.3295097 87.5 0 0 0 81.257721
-1.4993798 -10.115941 3.3821833 55 0 0 0 76.960144
-0.75414586 -10.243475 3.1434746 24 0 0 0 75.786797
-0.24804021 -10.045139 3.3245857 308 0 0 0 74.999039
-39.279797 -9.8485699 3.3207958 7 0 0 0 95.719566
-6.9651284 -9.9082184 3.400934 60 0 0 0 84.384949
-5.0188131 -9.9925146 3.417491 33 0 0 0 82.039604
-1.2240587 -9.9288654 3.3094366 243 0 0 0 76.56324
-0.70596468 -9.5616016 3.1732583 177 0 0 0 75.786797
-0.47242242 -9.5929728 3.1789844 232 0 0 0 75.398575
0.82693231 -9.635685 3.2020397 216.5 0 0 0 73.233475
1.7447139 -9.6007214 3.2279885 175.33333 0 0 0 71.743362
-14.197119 -9.0052786 3.0529284 50 0 0 0 90.652313
-10.340975 -9.3911924 3.2277219 71 0 0 0 87.907211
-1.638304 -9.4498005 3.173697 77 0 0 0 77.346863
-1.1078612 -9.009058 3.4499955 31 0 0 0 76.56324
1.8781092 -9.4716692 3.1977932 61 0 0 0 71.48555
2.5038052 -9.0743771 3.1188705 56 0 0 0 70.308258
22.802858 -9.4448967 3.2514193 79 0 0 0 55.829006
-14.463114 -8.6836929 3.0633173 40 0 0 0 91.045998
-7.3608437 -8.9871702 3.2633944 82 0 0 0 85.560593
-6.3369608 -8.7844305 3.1772428 119 0 0 0 84.57753
-5.7438011 -8.6165266 3.1670759 120 0 0 0 83.985802
-3.6828842 -8.9152632 3.4271729 98 0 0 0 80.859795
-3.311377 -8.607708 3.2781618 90 0 0 0 80.476799
-1.2683991 -8.5744095 3.083549 209 0 0 0 76.960144
-0.86637527 -8.8229141 3.3704166 91 0 0 0 76.171669
0.72962683 -8.9217443 3.2587888 163 0 0 0 73.29805
