# .PCD v0.7 - Point Cloud Data file format
VERSION 0.7
FIELDS x y z intensity normal_x normal_y normal_z curvature
SIZE 4 4 4 4 4 4 4 4
TYPE F F F F F F F F
COUNT 1 1 1 1 1 1 1 1
WIDTH 913
HEIGHT 1
VIEWPOINT 0 0 0 1 0 0 0
POINTS 913
DATA ascii
-22.803196 -17.775919 -0.44277409 71 0 0 0 89.009277
-10.024879 -17.643499 -0.29587039 44 0 0 0 82.765137
-23.066425 -17.088825 -0.44019806 64 0 0 0 89.406044
-10.483578 -17.441614 -0.29658127 47 0 0 0 83.147453
-23.27216 -16.373091 -0.43686193 54 0 0 0 89.796623
-23.550732 -15.720353 -0.43543556 46 0 0 0 90.191055
-9.8849106 -15.565797 -0.26515535 83 0 0 0 83.535355
-23.730247 -15.01249 -0.43241891 55 0 0 0 90.582359
-9.765851 -14.575221 -0.25039601 66 0 0 0 83.930473
-23.882465 -14.301222 -0.42926386 50 0 0 0 90.96743
-10.096337 -14.298083 -0.24963397 101 0 0 0 84.316597
-9.7272425 -13.081518 -0.23015413 64 0 0 0 84.707153
-9.1618729 -11.135397 -0.19974793 140 0 0 0 85.491188
-8.8113623 -11.260248 -0.19755165 110 0 0 0 85.09491
-25.190456 -10.426284 -0.42553592 39 0 0 0 93.307182
-3.6090839 -10.000141 -0.39848694 280 0 0 0 80.021439
7.4951377 -9.6760225 -0.49811494 256 0 0 0 64.000038
7.6603332 -9.6370792 -0.20041963 264.5 0 0 0 63.80917
1.7755191 -9.1358633 -0.35469505 293 0 0 0 71.436737
2.0499184 -9.3178053 -0.36529014 279 0 0 0 71.040718
16.957926 -9.1057272 -0.35831788 104 0 0 0 57.361511
18.569307 -9.3881664 -0.3914232 143 0 0 0 56.964619
19.052874 -9.0512085 -0.39853647 80 0 0 0 56.571152
-19.53042 -8.6498041 -0.32468823 105 0 0 0 92.910629
7.3269925 -8.5576286 -0.31971154 404.5 0 0 0 63.223751
15.768096 -8.9747543 -0.33462399 88 0 0 0 57.746681
16.862823 -7.5112681 -0.34558654 50 0 0 0 56.187569
21.4534 -7.7113476 -0.43828982 45 0 0 0 55.018661
-0.76355243 -7.4078107 -0.36181045 322.5 0 0 0 76.114594
6.8178082 -7.3959799 -0.28188789 262 0 0 0 62.633816
6.4872413 -6.5437136 -0.37084001 329 0 0 0 62.049408
6.5378776 -6.9258475 -0.38357908 266 0 0 0 62.440601
6.4703889 -6.2145386 -0.36098367 478 0 0 0 61.65926
-1.7048489 -5.6491237 -0.31388119 190.5 0 0 0 79.146774
-1.2269328 -5.6499157 -0.20103098 224.5 0 0 0 77.880188
-0.77850324 -5.6708641 -0.24584539 266.66666 0 0 0 76.643387
-0.38139999 -5.6618481 -0.47675878 360.5 0 0 0 75.535904
6.5146465 -5.9566932 -0.3554399 151 0 0 0 61.26754
17.097914 -5.6788254 -0.34012407 34 0 0 0 54.625671
5.3172431 -4.6329808 -0.10475938 186 0 0 0 60.87373
-25.275869 -4.3830876 -0.40733105 17 0 0 0 96.817642
-9.508997 -4.4896879 -0.39756233 523 0 0 0 92.517204
-4.8527226 -4.1708174 -0.38130921 139 0 0 0 88.228851
-4.2438984 -4.1252975 -0.060988501 753.5 0 0 0 87.261459
-3.7214649 -4.1875868 -0.2601783 82.25 0 0 0 86.081619
-3.344105 -4.262835 -0.44985339 92 0 0 0 85.097748
0.44995227 -4.0720658 -0.20239897 53.833332 0 0 0 72.663124
0.63754612 -4.0280099 -0.26030567 63.5 0 0 0 71.919319
4.2881503 -4.1336932 -0.37462237 406 0 0 0 61.65926
4.781743 -4.067441 -0.16546211 487 0 0 0 60.678566
9.6795692 -4.1348062 -0.35533389 473.66666 0 0 0 55.923023
14.699557 -4.4862733 -0.28589684 75 0 0 0 54.233047
16.077351 -4.4759207 -0.31383502 50 0 0 0 53.8507
20.216471 -4.0464921 -0.39705783 156 0 0 0 52.675793
-25.232864 -3.7406435 -0.40582994 18 0 0 0 97.202278
-4.6778374 -3.8252196 -0.28617918 50 0 0 0 88.614883
-4.2023544 -3.7474415 -0.19095142 286.25 0 0 0 87.932243
-3.7954154 -3.7992742 -0.29489332 176.625 0 0 0 87.014297
-3.4255934 -3.8525472 -0.42630395 109 0 0 0 86.081619
4.3582311 -3.7155437 -0.36047581 237.5 0 0 0 60.677708
4.8438807 -3.7278473 -0.1870445 588.5 0 0 0 59.895477
5.1527672 -3.6682718 -0.092503861 149 0 0 0 59.316689
5.7331977 -3.8047392 -0.21587475 98.333336 0 0 0 58.788586
9.859889 -3.8325062 -0.3141526 471 0 0 0 55.412178
14.889264 -3.753978 -0.28648585 51 0 0 0 53.456806
21.021276 -3.6717994 -0.4124819 128 0 0 0 52.287006
-4.582068 -3.3866673 -0.47636664 65 0 0 0 89.406044
-4.0957899 -3.2645075 -0.43458718 268 0 0 0 88.81208
-3.7775376 -3.4075317 -0.42072782 231.33333 0 0 0 87.840302
4.7173438 -3.2740178 -0.36366424 203.5 0 0 0 59.116348
5.2532253 -3.1850698 -0.39253202 180 0 0 0 58.14056
15.381144 -3.4772508 -0.29549313 89 0 0 0 53.062
-25.695412 -2.5291357 -0.41325438 20 0 0 0 97.983078
-4.437314 -2.5069978 -0.11117478 143.5 0 0 0 91.362892
20.997433 -2.6110852 -0.40918612 35 0 0 0 51.502151
-4.6034422 -2.3346477 -0.21788077 495.83334 0 0 0 92.059509
-4.4807024 -2.3889067 -0.11070041 185 0 0 0 91.739105
16.34712 -2.4444604 -0.31216562 79 0 0 0 51.899769
21.045713 -2.0926816 -0.40910882 27 0 0 0 51.11298
20.979549 -1.5658863 -0.406822 25 0 0 0 50.727859
20.910288 -1.044077 -0.40467355 30 0 0 0 50.341179
20.586271 -0.52049005 -0.39740169 27 0 0 0 49.944111
20.506342 -0.013587718 -0.3954317 41 0 0 0 49.550167
20.386044 0.48843595 -0.39280304 42 0 0 0 49.162247
20.150715 0.97959131 -0.38795346 33 0 0 0 48.780499
20.010399 1.4673154 -0.38528326 33 0 0 0 48.380489
19.80666 1.9437141 -0.38145784 38 0 0 0 47.991959
19.634403 2.4162657 -0.37846181 29 0 0 0 47.61079
19.51428 2.8909094 -0.37673941 44 0 0 0 47.216419
19.451723 3.3730612 -0.37640205 42 0 0 0 46.823978
-1.5301558 3.9960241 -0.26959375 154.33333 0 0 0 19.109169
-1.2481985 3.9592628 -0.22800434 163 0 0 0 20.087975
-0.87259179 3.9434614 -0.2496611 109.63636 0 0 0 21.48246
1.4513856 3.981216 -0.24839483 118 0 0 0 30.43112
1.6636887 3.7051048 -0.34067854 69.400002 0 0 0 31.594732
19.324335 3.8434112 -0.37487537 36 0 0 0 46.436901
-5.0494471 4.0567021 -0.20342742 339.33334 0 0 0 10.53192
-4.6551967 4.2284913 -0.19715308 957.25 0 0 0 11.502235
-2.0197415 4.0553803 -0.24850139 316.60001 0 0 0 17.545691
-1.7405311 4.021009 -0.23403224 272.11765 0 0 0 18.425995
-0.58955681 4.0106897 -0.076952651 80.5 0 0 0 22.613029
-0.23003434 4.3153071 -0.19180369 496.5 0 0 0 24.068577
0.066539966 4.2931409 -0.19205004 454.125 0 0 0 25.159084
1.2797108 4.25421 -0.23864351 242.33333 0 0 0 29.51771
2.4631696 4.2428818 -0.2969602 951 0 0 0 33.152901
2.6256938 4.2712331 -0.057857089 518 0 0 0 33.542709
7.1961622 4.4703188 -0.23948953 824.5 0 0 0 40.772858
7.7338319 4.4149623 -0.25443369 822 0 0 0 41.364433
8.1096992 4.3657627 -0.26484707 738 0 0 0 41.75013
8.7535801 4.2967978 -0.28339732 646.5 0 0 0 42.339973
9.4173813 4.1975451 -0.30237883 68.5 0 0 0 42.920761
19.277349 4.3300972 -0.3752268 40 0 0 0 46.045639
-10.018515 4.9943905 -0.37347737 615 0 0 0 7.02033
-9.2864084 4.9110823 -0.34846097 655 0 0 0 7.41575
-8.6350155 4.8340273 -0.20703721 661 0 0 0 7.7978501
-8.0522537 4.764678 -0.19380032 1042 0 0 0 8.1934595
-7.5242562 4.6998377 -0.28939739 874 0 0 0 8.5773096
-7.0860739 4.6657934 -0.37818986 791.5 0 0 0 8.9708595
-6.6409187 4.6039076 -0.35873455 979.5 0 0 0 9.36485
-6.2693405 4.5723028 -0.34329206 959 0 0 0 9.7496204
-5.9006314 4.5232248 -0.3276785 1029 0 0 0 10.14235
-4.8019624 4.9342608 -0.22010458 1024.6666 0 0 0 12.47794
-0.57315838 4.8646612 -0.22075586 190.75 0 0 0 23.00806
-0.45156002 4.8506727 -0.22167002 127.5 0 0 0 23.404301
1.6821263 4.9383788 -0.44198564 14 0 0 0 30.03731
2.2784328 4.9891839 -0.3329716 333 0 0 0 31.599014
2.6975069 4.9323711 -0.22094767 534.66669 0 0 0 32.72308
3.2136374 4.8909283 -0.23547694 756.375 0 0 0 33.986259
3.7045958 4.8414021 -0.23004821 917.55554 0 0 0 35.106125
4.2590747 4.7773657 -0.24524015 1060.2222 0 0 0 36.28376
4.7748737 4.727704 -0.26078328 1027.3334 0 0 0 37.258686
5.2281756 4.683177 -0.27520862 978.83331 0 0 0 38.042629
5.7149262 4.6267209 -0.29110396 1064.3334 0 0 0 38.824131
6.2338901 4.5753527 -0.27034238 903.40002 0 0 0 39.567619
6.7137952 4.5286322 -0.22653848 854.5 0 0 0 40.193951
19.071657 4.7802286 -0.37239212 47 0 0 0 45.658768
-11.533296 5.4088268 -0.12126082 729 0 0 0 6.6264801
-10.873628 5.098525 -0.4031187 580 0 0 0 6.6264801
-8.1385698 5.2267594 -0.085097343 1131.5 0 0 0 8.7740841
-7.8312435 5.4422579 -0.083831742 1217 0 0 0 9.36485
-4.761024 5.2688088 -0.22866307 1144 0 0 0 13.06435
-4.4303646 5.2728825 -0.2219643 569.66669 0 0 0 13.65388
-3.3671124 5.1561956 -0.27181417 839 0 0 0 15.60979
0.35861078 5.2083774 -0.24189194 364 0 0 0 25.939941
0.7437073 5.1695013 -0.24411802 336.1875 0 0 0 27.110914
1.2064575 5.1151371 -0.25902155 368.33334 0 0 0 28.506723
1.8197854 5.0416541 -0.23031345 520 0 0 0 30.311625
2.1758857 5.0095754 -0.19674511 507 0 0 0 31.307955
18.882565 5.2303586 -0.3700763 51 0 0 0 45.267471
-11.255842 5.7873621 -0.12043522 659.5 0 0 0 7.21804
-7.5399179 5.5148883 -0.081752762 1131 0 0 0 9.7496204
-7.2442441 5.5722837 -0.079608962 1065 0 0 0 10.14235
-4.4020953 5.5094886 -0.22814803 449.33334 0 0 0 14.04348
18.733658 5.6894689 -0.36878812 39 0 0 0 44.874191
-4.5650077 6.1776848 -0.25268149 373.83334 0 0 0 14.631299
18.556555 6.1388154 -0.36706653 39 0 0 0 44.484379
-4.5093675 6.5984211 -0.26501405 236.33333 0 0 0 15.217761
18.335707 6.5712085 -0.36463612 38 0 0 0 44.087879
-4.4201813 7.2090726 -0.28456792 688.33331 0 0 0 15.990031
18.084284 7.245944 -0.36305642 44.5 0 0 0 43.511551
-4.3305788 7.6933537 -0.19214398 561 0 0 0 16.574471
-4.2511811 8.2525148 -0.20494005 524 0 0 0 17.15782
-2.3741639 -47.37904 0.39446214 11 0 0 0 75.3442
-3.5099037 -46.963184 0.39378846 14 0 0 0 75.727615
-4.5827827 -46.076492 0.38960314 21 0 0 0 76.114594
-7.9955029 -45.834454 0.39635882 14 0 0 0 77.294968
-10.194923 -45.217628 0.3980031 7 0 0 0 78.073616
2.1207585 -44.148945 0.36073273 26 0 0 0 73.770737
8.7696495 -44.348064 0.34871855 23 0 0 0 71.436737
23.637131 -44.337688 0.33491987 15 0 0 0 66.743126
24.913162 -44.088795 0.33302659 15 0 0 0 66.35511
26.499872 -44.319351 0.33450499 24 0 0 0 65.95697
-0.046779469 -43.825157 0.36334297 17 0 0 0 74.555046
1.0318352 -43.969505 0.36206493 17 0 0 0 74.165581
-1.1137496 -43.499649 0.36292949 13 0 0 0 74.942039
32.087708 -43.358124 0.32963982 14 0 0 0 64.38871
33.51545 -43.036095 0.32816476 10 0 0 0 64.000038
-6.3879981 -42.780842 0.36949444 7 0 0 0 76.902832
-5.3394132 -42.943874 0.36807424 8 0 0 0 76.513664
34.852585 -42.555386 0.3257423 9 0 0 0 63.618301
-8.4617281 -42.335911 0.37178418 8 0 0 0 77.687164
3.0016675 -41.337307 0.33764958 16 0 0 0 73.384361
-10.174362 -40.463772 0.36305541 18 0 0 0 78.465012
-14.444991 -37.35693 0.35495475 7 0 0 0 80.408913
34.812408 -31.620577 0.25937074 12 0 0 0 61.26754
-14.45213 -30.490927 0.30651718 16 0 0 0 81.585518
-9.9588242 -27.74312 0.26999715 5 0 0 0 80.021439
6.8738284 -27.626078 0.22832371 20 0 0 0 70.646019
-10.218894 -24.597994 0.24852633 15 0 0 0 80.810989
-10.474198 -23.563467 0.24222009 18 0 0 0 81.194008
-26.15855 -20.400562 0.29663238 52 0 0 0 89.009277
-24.583868 -20.160532 0.28666633 54 0 0 0 88.614883
-10.061916 -19.935898 0.21525837 30 0 0 0 81.980301
-26.257074 -19.461164 0.29182601 43 0 0 0 89.406044
-21.546263 -18.570166 0.26097664 33 0 0 0 88.228851
-10.077798 -18.805305 0.20753816 50 0 0 0 82.377769
-26.214296 -18.451061 0.28596815 42 0 0 0 89.796623
-10.104706 -17.792572 0.20075041 73 0 0 0 82.765137
-10.401958 -17.313396 0.19884145 37 0 0 0 83.147453
-26.245317 -16.610847 0.27623117 55 0 0 0 90.582359
-14.190548 -16.426584 0.21036734 22 0 0 0 85.887756
-26.271338 -15.738645 0.27187246 65 0 0 0 90.96743
-14.099144 -15.533865 0.20415404 156 0 0 0 86.275475
-9.9293833 -15.642811 0.18552227 74 0 0 0 83.535355
-10.19077 -15.21706 0.18392557 65 0 0 0 83.930473
-14.229992 -14.925914 0.20090993 138 0 0 0 86.668098
-10.30478 -14.599859 0.18042491 69 0 0 0 84.316597
-20.093943 -13.417164 0.2236217 50 0 0 0 90.191055
-9.6470251 -12.978725 0.16651435 61 0 0 0 84.707153
-9.3448324 -11.948031 0.15823336 54 0 0 0 85.09491
-9.118782 -11.087276 0.15147193 94 0 0 0 85.491188
-24.86079 -10.29492 0.23748413 45 0 0 0 93.307182
7.3902397 -8.6262226 0.23647854 491.5 0 0 0 63.223751
7.7640357 -8.624342 0.38444689 28 0 0 0 62.82703
12.382616 -8.7644272 0.29161575 224.5 0 0 0 59.316689
-44.519638 -6.6076465 0.35551006 21 0 0 0 97.202278
-45.272259 -5.5881562 0.35805225 16 0 0 0 97.59095
17.354126 -5.7600622 0.10204409 53 0 0 0 54.625671
-42.389885 -4.1795969 0.33506578 25 0 0 0 97.983078
-9.8349657 -4.3554492 0.25073871 599.5 0 0 0 92.910629
-4.2604899 -4.1427732 0.23013268 746.5 0 0 0 87.261467
0.36917076 -4.0896182 0.30441055 88.85714 0 0 0 72.990128
0.58939207 -4.067059 0.18687466 87.800003 0 0 0 72.134758
9.7240095 -4.1510615 0.25245222 479.33334 0 0 0 55.923023
15.763547 -4.3857746 0.093765654 50 0 0 0 53.8507
20.194979 -4.0385609 0.10771205 151 0 0 0 52.675793
24.901108 -4.3432994 0.12397006 19 0 0 0 52.287006
-4.3799109 -3.9558952 0.22813827 941.66669 0 0 0 87.833374
4.8234067 -3.8063164 0.2151974 1315.7778 0 0 0 60.089931
9.9388227 -3.8597414 0.074980088 118 0 0 0 55.412178
15.067701 -3.7973051 0.28497002 255 0 0 0 53.456806
-4.6230698 -2.6127505 0.27447158 124.5 0 0 0 91.362892
-4.4260879 -2.5022004 0.074905008 142 0 0 0 91.362892
-4.6554399 -2.3550923 0.26317558 209.44444 0 0 0 92.081551
-4.4839125 -2.3921518 0.074724101 169 0 0 0 91.739105
16.271065 -2.2272649 0.092360765 174 0 0 0 51.700958
-1.5270207 3.991652 0.28552526 243.39999 0 0 0 19.109169
-1.245681 3.9546573 0.27719742 186.89999 0 0 0 20.087973
-0.92122036 3.9234281 0.32387209 163.88889 0 0 0 21.274635
-5.0415325 4.0494337 0.2665374 549.66669 0 0 0 10.53192
-4.6553802 4.2287555 0.25940883 1067.5 0 0 0 11.502235
-2.0186417 4.0550461 0.24682403 406 0 0 0 17.545691
-1.757424 4.0208936 0.2596637 362.76923 0 0 0 18.365028
-0.59177697 4.0362668 0.32185027 109.75 0 0 0 22.613029
-0.19728854 4.2927113 0.28315002 609.59998 0 0 0 24.179289
0.067072436 4.2829962 0.28148797 509.79999 0 0 0 25.159084
1.2310507 4.3443198 0.067218967 163.66667 0 0 0 29.25704
2.7343168 4.2067289 0.31448546 51 0 0 0 33.935192
7.1631255 4.4743881 0.24076167 842.79999 0 0 0 40.733696
7.7226944 4.408885 0.18545604 800.5 0 0 0 41.364433
8.1104317 4.3664236 0.19008638 749.5 0 0 0 41.75013
8.7348471 4.3338938 0.15754916 424 0 0 0 42.274979
9.1426153 4.3486543 0.33122033 283 0 0 0 42.534969
27.998819 4.1474113 0.13799022 15 0 0 0 47.216419
-8.6091757 4.8174825 0.27298063 656.5 0 0 0 7.7978501
-8.0756035 4.7769718 0.26098621 1167 0 0 0 8.1934595
-4.809094 4.9413228 0.28117481 1079.3334 0 0 0 12.47794
2.3518975 4.9822741 0.27678475 607.5 0 0 0 31.793634
2.7201738 4.938292 0.2811839 664.33331 0 0 0 32.765396
3.191072 4.8877215 0.19772427 738.75 0 0 0 33.937202
3.7010324 4.8355093 0.22175728 992.44446 0 0 0 35.106125
4.2589526 4.7761288 0.22947179 1111.5555 0 0 0 36.283764
4.7696443 4.7215352 0.23741032 1106.5 0 0 0 37.258686
5.2193627 4.6745787 0.24499106 1077 0 0 0 38.042629
5.7128296 4.6242061 0.25411069 1069.3334 0 0 0 38.824131
6.2592525 4.5692844 0.26477769 941.33331 0 0 0 39.605682
6.7075992 4.5239086 0.27372846 907 0 0 0 40.193951
23.942926 4.7620382 0.12542422 43 0 0 0 46.436901
26.114435 4.5280113 0.13227016 19 0 0 0 46.823978
-11.564049 5.420867 0.18743563 681 0 0 0 6.6264801
-8.1448536 5.2299747 0.26817518 1179.75 0 0 0 8.7740841
-7.8234739 5.4360714 0.26404294 1149 0 0 0 9.36485
-4.7661371 5.2739606 0.2884514 1175.1666 0 0 0 13.06435
-4.4121976 5.2505169 0.27864933 248.33333 0 0 0 13.65388
-3.5120571 5.104291 0.32927424 761.5 0 0 0 15.21776
-3.3927729 5.1972575 0.25336292 576.33331 0 0 0 15.60979
-0.61472863 5.299767 0.2799696 534.75 0 0 0 23.00806
-0.48125359 5.2735834 0.27755851 235.5 0 0 0 23.404301
0.36070129 5.2170358 0.27193105 695.875 0 0 0 25.939941
0.75113523 5.209415 0.27268323 448.5625 0 0 0 27.110916
1.2463259 5.122735 0.2988418 460.28571 0 0 0 28.613962
1.8040706 5.0345173 0.28474608 527.26666 0 0 0 30.272528
2.1389699 5.0082393 0.27471644 611 0 0 0 31.20977
21.792412 5.4626269 0.12002857 22 0 0 0 45.658768
23.111847 5.1914749 0.12366604 23 0 0 0 46.045639
-11.206056 5.8176818 0.28903672 614.66669 0 0 0 7.2839432
-7.5479727 5.5202255 0.25944918 1228 0 0 0 9.7496204
-7.2380142 5.5668268 0.25370473 1134 0 0 0 10.14235
-4.4192405 5.531395 0.28649291 481.66666 0 0 0 14.04348
20.46855 5.6707597 0.11633019 94 0 0 0 45.267471
-4.5890594 6.1783752 0.27040586 494.39999 0 0 0 14.592649
20.190626 6.1329565 0.11685397 131 0 0 0 44.874191
-4.5294805 6.6262088 0.12221325 433 0 0 0 15.21776
19.933807 6.5953131 0.11756635 109 0 0 0 44.484379
-4.4166298 7.202589 0.23056626 669.5 0 0 0 15.99003
19.697559 7.0599499 0.11840266 81 0 0 0 44.087879
-4.3414459 7.7126322 0.23893495 510.5 0 0 0 16.574471
19.31588 7.7393479 0.11974901 110 0 0 0 43.511551
-4.2753725 8.300168 0.2496087 417.5 0 0 0 17.15782
18.960361 8.4228134 0.12140163 95 0 0 0 42.920761
6.8759751 -27.648533 0.93969059 25 0 0 0 70.646019
-14.885296 -22.232172 0.91968369 24 0 0 0 83.930473
-15.171831 -21.500341 0.90521139 30 0 0 0 84.316597
-14.314709 -19.263397 0.82843661 64 0 0 0 84.707153
-14.521085 -18.572081 0.81412339 114 0 0 0 85.09491
-21.470222 -18.498459 0.96717179 8 0 0 0 88.228851
-14.56718 -17.717903 0.7927317 88 0 0 0 85.491188
-15.02704 -17.390413 0.79388642 58 0 0 0 85.887756
-14.692657 -16.183315 0.75636911 136 0 0 0 86.275475
-14.489153 -15.193169 0.72748256 105 0 0 0 86.668098
-19.067963 -14.125585 0.81363344 12 0 0 0 89.406044
-11.664169 -9.5572023 0.89933908 611 0 0 0 88.614883
-12.099345 -9.4281321 0.91380161 530 0 0 0 89.009277
2.3865933 -9.199173 0.8056407 150 0 0 0 70.44928
7.4753203 -8.723114 0.80652606 579 0 0 0 63.223751
7.7642918 -8.6217937 0.81382799 356 0 0 0 62.82703
12.738332 -8.7811928 0.8685233 114.5 0 0 0 59.116989
-14.47831 -5.5799608 0.91786051 24 0 0 0 93.703773
-9.6357031 -4.552753 0.7749483 1150 0 0 0 92.517204
-9.7782383 -4.3303499 0.77707171 804.5 0 0 0 92.910629
-4.2073274 -4.1257682 0.68605357 904 0 0 0 87.195717
0.27260515 -4.1142721 0.775666 119.63158 0 0 0 73.381653
5.7654166 -4.0962944 0.85208893 1304 0 0 0 59.316689
6.12957 -4.1306109 0.7967692 858.33331 0 0 0 58.917286
6.5418663 -4.1769819 0.74130642 902.5 0 0 0 58.531181
7.0381098 -4.2516999 0.78313673 728.5 0 0 0 58.14056
7.5998225 -4.3373489 0.83053374 850 0 0 0 57.746681
8.2246075 -4.3394866 0.76177883 596.66669 0 0 0 57.229214
8.541048 -4.3291755 0.78714085 871 0 0 0 56.964619
9.2865028 -4.2343621 0.74970299 793.66669 0 0 0 56.31543
9.7392788 -4.0618124 0.7304461 735.5 0 0 0 55.790752
20.166565 -4.0365934 0.62210453 68 0 0 0 52.675793
24.9396 -4.3545995 0.75721818 35 0 0 0 52.287006
-4.5454354 -3.9092629 0.52723545 116 0 0 0 88.228851
-4.2964711 -3.9461553 0.77462965 1110.6666 0 0 0 87.708473
4.7378588 -3.7357252 0.73427349 1350.25 0 0 0 60.089935
14.961665 -3.7719774 0.85484362 386 0 0 0 53.456806
27.640652 -2.7473876 0.82669252 206 0 0 0 51.11298
-4.7394195 -2.3816924 0.59730721 39 0 0 0 92.12056
16.327658 -2.3053291 0.64077514 270 0 0 0 51.767227
-1.5269563 3.9932308 0.75417405 339.75 0 0 0 19.109169
-1.2365845 3.9544044 0.77177906 290.6842 0 0 0 20.118979
-0.84404963 3.9097116 0.78499585 197.64706 0 0 0 21.56241
-5.0406494 4.0479455 0.73690939 373 0 0 0 10.53192
-4.6623707 4.2346997 0.71878177 996.5 0 0 0 11.502235
-2.0530031 4.0543337 0.7927416 411.14285 0 0 0 17.434872
-1.7733659 4.0194044 0.73586452 442.64285 0 0 0 18.306931
-0.19610964 4.2840042 0.75622827 443 0 0 0 24.179291
0.067842729 4.2742648 0.753694 427.625 0 0 0 25.159084
7.1884818 4.464036 0.59769988 775 0 0 0 40.772858
7.700973 4.3945298 0.51444465 412 0 0 0 41.364433
8.2871799 4.4585986 0.54312623 402 0 0 0 41.75013
-8.6235847 4.8257427 0.75627339 601.5 0 0 0 7.7978501
-8.0912094 4.7864962 0.72066295 1141.5 0 0 0 8.1934595
-4.8328643 4.9658885 0.78836489 1016.6667 0 0 0 12.47794
2.2945127 4.9778252 0.76637274 639.875 0 0 0 31.647667
2.7185564 4.9335546 0.76824486 703.66669 0 0 0 32.765396
3.1909502 4.8863015 0.72151405 762.5 0 0 0 33.936977
3.6999197 4.8325334 0.74958086 1049.4166 0 0 0 35.106125
4.2557859 4.7714529 0.704817 1144.8889 0 0 0 36.283768
4.7693839 4.7202983 0.73643941 1108.5 0 0 0 37.258686
5.2194324 4.6736102 0.76610643 1043.6666 0 0 0 38.042629
5.7110143 4.6219268 0.80041879 999.66669 0 0 0 38.824131
6.2540903 4.5646577 0.7449199 944.5 0 0 0 39.605686
6.704618 4.5214338 0.67661673 846 0 0 0 40.193951
7.149971 4.5653152 0.91449803 550 0 0 0 40.577042
7.5558457 4.5643139 0.73389363 327 0 0 0 40.968674
-11.739089 5.3313875 0.66440153 532.5 0 0 0 6.4317102
-8.1510925 5.2343373 0.74169642 1100.25 0 0 0 8.7740841
-7.8241119 5.436924 0.72971058 1193 0 0 0 9.36485
-4.7699399 5.277822 0.80847603 1057.5 0 0 0 13.06435
-4.4496164 5.2960029 0.78695601 81 0 0 0 13.65388
-3.5343666 5.1372132 0.63490415 315 0 0 0 15.21776
-3.3871574 5.1886315 0.7058596 268.33334 0 0 0 15.60979
-0.65799856 5.2995896 0.80382878 502.83334 0 0 0 22.876383
-0.47981235 5.2675772 0.7960915 357.25 0 0 0 23.404301
0.35161766 5.2074008 0.75705558 533 0 0 0 25.911877
0.76558703 5.29146 0.73822427 321.66666 0 0 0 27.110916
1.2786782 5.1199064 0.7781114 603.13336 0 0 0 28.709143
1.7774037 5.0354724 0.78544694 597.53333 0 0 0 30.194731
2.1393821 5.0066729 0.61045682 617 0 0 0 31.20977
-11.336837 5.7714782 0.70669729 601 0 0 0 7.1521363
-7.5453043 5.5187235 0.71627265 1117 0 0 0 9.7496204
-7.2298927 5.5610337 0.69921017 1030.5 0 0 0 10.14235
-4.5132155 5.9481778 0.66631538 329 0 0 0 14.43805
-4.4409385 5.5591469 0.80847907 410.66666 0 0 0 14.04348
-4.5678139 6.2367854 0.6848709 424 0 0 0 14.695717
-4.4773068 6.2145982 0.86695468 29 0 0 0 14.82455
-40.527451 7.03196 0.5320608 17 0 0 0 2.3520999
-4.4245625 7.2181582 0.74874187 508 0 0 0 15.990031
-4.3771849 7.7347007 0.74086505 500.60001 0 0 0 16.534449
31.617777 7.9102497 0.97367013 6 0 0 0 45.658768
-42.136551 8.3798218 0.55602306 19 0 0 0 2.73962
-4.2915583 8.3355083 0.7106725 364.5 0 0 0 17.15782
28.657906 8.6889286 0.90041596 15 0 0 0 44.874191
27.638044 9.1283321 0.87772638 45 0 0 0 44.484379
27.061489 9.6827497 0.86873734 63 0 0 0 44.087879
26.510122 10.228148 0.86088598 49 0 0 0 43.70219
26.01503 10.779902 0.85517132 57 0 0 0 43.320911
25.472412 11.297426 0.84832895 80 0 0 0 42.920761
-10.150366 -40.34494 1.4003805 34 0 0 0 78.465012
-15.506932 -34.895222 1.2944379 48 0 0 0 81.194008
22.815317 -32.490097 1.2467575 25 0 0 0 64.790031
-18.76 -29.570822 1.1926867 17 0 0 0 83.535355
-14.834458 -29.400492 1.1221758 11 0 0 0 81.980301
-29.736853 -23.184523 1.2731845 21 0 0 0 89.009277
-24.686758 -20.238146 1.0841475 24 0 0 0 88.614883
-29.545544 -19.724173 1.1983433 14 0 0 0 90.191055
2.3276608 -10.514762 1.4355525 27 0 0 0 71.040718
1.7756654 -10.421432 1.4112414 16 0 0 0 71.817604
-11.680821 -9.5744514 1.2762383 606 0 0 0 88.614883
-12.105836 -9.4367533 1.2960628 379 0 0 0 89.009277
2.3246052 -9.4207916 1.1773391 254 0 0 0 70.646019
2.5271752 -9.2567167 1.2815331 620 0 0 0 70.252541
6.5513425 -8.8896456 1.4574943 50 0 0 0 64.38871
7.7104511 -8.7718868 1.248646 170 0 0 0 63.025391
12.669279 -8.9630861 1.2585137 154 0 0 0 59.316689
-14.468313 -5.5790191 1.3029627 172 0 0 0 93.703773
-9.6360092 -4.5550013 1.2965515 676.5 0 0 0 92.517204
-9.7471447 -4.3186412 1.2964749 817.5 0 0 0 92.910629
-6.7509418 -4.1914077 1.3347889 608.33331 0 0 0 90.710716
-6.2159209 -4.1477842 1.288888 909 0 0 0 90.191055
-5.6759582 -4.0940733 1.3800972 745 0 0 0 89.601334
-5.2752624 -4.0383916 1.2856835 1068 0 0 0 89.141533
-4.8354201 -4.0251908 1.424623 1055 0 0 0 88.486206
-4.137167 -4.1239791 1.0874537 969 0 0 0 87.06424
0.20353405 -4.1401024 1.1283159 156.28572 0 0 0 73.661598
6.2609057 -4.1026611 1.0826244 1093.5 0 0 0 58.724236
7.1154547 -4.2959385 1.0970906 695 0 0 0 58.14056
7.6247306 -4.3492565 1.15601 628 0 0 0 57.746681
8.0645962 -4.3393235 1.2039152 817 0 0 0 57.361511
8.5988197 -4.3569279 1.145859 884 0 0 0 56.964619
9.212265 -4.2445722 1.2030499 662.25 0 0 0 56.37936
9.7579765 -4.0671368 1.2513071 721 0 0 0 55.790752
-4.7011886 -3.9776609 1.1944127 925 0 0 0 88.357521
-4.2713351 -3.9556236 1.2265605 975.83331 0 0 0 87.646027
-3.7509909 -3.9229763 1.2789001 1020.4445 0 0 0 86.669273
-3.2245688 -3.9091368 1.3207915 819.11108 0 0 0 85.491287
-2.7206414 -3.8887622 1.2682867 594.41669 0 0 0 84.220421
-2.2646894 -3.8773375 1.3009694 576.15387 0 0 0 82.911911
-1.7488991 -3.8692186 1.2765979 414 0 0 0 81.237381
-1.246161 -3.8635917 1.3136249 357.9375 0 0 0 79.439407
-0.80468726 -3.8417249 1.2870294 254.88889 0 0 0 77.749802
-0.25321683 -3.8380442 1.3410541 280.31818 0 0 0 75.496857
0.25931865 -3.8262782 1.344123 245.89473 0 0 0 73.361168
0.71367669 -3.8163426 1.3365996 253.88889 0 0 0 71.496323
1.2283649 -3.8115082 1.3447745 256.39999 0 0 0 69.474052
1.7353227 -3.812319 1.3564061 291.61539 0 0 0 67.643387
2.1908114 -3.818697 1.3434546 410.60001 0 0 0 66.154945
2.580946 -3.8164074 1.3693845 507.75 0 0 0 64.981941
3.9517612 -3.8041048 1.214711 137.5 0 0 0 61.65926
4.685288 -3.6918001 1.242682 1269.6666 0 0 0 60.089931
5.5702543 -3.9574218 1.1646497 1121.5 0 0 0 59.316689
14.922538 -3.7593114 1.2366989 230 0 0 0 53.456806
20.277176 -3.5424376 1.1271694 31 0 0 0 52.287006
40.689812 -1.0292611 1.1951742 24 0 0 0 49.944111
-1.5793817 3.9852982 1.2266153 439.70001 0 0 0 18.91785
-1.2443299 3.9552643 1.263756 334.60001 0 0 0 20.087975
-0.82147586 3.9031048 1.2424977 273.25 0 0 0 21.642422
-5.5193949 4.4409904 1.2367935 532 0 0 0 10.53192
-5.1385365 4.2695088 1.3555275 174 0 0 0 10.787993
-4.7132053 4.343574 1.1847043 882.20001 0 0 0 11.619476
-2.0714176 4.0383625 1.2410737 534.875 0 0 0 17.351755
-1.821367 4.0179205 1.261184 447.39999 0 0 0 18.139091
-0.19515438 4.2663078 1.0674456 462 0 0 0 24.179289
0.068002678 4.2614765 1.065454 391.75 0 0 0 25.159086
-8.6182661 4.8208485 1.2347212 635 0 0 0 7.7978501
-8.108757 4.7952919 1.1788378 1059.5 0 0 0 8.1934595
-4.8492889 4.983304 1.2993684 1087 0 0 0 12.47794
1.991367 4.9977746 1.4016656 660 0 0 0 30.81645
2.2760293 4.9751229 1.2224269 694.08331 0 0 0 31.599014
2.7162991 4.9270501 1.2552425 702.41669 0 0 0 32.765396
3.1738048 4.8842278 1.2539409 838.90002 0 0 0 33.897552
3.698241 4.8283529 1.2767465 1033.2222 0 0 0 35.106125
4.2398453 4.7737503 1.2358582 1037.8182 0 0 0 36.248257
4.7435155 4.7167158 1.1982256 1097.2 0 0 0 37.219124
5.2242556 4.6999888 1.2567188 729 0 0 0 38.004265
5.6277962 4.6718063 1.2513015 615 0 0 0 38.626686
6.1062613 4.6934681 1.2179579 220 0 0 0 39.218468
6.5221167 4.6379356 1.0639642 654 0 0 0 39.796021
-11.656386 5.4643259 1.1373007 421 0 0 0 6.6264801
-8.136344 5.2230306 1.2095724 1087 0 0 0 8.7740841
-7.8111715 5.4261842 1.190074 1137.5 0 0 0 9.36485
-4.7366815 5.2652082 1.288013 1115.4 0 0 0 13.103752
-4.3129497 5.258842 1.2709194 933.5 0 0 0 13.84868
-3.7325261 5.1854658 1.2724168 1162.625 0 0 0 14.875378
-3.2168622 5.199831 1.2560186 912.375 0 0 0 15.993549
-2.9012022 5.0884314 1.3110956 1086.5 0 0 0 16.574471
-0.68881047 5.3035512 1.2270067 583.14288 0 0 0 22.782331
-0.38121286 5.2624116 1.3128917 515.5 0 0 0 23.695438
0.32131478 5.2073183 1.3031702 628.18182 0 0 0 25.815828
0.75046676 5.1892996 1.2377584 555.34998 0 0 0 27.110916
1.2318515 5.1048036 1.2577592 576.06665 0 0 0 28.57836
1.7914721 5.0320268 1.2279009 598.58331 0 0 0 30.233583
-11.291778 5.8035803 1.2749277 645.25 0 0 0 7.21804
-7.5448265 5.5168338 1.169795 970 0 0 0 9.7496204
-7.2210407 5.5524697 1.2518786 921.66669 0 0 0 10.14235
-3.9149981 5.8630691 1.1442255 148 0 0 0 15.413774
45.642414 5.6025739 1.3506896 48 0 0 0 47.61079
-4.5628166 6.0148001 1.1318662 198 0 0 0 14.43805
-4.3941617 6.2597628 1.0520974 339.5 0 0 0 15.021154
-3.8512399 6.2592068 1.1915855 172 0 0 0 15.99003
-3.7130585 6.763926 1.2498307 253.66667 0 0 0 16.768921
-4.4944024 7.3333163 1.1796432 560 0 0 0 15.99003
-4.2897191 7.8450294 1.2248707 359 0 0 0 16.768919
-4.3707852 8.2437286 1.048641 528 0 0 0 16.9662
46.491421 9.2234974 1.3958899 48 0 0 0 46.436901
22.814837 11.494349 1.4105761 31 0 0 0 42.144981
27.697517 -51.955917 1.8565615 15 0 0 0 66.743126
29.127211 -51.548515 1.8618476 15 0 0 0 66.35511
8.6462526 -50.173264 1.6630718 16 0 0 0 71.817604
9.9569988 -50.360935 1.6727935 16 0 0 0 71.436737
11.257204 -50.403038 1.6787239 14 0 0 0 71.040718
1.1615244 -49.594208 1.6421708 23 0 0 0 74.165581
2.391571 -49.832634 1.6479965 25 0 0 0 73.770737
3.6265898 -49.938698 1.6504363 15 0 0 0 73.384361
-6.0998049 -49.038574 1.6487242 20 0 0 0 76.513664
-2.4784036 -49.357521 1.6430361 17 0 0 0 75.3442
-1.2629867 -49.235958 1.6355168 10 0 0 0 74.942039
-0.055066418 -49.248466 1.6332481 14 0 0 0 74.555046
-9.7243118 -48.638405 1.6598624 20 0 0 0 77.687164
-8.4846535 -48.609676 1.649848 23 0 0 0 77.294968
-7.2831674 -48.757141 1.6466326 25 0 0 0 76.902832
36.237408 -48.970158 1.8890299 10 0 0 0 64.38871
-13.368874 -48.136154 1.6760066 23 0 0 0 78.851799
-10.88268 -48.245354 1.6567113 15 0 0 0 78.073616
-15.79576 -47.673073 1.6872257 11 0 0 0 79.639275
-14.595382 -47.958706 1.6829851 17 0 0 0 79.245102
-4.7617936 -47.824169 1.6026546 9 0 0 0 76.114594
-3.5875337 -47.926956 1.6007873 19 0 0 0 75.727615
31.77474 -47.669029 1.7881536 7 0 0 0 65.173851
-18.216026 -47.104816 1.6987921 19 0 0 0 80.408913
-19.466476 -46.887039 1.7084532 12 0 0 0 80.810989
-21.885057 -46.178387 1.7212703 16 0 0 0 81.585518
-16.502758 -45.994926 1.6437621 21 0 0 0 80.021439
-24.273016 -45.330452 1.7332171 9 0 0 0 82.377769
-25.310396 -44.603497 1.7293482 20 0 0 0 82.765137
-26.635769 -44.368069 1.7452557 15 0 0 0 83.147453
33.227406 -42.67725 1.6764077 36 0 0 0 64.000038
-44.420853 -31.259878 1.815326 19 0 0 0 89.796623
-46.778999 -29.600403 1.8459086 18 0 0 0 90.582359
-19.682142 -27.9007 1.9995329 12 0 0 0 84.316597
-45.384926 -27.182686 1.7639028 17 0 0 0 90.96743
6.8383613 -27.491581 1.6279869 78 0 0 0 70.646019
-23.693386 -16.6703 1.6934073 26 0 0 0 89.796623
-24.969315 -15.797234 1.7245768 22 0 0 0 90.582359
-19.395836 -13.650517 1.9827609 19 0 0 0 89.796623
5.1774135 -13.515281 1.9110781 13 0 0 0 68.694565
13.080451 -11.329202 1.8248684 31 0 0 0 60.87373
2.3651853 -10.676291 1.9981804 7 0 0 0 71.040718
-11.688086 -9.5805931 1.6436738 673 0 0 0 88.614883
7.6298923 -9.82967 1.9448518 20 0 0 0 64.000038
-12.104199 -9.4356403 1.6682557 418 0 0 0 89.009277
2.333895 -9.449934 1.6615267 464.5 0 0 0 70.646019
2.6434796 -9.3700666 1.701941 397 0 0 0 70.124672
7.7034149 -9.4376621 1.9038897 22 0 0 0 63.618301
7.9785924 -8.8515215 1.5661154 297 0 0 0 62.82703
8.0473385 -8.9264565 1.8768793 255 0 0 0 62.82703
-52.74955 -6.5017157 1.737887 29 0 0 0 97.59095
-14.446785 -5.5707302 1.676801 306 0 0 0 93.703773
-50.33741 -4.9542809 1.653668 8 0 0 0 97.983078
-9.5900955 -4.534359 1.8140095 719.5 0 0 0 92.517204
-9.6899328 -4.2943282 1.8120449 809.5 0 0 0 92.910629
-7.0138388 -4.1998768 1.6077986 41.5 0 0 0 90.96743
-6.6864529 -4.2302723 1.7513281 767.5 0 0 0 90.582359
-6.2916164 -4.1995735 1.7689562 834 0 0 0 90.191063
-5.7648087 -4.1595874 1.7503618 856.66669 0 0 0 89.601326
-5.1953077 -4.128933 1.7512541 829.59998 0 0 0 88.851517
-4.6703892 -4.1001081 1.7952642 965.20001 0 0 0 88.070663
-4.2256813 -4.0609665 1.7376455 722.5 0 0 0 87.357605
-3.6860034 -4.0511804 1.8053032 765 0 0 0 86.277107
-3.2403886 -4.0298171 1.7897835 643.16669 0 0 0 85.294518
-2.78741 -4.0189109 1.8268865 518.59998 0 0 0 84.16124
-2.4134204 -4.0023212 1.7926059 520 0 0 0 83.147453
6.1773276 -4.0472465 1.7115254 831.75 0 0 0 58.724236
6.8799381 -4.1528821 1.7571185 916 0 0 0 58.14056
7.3410378 -4.1870704 1.7409385 721 0 0 0 57.746685
7.8424368 -4.2198362 1.7236228 749 0 0 0 57.361511
8.3182898 -4.2139163 1.80249 885 0 0 0 56.964619
9.7215586 -4.1922827 1.7783368 360.75 0 0 0 55.989162
35.095314 -4.3605056 1.9096502 55 0 0 0 51.502151
-3.7068868 -3.9758041 1.5475994 816 0 0 0 86.471786
-3.2311852 -3.9874785 1.7152367 433.66666 0 0 0 85.359093
-2.7339838 -3.973562 1.6303179 563.71429 0 0 0 84.09465
-2.2240767 -3.9514949 1.6431761 426 0 0 0 82.665771
-1.731979 -3.9200521 1.5887456 401.22223 0 0 0 81.108795
-1.2072242 -3.9083848 1.5733942 395 0 0 0 79.244522
-0.6984787 -3.8901584 1.5213783 322.20001 0 0 0 77.294449
0.87930167 -3.8274891 1.511283 321.5 0 0 0 70.843369
1.2331947 -3.822881 1.5458033 257 0 0 0 69.474045
1.7550942 -3.8181398 1.5805111 257.5 0 0 0 67.587227
2.2133152 -3.8170156 1.6214913 417.22223 0 0 0 66.088982
2.5732164 -3.8027232 1.6478482 461.33334 0 0 0 64.981941
4.6343055 -3.6494863 1.739255 1016.5 0 0 0 60.089931
5.6700873 -3.9396157 1.8068393 967.59998 0 0 0 59.156933
14.922747 -3.7578857 1.8007112 246 0 0 0 53.456806
20.324419 -3.5470948 1.6442654 196 0 0 0 52.287006
24.818666 -3.7031486 1.9914765 15 0 0 0 51.899769
-1.6167057 3.9939816 1.6113098 377.20001 0 0 0 18.802048
-1.2745121 3.9500115 1.5743067 381.39999 0 0 0 19.97016
-0.82156426 3.9043875 1.5356629 333 0 0 0 21.64242
-5.0946426 4.0912652 1.6967835 434.33334 0 0 0 10.53192
-4.8229947 4.3303971 1.6985087 758.36365 0 0 0 11.414557
-2.075084 4.0466962 1.631719 402.66666 0 0 0 17.351755
-1.8393335 4.0136504 1.6211519 357.33334 0 0 0 18.072508
-8.5987015 4.8088541 1.713961 664.5 0 0 0 7.7978501
-8.1219797 4.8024731 1.757411 1112.3334 0 0 0 8.1934595
-4.6764307 4.62989 1.785738 1076.25 0 0 0 12.180798
1.9928461 4.9997764 1.5364974 685 0 0 0 30.81645
2.2771604 4.9747939 1.7643617 556.08331 0 0 0 31.599016
2.7182264 4.9275947 1.7437083 593.44446 0 0 0 32.765396
3.1885014 4.8787327 1.7064599 672.77777 0 0 0 33.936977
3.7123358 4.8760543 1.7229265 589.375 0 0 0 35.057495
4.2503028 4.8827782 1.7544065 603.5 0 0 0 36.088486
4.7507091 4.8151088 1.6343583 336.33334 0 0 0 37.0639
62.367596 4.5588384 1.8208518 27 0 0 0 48.380489
-8.1313448 5.218914 1.6816291 977 0 0 0 8.7740841
-7.8028908 5.4197407 1.6537371 979 0 0 0 9.36485
-4.8008308 5.182508 1.7612479 980.71429 0 0 0 12.86866
-4.2973895 5.2392268 1.7615169 1213.1666 0 0 0 13.84868
-3.749433 5.1756425 1.7397268 1270.3 0 0 0 14.826563
-3.2571545 5.1217079 1.7281055 1241.6666 0 0 0 15.799909
-2.8966899 5.0815325 1.73785 1189.625 0 0 0 16.574471
-0.67769861 5.2971368 1.7223138 538.75 0 0 0 22.810547
-0.29568368 5.2594399 1.7129109 554.93335 0 0 0 23.946657
0.25147188 5.1974521 1.7806962 485.14285 0 0 0 25.605286
0.73161286 5.1468725 1.7940211 430.66666 0 0 0 27.072039
1.2790612 5.0866289 1.7211922 444.57144 0 0 0 28.725676
1.7772708 5.0286384 1.7348046 499.93332 0 0 0 30.194729
-11.281165 5.7955279 1.7359763 621.5 0 0 0 7.21804
-7.5291076 5.5047536 1.7377192 930.66669 0 0 0 9.7496204
-7.2176723 5.5498633 1.8082095 892 0 0 0 10.14235
-44.924892 7.8034768 1.7220103 21 0 0 0 2.3520999
31.632952 7.9123306 1.7734482 38 0 0 0 45.658768
29.315474 10.48514 1.7014143 18 0 0 0 44.087879
31.130421 10.276895 1.7877783 14 0 0 0 44.484379
28.432741 10.965901 1.6678632 50 0 0 0 43.70219
20.766373 11.782849 1.9196883 71 0 0 0 41.364433
21.636488 11.581086 1.9703135 39 0 0 0 41.75013
27.874878 11.546339 1.6534795 61 0 0 0 43.320911
26.11224 12.355219 1.5883527 69 0 0 0 42.534969
27.245558 12.079442 1.6355976 43 0 0 0 42.920761
-10.150569 -40.352272 2.4189138 23 0 0 0 78.465012
-15.532911 -34.956646 2.2326822 28 0 0 0 81.194008
23.417751 -31.662708 2.1980252 26 0 0 0 64.38871
4.6242237 -26.877851 2.2536092 14 0 0 0 71.817604
5.240284 -26.545414 2.2341499 32 0 0 0 71.436737
5.8157825 -26.078436 2.204632 10 0 0 0 71.040718
12.846634 -24.121027 2.2303617 37 0 0 0 66.743126
4.7356606 -13.332295 2.220161 127 0 0 0 69.080635
5.0293407 -13.129253 2.2054191 22 0 0 0 68.694565
6.6595592 -13.303614 2.3271987 68 0 0 0 67.129807
7.000855 -12.425239 2.2302392 23 0 0 0 66.35511
3.8769677 -11.837858 2.2680445 19 0 0 0 69.473557
6.1750803 -11.623166 2.0619562 55 0 0 0 66.743126
-19.097198 -11.439758 2.401412 31 0 0 0 90.96743
13.006379 -11.260305 2.2378755 22 0 0 0 60.87373
-18.785942 -10.636257 2.3290663 44 0 0 0 91.362892
3.8789074 -10.936803 2.1144371 39 0 0 0 69.080635
5.3747516 -10.748877 2.4800181 57 0 0 0 67.129807
5.6574802 -10.653627 2.191433 10 0 0 0 66.743126
7.0758147 -10.647766 2.316694 24 0 0 0 65.173851
7.6842127 -10.684881 2.3826034 28.5 0 0 0 64.589371
1.7887609 -10.479697 2.3362658 16.5 0 0 0 71.817604
5.4521084 -10.268168 2.3995063 61 0 0 0 66.743126
7.8264761 -10.080393 2.3098168 24 0 0 0 64.000038
-11.625242 -9.532692 2.1898994 543.5 0 0 0 88.614883
2.3563607 -9.5269251 2.2776508 523 0 0 0 70.646019
3.2548966 -9.954073 2.1699827 268 0 0 0 69.473557
8.3634462 -9.7437029 2.3218734 11 0 0 0 63.223751
-12.889768 -9.0728931 2.488508 110 0 0 0 89.796623
-12.105225 -9.4399986 2.0457036 291 0 0 0 89.009277
-11.938542 -9.3100529 2.3922415 53 0 0 0 89.009277
2.3426836 -9.4816446 2.0278971 512 0 0 0 70.646019
2.6711657 -9.4016314 2.2193842 550.79999 0 0 0 70.099106
3.0874915 -9.4404306 2.3028855 18 0 0 0 69.473557
4.5444174 -9.0950413 2.3525379 81 0 0 0 67.129807
7.7186785 -9.4547281 2.3593135 143.5 0 0 0 63.618301
8.180975 -9.0729523 2.2099056 43 0 0 0 62.82703
8.1572342 -8.6124954 2.2927494 56 0 0 0 62.440601
2.0655458 -8.364234 2.4290082 26 0 0 0 70.646019
7.4703093 -8.2882071 2.2964475 98 0 0 0 62.82703
26.446583 -8.0520506 2.1931374 49 0 0 0 54.233047
26.460838 -7.3510814 2.1782227 44 0 0 0 53.8507
-9.5285101 -4.5052571 2.1918709 652 0 0 0 92.517204
-4.1419249 -4.5600863 2.2789865 505.5 0 0 0 86.275475
-9.6440601 -4.2750292 2.3221655 653.5 0 0 0 92.910629
-9.4839535 -4.4862218 2.438355 811 0 0 0 92.517204
-6.703228 -4.2417884 2.0465741 328 0 0 0 90.582359
-4.2475939 -4.4526396 2.2766552 441.5 0 0 0 86.668098
6.7009959 -4.0442657 2.0990415 711.5 0 0 0 58.14056
7.1781383 -4.0929747 2.2133102 667.5 0 0 0 57.746681
7.6724739 -4.1265655 2.2224529 500.33334 0 0 0 57.361511
8.2565594 -4.1804967 2.2441502 632 0 0 0 56.964619
9.7375259 -4.1978793 2.3038831 404.5 0 0 0 55.989162
-3.4401884 -3.9761798 2.0131314 5 0 0 0 85.887756
4.4900064 -3.7168891 2.151145 816 0 0 0 60.483398
4.6653333 -3.5787177 2.1695786 532.25 0 0 0 59.893196
5.4653735 -3.8795586 2.1362646 997 0 0 0 59.316689
5.8176966 -3.9163468 2.2328522 742.5 0 0 0 58.91729
6.2422042 -3.9808888 2.1715491 769 0 0 0 58.531181
6.6277938 -3.9984035 2.3638518 584 0 0 0 58.14056
14.839494 -3.7355247 2.35903 291 0 0 0 53.456806
20.350864 -3.5517845 2.1490023 145 0 0 0 52.287006
-5.1689858 4.0986195 2.1955059 321.75 0 0 0 10.434528
-4.8677235 4.3121214 2.2173131 589.11108 0 0 0 11.309063
-8.5867348 4.8011713 2.1912155 617.5 0 0 0 7.7978501
-8.1430378 4.8134003 2.3370585 903 0 0 0 8.1934595
-4.6336045 4.5265059 2.3149321 776.33331 0 0 0 12.08175
2.2059031 4.9825497 2.0932355 407.5 0 0 0 31.406139
2.5665848 4.9432092 2.0013375 431 0 0 0 32.37125
3.2543001 4.974288 2.0588853 384 0 0 0 33.93787
-11.715063 5.4892616 2.4057887 565 0 0 0 6.6264801
-8.1229935 5.2407498 2.2243314 857.59998 0 0 0 8.8134394
-7.802618 5.4187088 2.2324631 887.33331 0 0 0 9.36485
-4.8269806 5.2458224 2.2237308 699.875 0 0 0 12.917747
-4.2826953 5.3570752 2.204416 822.5 0 0 0 14.04348
-3.7379634 5.3266411 2.2352052 677.40002 0 0 0 15.061583
-3.2605958 5.2743039 2.2220585 667.59998 0 0 0 15.990848
-2.9181573 5.1715703 2.1766379 683.33331 0 0 0 16.641172
-0.6779896 5.301178 2.0508928 451 0 0 0 22.810545
-0.28229713 5.2499619 2.0193319 508 0 0 0 23.985542
0.10565612 5.2179136 2.0047855 475.5 0 0 0 25.159084
0.93635482 5.122704 2.001446 335 0 0 0 27.69405
1.2604102 5.0872335 2.0151253 396.75 0 0 0 28.669813
1.7924881 5.0306368 2.0529017 379.25 0 0 0 30.233585
2.7696753 5.019865 2.1998959 368 0 0 0 32.772049
-11.278197 5.7938833 2.20277 560 0 0 0 7.21804
-7.5308709 5.5046501 2.3057632 806.5 0 0 0 9.7496204
-7.222682 5.5523286 2.252058 701 0 0 0 10.14235
-4.707818 5.6119256 2.3515825 608.5 0 0 0 13.65388
-4.1173725 5.5582123 2.306571 199 0 0 0 14.6313
45.578224 5.5929813 2.4739838 58 0 0 0 47.61079
39.19899 8.7833033 2.1745534 94 0 0 0 46.045639
37.83987 10.455914 2.1295557 92 0 0 0 45.267471
22.781502 11.480503 2.0449121 46 0 0 0 42.144981
26.093332 12.349599 2.3071597 55 0 0 0 42.534969
27.359148 12.13313 2.3885946 21 0 0 0 42.920761
1.2118994 -51.585213 2.9697173 15 0 0 0 74.165581
2.4903119 -51.810608 2.9816942 17 0 0 0 73.770737
-7.6270823 -51.082855 2.9876485 14 0 0 0 76.902832
-6.3447862 -51.035084 2.9731646 12 0 0 0 76.513664
-3.8335986 -51.271801 2.9685066 18 0 0 0 75.727615
-2.5768805 -51.389729 2.9686708 15 0 0 0 75.3442
-1.3148085 -51.400959 2.9644411 8 0 0 0 74.942039
-0.053679321 -51.353245 2.9585366 13 0 0 0 74.555046
-5.0682688 -50.943325 2.9579394 13 0 0 0 76.114594
-22.148592 -28.351063 2.9996171 18 0 0 0 85.09491
-22.304638 -27.150951 2.9299452 13 0 0 0 85.491188
5.3994751 -27.338972 2.9768107 9 0 0 0 71.436737
6.0977798 -27.328592 2.9888349 14 0 0 0 71.040718
-16.972622 -19.653242 2.8041642 32 0 0 0 85.887756
-18.034107 -18.922367 2.8215883 47 0 0 0 86.668098
-22.528812 -14.258456 2.8703036 57 0 0 0 90.582359
-20.343689 -14.318169 2.6819632 18 0 0 0 89.796623
-17.979527 -13.329363 2.9669793 30 0 0 0 89.406044
5.0973506 -13.303226 2.5868933 27 0 0 0 68.694565
6.6193871 -13.221942 2.6792526 137 0 0 0 67.129807
1.544443 -12.74995 2.8171322 38.5 0 0 0 72.597794
5.2024398 -12.641844 2.8191116 60 0 0 0 68.305885
6.0591912 -12.884514 2.9326525 104 0 0 0 67.519951
1.7987651 -12.319386 2.7293127 13.5 0 0 0 72.21405
2.4501712 -12.465314 2.7843666 49 0 0 0 71.436737
4.7710342 -12.455629 2.7523737 33 0 0 0 68.694565
5.3196101 -12.078787 2.722023 18 0 0 0 67.917969
6.9562187 -12.344012 2.7414021 53.5 0 0 0 66.35511
7.336741 -12.302387 2.7694731 42 0 0 0 65.95697
7.6384354 -12.120893 2.9454873 45 0 0 0 65.563469
-22.283108 -11.905287 2.7191267 21 0 0 0 91.739105
4.1845183 -11.788327 2.5843174 23 0 0 0 69.080635
7.5150399 -11.927606 2.551945 29 0 0 0 65.563469
12.970808 -11.228617 2.6566982 30 0 0 0 60.87373
4.6776485 -10.62486 2.6826532 106 0 0 0 67.917969
7.1194715 -10.711791 2.6471148 29 0 0 0 65.173851
3.8149695 -10.34152 2.6880569 196 0 0 0 68.887604
7.5258374 -10.199957 2.6075501 62 0 0 0 64.38871
11.277471 -10.261677 2.7442439 26 0 0 0 61.26754
1.6734416 -9.8034763 2.8004589 27 0 0 0 71.817604
2.3733134 -9.5922232 2.5356038 75 0 0 0 70.646019
2.9003658 -9.6595001 2.7123356 256 0 0 0 69.868958
3.2579701 -9.9537811 2.6835318 246 0 0 0 69.473557
5.1942625 -9.779953 2.6945724 42 0 0 0 66.743126
6.7754416 -9.8421612 2.7503421 54 0 0 0 64.917969
7.1025577 -9.624896 2.7557037 46 0 0 0 64.38871
7.6196856 -9.8144131 2.5557246 55 0 0 0 64.000038
2.5347512 -9.2656803 2.7038901 374 0 0 0 70.252541
6.6721702 -9.0440998 2.8675473 58 0 0 0 64.38871
7.1574454 -9.0624123 2.8498185 103.33334 0 0 0 63.872791
7.9483356 -9.2616405 2.5092192 21 0 0 0 63.223751
8.8451557 -9.3302107 2.954227 30 0 0 0 62.440601
4.4819636 -8.9698429 2.5669081 68 0 0 0 67.129807
6.2370458 -8.906888 2.5091245 31 0 0 0 64.790031
7.2874851 -8.9248962 2.6540956 67 0 0 0 63.618301
7.5766387 -8.8259554 2.9639814 112 0 0 0 63.223751
8.0917568 -8.9695807 2.7790141 43 0 0 0 62.82703
3.2091882 -8.4009552 2.5314193 35 0 0 0 68.694565
7.2610464 -8.4613228 2.5687215 59 0 0 0 63.223751
-9.5279408 -4.5070972 2.9694471 600 0 0 0 92.517204
97.240593 -4.8489356 2.8088562 11 0 0 0 50.341179
-9.6548634 -4.2808695 2.8439584 495.5 0 0 0 92.910629
-9.4853115 -4.4868903 2.6959693 461 0 0 0 92.517204
9.8129673 -4.2278061 2.8486025 364.5 0 0 0 55.989162
35.043079 -4.3481574 2.7868516 56 0 0 0 51.502151
14.782799 -3.7212451 2.7281895 251 0 0 0 53.456806
20.387783 -3.554626 2.6624701 151 0 0 0 52.287006
-5.5252981 4.443203 2.7043126 470 0 0 0 10.53192
-5.2152896 4.4035192 2.6036465 332 0 0 0 10.91603
-4.938282 4.3765082 2.5172684 482 0 0 0 11.31436
-8.5938501 4.6676483 2.7743447 450.25 0 0 0 7.6068001
-8.1566563 4.8207717 2.8049054 816.5 0 0 0 8.1934595
-8.1444283 5.2254825 2.7463129 803.25 0 0 0 8.7740841
-7.7003169 5.4382529 2.7542574 690.66669 0 0 0 9.4931068
-4.8647652 5.2546983 2.6478157 474.66666 0 0 0 12.86888
-11.758188 5.5095849 2.7318797 480 0 0 0 6.6264801
-11.221367 5.8215675 2.7622004 499.66666 0 0 0 7.2839432
-7.5269203 5.500308 2.874903 695 0 0 0 9.7496204
-7.2180414 5.5482578 2.6968117 393 0 0 0 10.14235
-4.649148 5.631763 2.730161 350.66666 0 0 0 13.783748
-4.2684283 5.6140175 2.6079762 244.75 0 0 0 14.436032
-3.7279232 5.5743246 2.5632501 142 0 0 0 15.413774
-40.369629 7.0079212 2.5501661 13 0 0 0 2.3520999
46.324818 9.1883049 2.5481746 46 0 0 0 46.436901
24.791147 12.487822 2.8971114 75 0 0 0 42.144981
29.681705 12.296622 2.559339 29 0 0 0 43.320911
23.747259 12.704864 2.8138912 88 0 0 0 41.75013
20.046326 13.417504 2.5316324 110 0 0 0 40.193951
23.570608 13.366037 2.8327904 71 0 0 0 41.364433
23.388552 14.033825 2.8533216 11 0 0 0 40.968674
30.705984 -54.331612 3.4884858 16 0 0 0 66.35511
11.809315 -52.853992 3.0844276 9 0 0 0 71.040718
9.0336809 -52.396114 3.0367503 21 0 0 0 71.817604
10.356286 -52.358776 3.0443258 22 0 0 0 71.436737
-14.084154 -50.723629 3.0526268 13 0 0 0 78.851799
-11.485993 -50.93557 3.0250885 19 0 0 0 78.073616
-10.184255 -50.955757 3.0090945 15 0 0 0 77.687164
-19.332424 -50.000137 3.1130543 21 0 0 0 80.408913
-15.281342 -50.222897 3.0456076 13 0 0 0 79.245102
-20.606462 -49.64035 3.1221409 10 0 0 0 80.810989
-16.561218 -49.992588 3.0565393 16 0 0 0 79.639275
-17.67264 -49.265308 3.0390985 13 0 0 0 80.021439
-23.081337 -48.708714 3.1328287 13 0 0 0 81.585518
-25.471336 -47.573292 3.1379175 17 0 0 0 82.377769
-24.193575 -47.978416 3.1239963 9 0 0 0 81.980301
-26.597979 -46.87714 3.1347795 13 0 0 0 82.765137
-27.715057 -46.169765 3.1325989 7 0 0 0 83.147453
-28.904816 -45.580006 3.1401443 18 0 0 0 83.535355
-30.020109 -44.866642 3.1411564 6 0 0 0 83.930473
-31.925161 -42.992039 3.1157484 12 0 0 0 84.707153
-33.006771 -42.2435 3.1185663 11 0 0 0 85.09491
-37.29211 -39.129353 3.1405501 11 0 0 0 86.668098
25.123766 -30.68117 3.1936858 21 0 0 0 63.618301
-16.523716 -19.140358 3.3529594 11 0 0 0 85.887756
-15.845129 -19.290508 3.3110418 41 0 0 0 85.491188
-17.096781 -17.944862 3.2863297 16 0 0 0 86.668098
-19.622826 -13.815871 3.1782703 28 0 0 0 89.796623
-21.92658 -13.140773 3.3808949 32 0 0 0 90.96743
-19.879135 -12.585771 3.1151845 15 0 0 0 90.582359
4.9151664 -12.820194 3.1682889 46 0 0 0 68.694565
5.1838446 -12.588756 3.1409032 37 0 0 0 68.305885
6.0273318 -12.809537 3.2626238 81 0 0 0 67.519951
1.774732 -12.141421 3.2970123 67 0 0 0 72.21405
2.134181 -12.45412 3.2353497 37 0 0 0 71.817604
2.7442834 -12.343589 3.2361183 71 0 0 0 71.040718
5.128417 -12.453116 3.4381611 55 0 0 0 68.305885
5.5103879 -12.499178 3.4857695 34 0 0 0 67.917969
6.9631653 -12.348814 3.2641273 45 0 0 0 66.35511
7.2546864 -12.158427 3.2589133 28 0 0 0 65.95697
7.6387081 -12.115162 3.2951901 103 0 0 0 65.563469
-22.180321 -11.855419 3.3251736 40 0 0 0 91.739105
-20.891947 -11.8341 3.1768413 22 0 0 0 91.362892
1.3382717 -11.861488 3.2575226 67.333336 0 0 0 72.728462
3.882025 -11.837235 3.4948514 22 0 0 0 69.473557
4.1661634 -11.726443 3.1812794 71 0 0 0 69.080635
6.8726382 -11.52022 3.4190779 47 0 0 0 65.95697
4.9383078 -11.208684 3.4335103 48 0 0 0 67.917969
-21.77072 -10.95875 3.2227037 57 0 0 0 92.12056
2.4331176 -10.958353 3.1553123 45 0 0 0 71.040718
5.0178537 -10.676205 3.0143125 82 0 0 0 67.519951
4.2093859 -10.236027 3.1066828 93 0 0 0 68.305885
11.377453 -10.351337 3.1468203 31 0 0 0 61.26754
11.764169 -10.185989 3.1819823 91 0 0 0 60.87373
6.6077027 -9.9401236 3.0446632 36 0 0 0 65.173851
6.6793571 -9.0527401 3.1500127 68 0 0 0 64.38871
7.7326374 -9.4648027 3.4170539 76 0 0 0 63.618301
8.1891127 -9.3008976 3.308296 77 0 0 0 63.025391
30.766785 -9.3643827 3.3270638 28 0 0 0 54.233047
6.8818321 -8.8611383 3.2789292 70.5 0 0 0 64.000038
7.0207043 -8.5942755 3.3792732 61 0 0 0 63.618301
-14.156705 -8.0176353 3.3678198 54 0 0 0 91.362892
6.6724668 -8.1726217 3.475848 12 0 0 0 63.618301
7.2718267 -8.2605247 3.3506832 31.5 0 0 0 63.025391
29.17205 -8.1025171 3.1336484 24 0 0 0 53.8507
5.6283126 -7.2503796 3.4797254 111 0 0 0 64.000038
10.053459 -5.0829282 3.2797387 279 0 0 0 56.964619
-9.5442753 -4.6617594 3.2535405 327.5 0 0 0 92.318878
-9.4149866 -4.7394099 3.4892173 437 0 0 0 92.12056
9.9022312 -4.7049809 3.1927466 250 0 0 0 56.571152
-9.6345177 -4.2720685 3.3585372 490.5 0 0 0 92.912193
9.8072138 -4.2710414 3.3361778 379.33334 0 0 0 56.055298
40.467411 -4.0135999 3.2035542 22 0 0 0 51.11298
-9.8539686 -3.803117 3.4951239 285 0 0 0 93.703773
14.743776 -3.7099986 3.2819107 195 0 0 0 53.456806
20.388109 -3.5547719 3.1753693 140 0 0 0 52.287006
14.964476 -3.3749533 3.4990919 117 0 0 0 53.062
-8.5958939 4.8045754 3.156069 395 0 0 0 7.7978501
-8.1670923 4.826232 3.2721839 678 0 0 0 8.1934595
-11.847504 5.2002077 3.0362926 279 0 0 0 6.2369399
-11.062425 5.177526 3.4659655 385 0 0 0 6.6264801
-10.155828 5.0521274 3.4959562 378 0 0 0 7.02033
-8.1639709 5.208879 3.2699351 629.20001 0 0 0 8.7347298
-7.7969122 5.4129086 3.2753344 610.5 0 0 0 9.36485
-11.763637 5.509532 3.2071853 437 0 0 0 6.6264801
-11.334831 5.7625146 3.1911335 393.33334 0 0 0 7.1521363
