# .PCD v0.7 - Point Cloud Data file format
VERSION 0.7
FIELDS x y z intensity normal_x normal_y normal_z curvature
SIZE 4 4 4 4 4 4 4 4
TYPE F F F F F F F F
COUNT 1 1 1 1 1 1 1 1
WIDTH 951
HEIGHT 1
VIEWPOINT 0 0 0 1 0 0 0
POINTS 951
DATA ascii
-4.2617216 -8.4648323 2.1989563 83 0 0 0 82.157539
-3.4657695 -8.3604422 2.3229158 404 0 0 0 80.979568
35.116249 -6.0634522 2.0702569 10 0 0 0 52.387798
18.630392 -5.1462164 2.0909915 64 0 0 0 53.958767
24.290188 -5.4352779 2.0771255 139 0 0 0 53.176689
9.5271225 -4.5124416 2.3284535 723.5 0 0 0 56.688526
13.80747 -4.9379487 2.3196061 469 0 0 0 55.134899
-20.4578 -4.0698776 2.244859 150 0 0 0 96.633194
-5.8851166 -4.1516023 2.2132325 548.66669 0 0 0 90.001854
-5.1648502 -4.1398926 2.0369616 775 0 0 0 89.01474
-4.6293116 -4.2020512 2.1554279 490 0 0 0 88.028061
-4.3009958 -4.2520103 2.0858953 726.5 0 0 0 87.355072
-3.7544348 -4.3557267 2.0552614 917 0 0 0 86.078697
-3.2686117 -4.4088511 2.0965986 826.66669 0 0 0 84.896675
-2.8373756 -4.4798398 2.0263224 748.66669 0 0 0 83.725296
4.1444879 -4.1675553 2.1819458 428 0 0 0 62.177094
9.7013302 -4.3064489 2.2143443 475 0 0 0 56.299961
-6.1249828 -3.8314221 2.26756 653.75 0 0 0 90.882256
-5.8684359 -3.9282537 2.2590427 1029.5 0 0 0 90.39476
35.336494 3.5333004 2.0728405 121 0 0 0 48.089138
-9.4745893 4.977087 2.3291929 214 0 0 0 7.4173498
-8.7998209 4.8963251 2.1929746 530 0 0 0 7.8058
-8.1842785 4.8139701 2.2996264 447.5 0 0 0 8.2027597
-7.6341848 4.740859 2.0684187 513 0 0 0 8.59163
-7.405303 4.8511734 2.2532649 446 0 0 0 8.98769
-6.4482322 4.6806574 2.0305545 207 0 0 0 9.7670498
33.70015 5.9062533 2.0005796 81 0 0 0 46.910881
28.85446 7.2926564 2.4893112 163 0 0 0 45.73859
28.378969 7.920785 2.4652929 171 0 0 0 45.344994
-8.0892076 8.3492699 2.3950644 687 0 0 0 12.49743
-7.2648044 8.2654629 2.0008748 813 0 0 0 13.27051
-6.5815697 8.2620258 2.4376435 109 0 0 0 14.06389
-6.1731076 8.1478157 2.2368369 553 0 0 0 14.45536
-5.8963838 8.1909647 2.0862124 358 0 0 0 14.84052
41.05352 8.2383289 2.440177 38 0 0 0 46.524479
27.921707 8.5396204 2.4439528 149 0 0 0 44.955128
24.338646 9.461153 2.1912792 29 0 0 0 43.783058
27.470289 9.1471157 2.4242265 199 0 0 0 44.571247
-5.5544958 9.5809326 2.1539369 456.5 0 0 0 16.401581
23.135082 9.6564999 2.1057265 22 0 0 0 43.402073
27.043694 9.7510633 2.4078021 158 0 0 0 44.170738
10.773428 10.891123 2.0547357 237 0 0 0 37.136398
11.230888 10.805884 2.0897543 152 0 0 0 37.524101
11.709663 10.72201 2.1281464 128 0 0 0 37.91914
12.22172 10.647663 2.1718631 158 0 0 0 38.308449
12.792929 10.600563 2.2250712 231 0 0 0 38.69672
19.188715 10.953635 2.3998532 99 0 0 0 41.443008
19.985979 10.763941 2.4642389 80 0 0 0 41.832233
10.44283 11.091524 2.043406 164 0 0 0 36.739113
15.314705 11.453848 2.0833423 242 0 0 0 39.4799
16.02865 11.381532 2.140327 203 0 0 0 39.867073
16.733221 11.27091 2.1953788 165 0 0 0 40.266579
18.801765 11.355982 2.386158 89 0 0 0 41.049358
10.476255 11.689413 2.1040814 145 0 0 0 36.344528
14.689392 11.564597 2.267961 220 0 0 0 39.097439
18.206194 11.618478 2.3470793 87 0 0 0 40.6549
9.9418449 12.258468 2.1150835 270 0 0 0 35.556889
10.310798 12.09084 2.1293194 229 0 0 0 35.956661
6.3948545 12.931951 2.2910585 305 0 0 0 32.04118
6.6436028 12.642661 2.2690163 448 0 0 0 32.429871
7.0411401 12.631421 2.2975144 299 0 0 0 32.816151
3.1788015 13.147223 2.3127294 504 0 0 0 28.52519
-2.5520773 13.989208 2.2424312 490 0 0 0 21.87435
-2.2005723 13.999516 2.2354965 345 0 0 0 22.264071
-1.1531165 13.981952 2.2152786 384 0 0 0 23.434891
-0.80557072 13.934819 2.2047923 390 0 0 0 23.822729
-0.29016724 13.843592 2.1885142 482.5 0 0 0 24.416565
2.9368165 13.59345 2.2040927 164 0 0 0 28.12401
-3.6748159 14.159982 2.3040137 453 0 0 0 20.702669
-3.2941649 14.104924 2.2822161 537 0 0 0 21.09824
-2.9203644 14.049508 2.2619433 597 0 0 0 21.48278
-1.6809784 14.04455 2.2324536 319 0 0 0 22.849701
0.23412965 14.451781 2.2837133 331 0 0 0 25.006781
9.2507687 14.404633 2.2892728 408 0 0 0 33.796425
9.9376688 14.285113 2.3269145 341 0 0 0 34.38076
10.738022 14.274761 2.3880625 175.5 0 0 0 34.974678
0.79288107 14.844243 2.3489766 329.5 0 0 0 25.594275
5.6640425 14.992899 2.1411569 318 0 0 0 30.47802
6.2700624 14.904013 2.1608253 262 0 0 0 31.05846
6.9146528 14.873332 2.1920698 262 0 0 0 31.65168
8.5827541 14.521516 2.255394 398 0 0 0 33.208988
1.3821628 15.26532 2.2319555 282 0 0 0 26.18004
2.9564984 15.470457 2.2953639 323.5 0 0 0 27.736389
4.4827256 15.171662 2.1121871 306 0 0 0 29.29491
4.8774028 15.125738 2.1223223 281 0 0 0 29.68882
5.2669306 15.053678 2.1302485 300 0 0 0 30.08695
1.7962253 15.550447 2.2795351 241 0 0 0 26.56678
2.18977 15.581399 2.2916801 333.5 0 0 0 26.961
2.5719557 15.520417 2.2919416 327 0 0 0 27.35487
7.5794115 -43.728466 2.5244141 12 0 0 0 71.972488
-10.689023 -42.651478 2.504355 19 0 0 0 78.637772
1.7361014 -35.413273 2.9071026 21 0 0 0 73.9375
0.79333085 -32.501213 2.668767 11 0 0 0 74.331108
3.209816 -32.643085 2.6918194 24 0 0 0 73.154869
4.0220065 -32.653896 2.6998477 10 0 0 0 72.76001
4.8294826 -32.596104 2.7039564 18 0 0 0 72.370979
8.9178991 -32.248779 2.7452614 9 0 0 0 70.409676
10.616929 -32.158108 2.7784855 11 0 0 0 69.623558
13.70754 -30.939806 2.777564 10 0 0 0 68.062927
14.9133 -29.642746 2.7250679 16 0 0 0 67.281891
11.804119 -28.518482 2.5362585 9 0 0 0 68.449219
15.37537 -28.780182 2.6806862 15 0 0 0 66.883339
15.591825 -27.538527 2.6014364 10 0 0 0 66.486458
16.758535 -27.973217 2.6799667 10 0 0 0 66.094116
-3.897646 -14.069026 2.6532052 106 0 0 0 79.023537
23.837461 -13.498913 2.9378841 14 0 0 0 57.867779
-3.4858589 -12.578153 2.696398 94 0 0 0 79.023537
-7.3435941 -12.253622 2.5985029 48 0 0 0 83.339668
0.28105807 -11.824538 2.7358952 99 0 0 0 74.331108
-6.5954843 -11.004376 2.6523023 184 0 0 0 83.339668
-0.0091105737 -11.304789 2.6163416 22 0 0 0 74.718605
1.6280172 -11.056729 2.861486 30 0 0 0 72.370979
-3.5114644 -10.620436 2.8633099 114 0 0 0 79.813362
0.51240152 -10.648116 2.9951956 18 0 0 0 73.9375
2.6315219 -10.561188 2.5212348 51 0 0 0 70.799446
4.7221251 -10.689548 2.8492451 39 0 0 0 68.062927
-7.9256277 -10.159378 2.6646821 207 0 0 0 85.293808
-6.6432433 -10.495793 2.8728409 149 0 0 0 83.720001
-3.9490633 -10.232226 2.8082654 115 0 0 0 80.591988
-3.0507851 -10.044142 2.8186383 98 0 0 0 79.414642
0.98802447 -10.151855 2.6142716 105 0 0 0 73.154869
1.2692237 -10.389968 2.9418132 43 0 0 0 72.76001
1.6297822 -10.218485 2.7820129 131.5 0 0 0 72.171738
2.5195198 -10.116026 2.672147 58 0 0 0 70.799446
3.3193276 -10.094831 2.7237811 132 0 0 0 69.623558
4.9287753 -10.456075 2.6774917 16 0 0 0 67.664131
20.217541 -10.170316 2.9926655 18 0 0 0 57.084648
-8.0882311 -9.8595352 2.6378248 55 0 0 0 85.682434
-3.5583341 -9.9369507 2.7036378 161 0 0 0 80.202385
-3.2239456 -9.7482061 2.8855202 92 0 0 0 79.813362
-2.6779962 -9.659996 2.5691988 49 0 0 0 79.023537
-2.4626489 -9.8107567 2.7176671 83.5 0 0 0 78.637772
0.96433353 -9.9141455 2.8010111 28 0 0 0 73.154869
1.9494575 -9.8702164 2.7042708 305 0 0 0 71.585075
2.1456032 -9.6168356 2.7691383 94.333336 0 0 0 71.200165
2.8396254 -9.701704 2.6748321 97.666664 0 0 0 70.149956
25.797716 -9.9387589 2.9697559 38 0 0 0 55.516899
-4.0866804 -9.2158127 2.7106347 89.5 0 0 0 81.374496
-3.8573134 -9.30721 2.8321886 111 0 0 0 80.979568
-3.2371805 -9.0375862 2.699985 86 0 0 0 80.202385
2.351902 -9.4494247 2.7399611 155 0 0 0 70.799446
2.7153125 -9.2048502 2.8794255 117.25 0 0 0 70.115753
3.6383083 -9.4758625 2.8558681 81 0 0 0 68.841217
-3.3176579 -8.5923901 2.5918491 18 0 0 0 80.591988
1.5052996 -8.757515 2.5027204 211 0 0 0 71.972488
2.908879 -8.8558073 2.6249552 96 0 0 0 69.623558
3.1936412 -8.9708233 2.7980065 154.5 0 0 0 69.238274
0.60892463 -8.39083 2.9911835 49 0 0 0 73.547554
7.5353708 -6.8487258 2.8731258 55 0 0 0 61.38636
8.4924412 -6.6424794 2.7731302 25 0 0 0 60.209351
9.9128561 -6.9923296 2.8178403 75 0 0 0 59.437592
-10.006946 -6.006381 2.992146 170 0 0 0 91.177246
-6.7333579 -5.8148737 2.946187 266 0 0 0 88.424919
29.696562 -5.8799267 2.5184786 25 0 0 0 52.779846
18.528879 -5.1153116 2.5533042 113 0 0 0 53.958767
24.282606 -5.4342756 2.6818564 82 0 0 0 53.176689
-7.9440789 -4.7707853 2.8402159 220 0 0 0 91.177246
-6.0559855 -4.7963428 2.6111805 533.25 0 0 0 89.113434
9.5206718 -4.5090475 2.8465447 693.5 0 0 0 56.688526
13.734865 -4.9125056 2.6695111 425 0 0 0 55.134899
-7.7731209 -4.4115591 2.850543 350.5 0 0 0 91.566849
-5.7062063 -4.186316 2.6108453 636.5 0 0 0 89.706276
-6.6062927 -3.6806591 2.8205502 420 0 0 0 91.692162
-6.1683307 -3.8083735 2.5857356 602.5 0 0 0 90.980591
-5.8828049 -3.8706572 2.6272771 686.66669 0 0 0 90.524483
-6.8602543 -3.4627876 2.9280486 372 0 0 0 92.326195
35.289795 3.53409 2.9543931 106 0 0 0 48.089138
-8.8554296 4.9264445 2.7014327 272 0 0 0 7.8058
-8.3236456 4.896812 2.6929226 157 0 0 0 8.2027597
-7.7838159 4.8348117 2.5562611 184 0 0 0 8.59163
-9.7630424 5.1290064 2.8013537 116 0 0 0 7.4173498
33.713619 5.9139824 2.8548231 48 0 0 0 46.910881
29.297617 6.6417427 2.5117435 57 0 0 0 46.135769
-9.0472965 8.4747276 2.5511541 375 0 0 0 11.71111
-8.1739702 8.434411 2.9913538 172 0 0 0 12.49743
-7.7000113 8.340456 2.7545805 334 0 0 0 12.8805
-5.8801317 9.3307972 2.6822267 545.25 0 0 0 15.821615
-5.5406804 9.5521288 2.6864281 197.5 0 0 0 16.401581
21.553701 10.930089 2.6204617 44 0 0 0 42.225681
22.484352 10.713407 2.6990936 30 0 0 0 42.613567
24.256321 10.831236 2.8756869 49 0 0 0 43.007793
15.301082 11.447713 2.5528185 195 0 0 0 39.4799
15.982821 11.353146 2.6178148 186 0 0 0 39.867073
16.695311 11.249519 2.6869562 156 0 0 0 40.266579
13.484351 11.741508 2.8348441 243 0 0 0 38.308449
14.045898 11.633249 2.8907745 217 0 0 0 38.69672
14.645157 11.531794 2.9536285 180 0 0 0 39.097439
9.9236126 12.236189 2.6973739 249 0 0 0 35.556889
10.277198 12.051722 2.7117779 230.5 0 0 0 35.956661
13.505553 12.356815 2.9012153 175 0 0 0 37.91914
6.3755965 12.893805 2.8180528 289.5 0 0 0 32.04118
6.6323533 12.621794 2.7945509 392 0 0 0 32.429871
7.0427318 12.634424 2.6567688 299 0 0 0 32.816151
13.305282 12.789584 2.9245353 276 0 0 0 37.524101
3.170841 13.116055 2.8068368 463 0 0 0 28.52519
13.019394 13.147109 2.9317982 345 0 0 0 37.136398
-1.1508043 13.947737 2.7277255 349.5 0 0 0 23.434891
-0.80431736 13.904898 2.7155509 350 0 0 0 23.822729
-0.29017022 13.823628 2.6972489 394.75 0 0 0 24.416565
2.9252133 13.542284 2.709312 134.5 0 0 0 28.12401
12.480084 13.910444 2.9604645 275 0 0 0 36.344528
12.764758 13.541346 2.9482989 296 0 0 0 36.739113
-3.7222381 14.346237 2.6998668 341 0 0 0 20.702669
-3.335813 14.28708 2.6735899 281 0 0 0 21.09824
-2.7098377 14.196799 2.7534981 331.66666 0 0 0 21.743826
-2.2196929 14.123951 2.7839136 337.5 0 0 0 22.264071
-1.6811829 14.043403 2.755497 325.5 0 0 0 22.849701
0.23334818 14.429472 2.8144078 237 0 0 0 25.006781
9.5274506 14.442396 2.7422845 205 0 0 0 33.988682
10.24383 14.341457 2.7934988 185 0 0 0 34.57864
10.979829 14.229397 2.8481824 161 0 0 0 35.172832
0.60006225 14.676305 2.6843445 326 0 0 0 25.399389
5.6556396 14.971371 2.5346162 299 0 0 0 30.47802
6.2645473 14.891418 2.5593538 313 0 0 0 31.05846
6.9070773 14.857512 2.595803 300 0 0 0 31.65168
8.6219072 14.58738 2.6855092 245 0 0 0 33.208988
9.074234 14.522452 2.7140567 231 0 0 0 33.604168
0.98655927 15.02021 2.7507339 338 0 0 0 25.78916
1.3890276 15.340072 2.8146591 98 0 0 0 26.18004
2.9618485 15.4992 2.8856862 39 0 0 0 27.736389
4.4769864 15.153153 2.5009713 293 0 0 0 29.29491
4.7597899 15.186587 2.782732 130.33333 0 0 0 29.557516
5.2780991 15.08584 2.7292619 227 0 0 0 30.08695
5.6921654 15.067189 2.9497511 30 0 0 0 30.47802
6.093328 15.000132 2.9655905 329 0 0 0 30.862761
1.8040477 15.617767 2.872921 282 0 0 0 26.56678
2.1941361 15.613433 2.8818541 52 0 0 0 26.961
2.5710592 15.516901 2.8756964 363 0 0 0 27.35487
-4.6255374 16.227081 2.651721 159 0 0 0 20.312651
-8.1962414 17.017786 2.9592659 219 0 0 0 17.575069
-7.8175478 17.305332 2.9755909 196 0 0 0 17.96039
-5.3406653 17.148357 2.819756 117 0 0 0 19.92495
-7.4246335 17.572653 2.9899304 169 0 0 0 18.35401
-6.0702038 17.94455 2.5037148 348 0 0 0 19.527109
-5.9313955 17.52717 2.9032562 108 0 0 0 19.527109
-6.5981493 18.03867 2.5374587 361 0 0 0 19.14509
2.701699 -36.671635 3.0134623 10 0 0 0 73.547554
23.42383 -35.058723 3.4557364 7 0 0 0 65.313728
0.79747087 -32.679962 3.4770982 21 0 0 0 74.331108
1.6010813 -32.693829 3.4815042 8 0 0 0 73.9375
11.67404 -30.285259 3.4533558 14 0 0 0 68.841217
10.432814 -29.182411 3.298753 7 0 0 0 69.238274
-2.0787001 -28.109365 3.0031981 8 0 0 0 75.894226
11.745488 -28.378588 3.270031 11 0 0 0 68.449219
13.199658 -27.928415 3.2893932 11 0 0 0 67.664131
13.945161 -27.723194 3.3047886 11 0 0 0 67.281891
14.741056 -27.596302 3.3319373 9 0 0 0 66.883339
15.643574 -27.631134 3.3814385 20 0 0 0 66.486458
12.020059 -27.139357 3.1617961 41 0 0 0 68.062927
-34.871124 -16.495989 3.1800337 16 0 0 0 92.726799
-28.480862 -15.227144 3.4515555 9 0 0 0 91.942795
-28.698111 -14.448952 3.4344985 11 0 0 0 92.326195
-8.1638994 -12.895106 3.1492424 55 0 0 0 83.720001
-7.316927 -12.213853 3.2880108 95 0 0 0 83.339668
-6.8647065 -12.12326 3.2178535 49 0 0 0 82.945526
0.58295965 -12.062593 3.0890174 71 0 0 0 73.9375
-6.2580113 -11.711801 3.0683558 106 0 0 0 82.549324
0.85875624 -11.782975 3.3159049 24 0 0 0 73.547554
1.4270593 -11.661477 3.0062273 24 0 0 0 72.76001
1.7797426 -11.126504 3.4416819 38 0 0 0 72.171738
37.472294 -11.337152 3.240567 10 0 0 0 54.347191
-3.3203013 -10.941195 3.4905322 41 0 0 0 79.414642
-2.9460301 -10.630682 3.0977566 163 0 0 0 79.023537
0.25340539 -10.702431 3.1377516 49.5 0 0 0 74.331108
1.345973 -10.994198 3.3832221 27 0 0 0 72.76001
2.6827466 -10.759162 3.3878608 25 0 0 0 70.799446
4.4398551 -10.757968 3.2696135 8 0 0 0 68.449219
4.7164903 -10.677691 3.2796233 5 0 0 0 68.062927
17.133366 -10.850955 3.1857047 27 0 0 0 58.649071
17.612051 -10.556273 3.2256429 32 0 0 0 58.260319
-3.466022 -10.488473 3.3733208 37 0 0 0 79.813362
1.1369516 -10.359835 3.3136816 93 0 0 0 72.957443
1.7870948 -10.376651 3.4784019 57 0 0 0 71.972488
19.116783 -10.214699 3.4041843 37 0 0 0 57.479359
-3.8714859 -9.6810856 3.3137703 107.5 0 0 0 80.785782
-2.6470194 -9.5539379 3.030575 20 0 0 0 79.023537
-2.4354143 -9.7086296 3.05948 55 0 0 0 78.637772
1.9562082 -9.9009705 3.2114244 218.5 0 0 0 71.585075
3.6579018 -9.5221224 3.1206026 38 0 0 0 68.841217
-4.1657658 -9.3988323 3.1419594 81 0 0 0 81.374496
-2.8227899 -9.3020849 3.4503286 15 0 0 0 79.414642
-1.1195415 -9.0336018 3.2329974 16 0 0 0 76.686592
0.43837786 -9.1653309 3.0347183 22 0 0 0 73.9375
0.68770885 -9.4878387 3.1450911 36 0 0 0 73.547554
1.3655097 -9.2763929 3.3305826 41 0 0 0 72.370979
1.6371559 -9.4970064 3.4224887 127 0 0 0 71.972488
2.5098946 -9.1273947 3.1314049 44 0 0 0 70.409676
3.8263054 -9.2805815 3.3201618 45 0 0 0 68.449219
18.03664 -9.0759554 3.1747174 36 0 0 0 57.084648
-1.0757064 -8.6748381 3.3196785 60 0 0 0 76.686592
-0.64903021 -8.7071981 3.1025529 32 0 0 0 75.894226
-0.43566054 -8.719121 3.3157818 199 0 0 0 75.510834
2.6607544 -8.815588 3.2729471 105 0 0 0 70.020096
3.2515123 -8.6819201 3.2194235 61 0 0 0 68.973572
-10.959004 -8.137249 3.4925826 32 0 0 0 89.608086
-0.73196435 -8.4121799 3.2081904 72.5 0 0 0 76.088837
0.68631279 -8.0877666 3.0859523 63 0 0 0 73.351212
54.33392 -8.0077887 3.1707006 9 0 0 0 52.00206
-11.144731 -7.8584824 3.3205142 52 0 0 0 90.001854
-10.14229 -7.9241943 3.2948537 88 0 0 0 89.213318
5.1770554 -7.7748551 3.324244 83 0 0 0 65.313728
6.9308825 -7.6679606 3.1681771 60 0 0 0 62.955551
7.3334785 -7.7243266 3.0018253 198 0 0 0 62.569714
12.940492 -7.7631464 3.1272893 22 0 0 0 58.260319
13.433686 -7.6155648 3.1998401 23 0 0 0 57.867779
-9.7398081 -7.232255 3.4088724 23 0 0 0 89.608086
5.2234507 -7.4434495 3.4606249 150 0 0 0 64.917725
7.8629084 -7.142972 3.2572529 22 0 0 0 61.38636
8.5209446 -7.0089917 3.1108754 111 0 0 0 60.610992
9.7770128 -7.1391053 3.312645 66.333336 0 0 0 59.693249
10.297328 -7.2629757 3.235378 175 0 0 0 59.437592
13.130113 -7.0206776 3.452455 97 0 0 0 57.479359
7.5513515 -6.8639245 3.3834479 165 0 0 0 61.38636
8.2788057 -6.8080649 3.2880242 216 0 0 0 60.605358
8.5310707 -6.6729503 3.0551233 160 0 0 0 60.209351
10.313122 -6.9009895 3.1873009 58 0 0 0 59.043659
17.957491 -6.9204893 3.0305822 131 0 0 0 55.516899
-8.2300692 -6.1138201 3.137831 91 0 0 0 89.608086
-6.0386357 -6.0485578 3.0401516 73 0 0 0 87.264069
-5.5411882 -6.1228518 3.1399651 342 0 0 0 86.473595
-5.4392242 -6.3144622 3.1684134 331 0 0 0 86.08007
7.7734489 -6.083457 3.2758644 131 0 0 0 60.209351
8.6839304 -6.4526849 3.3189151 251 0 0 0 59.821079
11.525395 -6.1655331 3.3575439 77 0 0 0 57.479359
-11.218349 -5.6553478 3.219192 46 0 0 0 92.326195
-10.695467 -5.7253118 3.1094201 31 0 0 0 91.942795
-10.47801 -5.9442539 3.0876524 404 0 0 0 91.566849
-9.8579578 -5.5926957 3.1883471 120 0 0 0 91.566849
-7.4021506 -5.7880688 3.3406656 146 0 0 0 89.213318
-6.6812844 -5.7739806 3.1407838 174 0 0 0 88.424919
-5.7364426 -5.6069584 3.0517406 529.5 0 0 0 87.455551
6.4590816 -5.5887775 3.2586236 167 0 0 0 60.99572
6.6352882 -5.5982285 3.098803 58.5 0 0 0 60.803356
7.4410529 -5.5315351 3.3079839 266 0 0 0 59.821079
-10.074934 -5.2351732 3.1945729 205 0 0 0 92.134491
-6.0599866 -5.1089277 3.0165992 551 0 0 0 88.620544
-5.9117107 -5.3676953 3.0381343 596 0 0 0 88.028061
6.6558762 -5.3419209 3.2571886 72 0 0 0 60.410172
8.9649982 -5.3846374 3.4712312 291 0 0 0 58.260319
13.536799 -5.219223 3.3683422 215 0 0 0 55.516899
18.465397 -5.0983863 3.0196662 132 0 0 0 53.958767
24.315264 -5.4378109 3.2990084 31 0 0 0 53.176689
-10.288883 -4.8752818 3.3421855 133 0 0 0 92.726799
-9.8487597 -4.9675045 3.3756363 231 0 0 0 92.326195
-7.5270939 -4.5223141 3.3403785 159 0 0 0 91.177246
6.3388534 -4.7163444 3.0192096 29 0 0 0 59.821079
9.331275 -4.7038641 3.3398314 245.5 0 0 0 57.084648
9.5270796 -4.5105333 3.2394819 496 0 0 0 56.688526
10.274268 -4.5568662 3.4518726 275 0 0 0 56.299961
13.685479 -4.894208 3.1966577 272.5 0 0 0 55.134899
14.346649 -4.7362843 3.1365671 117 0 0 0 54.735958
18.17886 -4.5414906 3.4199753 11 0 0 0 53.563889
-8.1186066 -4.3504071 3.2773046 414 0 0 0 91.942795
8.1803312 -4.1238141 3.2732098 87 0 0 0 57.084648
9.4877691 -4.4943614 3.4870546 646 0 0 0 56.688526
10.314676 -3.9794993 3.3973951 122 0 0 0 55.516899
10.765818 -3.8529351 3.2308416 208 0 0 0 55.134899
10.89126 -2.7224581 3.4522138 76 0 0 0 53.563889
-13.470589 -2.0033374 3.4904537 55 0 0 0 97.418678
23.672033 -2.3023281 3.1546199 19 0 0 0 51.222359
9.3302307 -1.8504493 3.286438 144.5 0 0 0 52.779846
-11.868798 -1.4682719 3.3667989 74 0 0 0 97.812553
29.272827 6.6355672 3.2399719 94 0 0 0 46.135769
28.819822 7.2833724 3.2096598 179 0 0 0 45.73859
28.37011 7.9177904 3.1812267 150 0 0 0 45.344994
40.946083 8.2234116 3.4750571 34 0 0 0 46.524479
27.911583 8.5360222 3.1532962 188 0 0 0 44.955128
-5.875205 9.3200874 3.2208779 538.25 0 0 0 15.821615
27.437176 9.1356249 3.1250212 173 0 0 0 44.571247
-5.5481353 9.5604429 3.3676727 431 0 0 0 16.401581
-5.2146974 9.7989502 3.3833606 498.5 0 0 0 16.984665
27.013165 9.7396126 3.1038685 201 0 0 0 44.170738
-4.7659583 10.123491 3.4122114 498.5 0 0 0 17.767731
-4.4284496 10.381028 3.4427004 416 0 0 0 18.35401
26.565929 10.324292 3.0815043 99 0 0 0 43.783058
-4.197217 10.549366 3.4640946 433 0 0 0 18.750389
-3.9638941 10.722494 3.4886816 418 0 0 0 19.14509
26.114704 10.896382 3.0600648 145 0 0 0 43.402073
-5.0204573 11.033358 3.3980882 205 0 0 0 17.96039
15.280422 11.432089 3.2592587 162.5 0 0 0 39.4799
15.960175 11.336949 3.0997891 148 0 0 0 39.867073
16.662561 11.22734 3.1801631 119 0 0 0 40.266579
17.403971 11.112203 3.2669902 46 0 0 0 40.6549
-3.2015471 11.676348 3.400064 176.5 0 0 0 20.50766
-2.7826817 11.84145 3.4169254 206 0 0 0 21.09824
-2.4999115 11.949264 3.4300444 200 0 0 0 21.48278
13.486843 11.743567 3.2791228 181 0 0 0 38.308449
14.02303 11.614281 3.3379788 201 0 0 0 38.69672
14.636045 11.524515 3.4140828 214 0 0 0 39.097439
-5.8697548 12.125611 3.4395053 194 0 0 0 17.575069
-2.2147932 12.057916 3.4453113 212 0 0 0 21.87435
-1.9360193 12.227387 3.4796343 344 0 0 0 22.264071
9.8968267 12.203439 3.2728381 219 0 0 0 35.556889
10.247665 12.01734 3.2897878 215 0 0 0 35.956661
13.49143 12.343872 3.3519685 180 0 0 0 37.91914
-6.2818871 12.990934 3.3294299 220 0 0 0 17.575069
6.3596401 12.867862 3.3413093 295 0 0 0 32.04118
6.6182914 12.600931 3.3142812 319 0 0 0 32.429871
7.0286827 12.612316 3.184834 262 0 0 0 32.816151
13.288901 12.77385 3.378341 12 0 0 0 37.524101
-6.8244505 13.282312 3.2593536 178.5 0 0 0 17.182131
2.9069283 13.472085 3.2027497 172 0 0 0 28.12401
3.2763488 13.091023 3.3591745 362.66666 0 0 0 28.651962
3.5083482 13.100395 3.1537561 334 0 0 0 28.90551
13.030339 13.158052 3.393662 22 0 0 0 37.136398
-1.5033902 13.989847 3.2583928 312 0 0 0 23.0501
-1.1522633 13.930942 3.2381015 284 0 0 0 23.434891
-0.80533469 13.872068 3.2198148 331 0 0 0 23.822729
-0.29241264 13.800336 3.200084 311.5 0 0 0 24.416565
12.464252 13.892886 3.4198039 11 0 0 0 36.344528
-3.7186546 14.325448 3.23997 243.5 0 0 0 20.702669
-3.3330588 14.267694 3.2086053 270 0 0 0 21.09824
-2.8311291 14.190586 3.2290332 284.33334 0 0 0 21.613304
-2.2201045 14.107891 3.3052082 253 0 0 0 22.264071
-1.8587996 14.045685 3.2800157 293 0 0 0 22.6493
0.23159103 14.477791 3.3561559 278 0 0 0 25.006781
9.5261536 14.440573 3.1709845 254 0 0 0 33.988682
10.465167 14.277999 3.244792 13 0 0 0 34.77652
10.965278 14.210715 3.289722 174 0 0 0 35.172832
0.98125815 14.988165 3.4819031 308 0 0 0 25.78916
6.0855317 14.98155 3.3603427 294 0 0 0 30.862761
8.6305075 14.601986 3.1087663 10 0 0 0 33.208988
-8.2813807 15.221512 3.1434386 99 0 0 0 16.787199
0.98552626 15.008478 3.1185694 302 0 0 0 25.78916
2.9551539 15.466067 3.2671604 33 0 0 0 27.736389
4.9039822 15.208449 3.3189859 34 0 0 0 29.68882
5.2871165 15.111943 3.3260109 157 0 0 0 30.08695
-4.9829521 15.978597 3.4541659 148 0 0 0 19.92495
1.8033584 15.61373 3.2589068 248 0 0 0 26.56678
2.570168 15.512834 3.2619383 336 0 0 0 27.35487
-4.5975084 16.125374 3.2550769 153.5 0 0 0 20.312651
7.0787935 16.24906 3.2433245 63 0 0 0 31.25416
7.5283275 16.179768 3.2659562 64 0 0 0 31.65168
-7.2875633 16.666363 3.3013306 220 0 0 0 18.1572
-5.724226 16.904764 3.2422571 115 0 0 0 19.527109
-5.2500544 16.851553 3.2075589 148 0 0 0 19.92495
-6.7266755 17.067621 3.33022 209 0 0 0 18.750389
-6.3667493 17.395611 3.363179 200 0 0 0 19.14509
-10.681822 -42.653389 3.5988371 24 0 0 0 78.637772
6.2925806 -36.292233 3.9128268 5 0 0 0 71.972488
25.326763 -35.961472 3.6041665 8 0 0 0 64.917725
2.5911398 -35.186172 3.7496748 8 0 0 0 73.547554
-0.85867745 -34.839947 3.7049656 12 0 0 0 75.114204
25.559242 -34.462761 3.5176082 9 0 0 0 64.53051
3.2318769 -32.8699 3.5123847 20 0 0 0 73.154869
4.8730984 -32.892063 3.5357263 24 0 0 0 72.370979
9.7485065 -32.160236 3.5734923 18 0 0 0 70.020096
10.616945 -32.15992 3.6012506 21 0 0 0 69.623558
8.7770462 -31.742577 3.5026319 9 0 0 0 70.409676
-2.1070569 -28.560781 3.7548282 79 0 0 0 75.894226
16.769838 -13.768604 3.9395802 19 0 0 0 60.610992
17.242067 -13.46054 3.9719622 17 0 0 0 60.209351
17.120708 -12.701786 3.8727112 15 0 0 0 59.821079
17.985369 -12.019162 3.9306254 40 0 0 0 59.043659
-5.650075 -11.948017 3.7059193 168 0 0 0 81.771309
-5.6667805 -11.262486 3.6921768 30.5 0 0 0 82.157539
-5.2882533 -11.186857 3.7755563 30 0 0 0 81.771309
-4.7361193 -11.437901 3.7770584 48 0 0 0 80.979568
1.0961668 -11.227035 3.860682 29.5 0 0 0 73.154869
2.5622723 -11.470574 3.879283 73 0 0 0 71.200165
-3.8786075 -10.839471 3.5144503 84 0 0 0 80.202385
2.8409467 -10.824789 3.8337131 24.5 0 0 0 70.604561
3.2145298 -10.647398 3.6735027 41 0 0 0 70.020096
3.8087072 -10.689475 3.7479489 33 0 0 0 69.238274
4.3895044 -10.631968 3.51474 32 0 0 0 68.449219
4.6682587 -10.567407 3.6726391 52.5 0 0 0 68.062927
1.2764565 -10.421605 3.7254593 102 0 0 0 72.76001
1.6156617 -10.38325 3.8131621 95.666664 0 0 0 72.238152
2.1958549 -10.21735 3.7933464 123.66666 0 0 0 71.328468
2.5423305 -10.194659 3.8576887 47.5 0 0 0 70.799446
3.3806825 -10.276028 3.7090211 34.5 0 0 0 69.623558
-2.6375206 -9.5256405 3.5076869 59 0 0 0 79.023537
0.45838135 -9.504467 3.6117811 17 0 0 0 73.9375
3.247474 -9.8690577 3.9432075 47 0 0 0 69.623558
18.536583 -9.9059782 3.823138 16 0 0 0 57.479359
25.388285 -9.77701 3.592988 19 0 0 0 55.516899
-2.8324814 -9.3340015 3.7006996 45 0 0 0 79.414642
1.7889649 -9.0526981 3.5046272 44 0 0 0 71.585075
3.8836102 -9.4098959 3.6159728 31 0 0 0 68.449219
18.867773 -9.4939651 3.8426712 8 0 0 0 57.084648
-2.4704587 -8.9195681 3.5128994 139 0 0 0 79.023537
13.479255 -8.0827417 3.6407034 24 0 0 0 58.260319
12.244811 -7.7604895 3.7172406 12 0 0 0 58.649071
-11.700092 -7.0220523 3.8316476 38 0 0 0 91.177246
-5.923058 -7.2271671 3.5485792 113 0 0 0 85.682434
9.5100555 -7.067029 3.9244089 102 0 0 0 59.821079
12.254732 -7.351193 3.842129 79.5 0 0 0 58.260319
12.663881 -7.1784039 3.7337592 35 0 0 0 57.867779
18.790522 -7.2414374 3.6685338 53 0 0 0 55.516899
21.468517 -7.0794864 3.5542049 23 0 0 0 54.735958
-13.744047 -6.9277577 3.5585546 37 0 0 0 92.326195
9.5188875 -6.7141366 3.5708578 86 0 0 0 59.437592
10.723458 -6.7974029 3.8895843 25 0 0 0 58.649071
12.118433 -6.8705955 3.92167 83 0 0 0 57.867779
16.865742 -6.5017943 3.7427363 92 0 0 0 55.516899
22.421455 -6.7862272 3.6825373 20 0 0 0 54.347191
33.926331 -6.7172456 3.7125866 22 0 0 0 52.779846
7.8334293 -6.1261239 3.5442514 109 0 0 0 60.209351
9.2103186 -6.1667676 3.6752689 117 0 0 0 59.043659
9.6245642 -6.4402108 3.5508695 212 0 0 0 59.043659
13.91696 -6.1682973 3.9053204 32 0 0 0 56.299961
18.903442 -6.2358136 3.6282189 45 0 0 0 54.735958
-7.4544892 -5.5399203 3.5299973 18 0 0 0 89.608086
8.2332964 -5.7080445 3.6546078 146.33333 0 0 0 59.306278
8.5962963 -5.753613 3.9409251 7 0 0 0 59.043659
18.417259 -5.5773163 3.7475452 112 0 0 0 54.347191
23.320942 -5.8225756 3.7791085 64 0 0 0 53.563889
28.286188 -5.5974913 3.8122404 26 0 0 0 52.779846
34.180473 -5.8977828 3.7242777 48 0 0 0 52.387798
-10.02466 -5.0583234 3.9885848 158 0 0 0 92.326195
-9.6799917 -5.1820416 3.6314869 69 0 0 0 91.942795
9.36269 -5.3097825 3.8366351 328 0 0 0 57.867779
10.272981 -5.498888 3.8640234 134 0 0 0 57.479359
13.488881 -5.2012463 3.7123775 453 0 0 0 55.516899
14.336858 -5.1257558 3.9081204 244 0 0 0 55.134899
18.839432 -5.2020092 3.5646951 108 0 0 0 53.958767
24.245205 -5.4228721 3.9054594 29 0 0 0 53.176689
-10.583241 -4.6990256 3.8290505 34 0 0 0 93.114403
-10.255671 -4.8584476 3.7529151 237 0 0 0 92.726799
-9.8623047 -4.9721613 3.6531029 150 0 0 0 92.326195
7.8340282 -4.9711199 3.5399418 39 0 0 0 58.649071
9.2266388 -4.9370599 3.7319157 350 0 0 0 57.479359
14.388588 -4.7479868 3.703655 111 0 0 0 54.735958
18.333353 -4.5805435 3.9145865 220 0 0 0 53.563889
24.956001 -4.9401193 3.9989567 21 0 0 0 52.779846
9.263216 -4.384943 3.7818074 385.5 0 0 0 56.688526
9.8425398 -4.2696171 3.7390983 257 0 0 0 56.16721
11.023761 -4.2546 3.9211745 64 0 0 0 55.516899
13.380823 -4.0543404 3.9419818 79 0 0 0 54.347191
14.604407 -4.4235172 3.9181812 67 0 0 0 54.347191
15.160365 -4.186357 3.6506104 221 0 0 0 53.958767
18.167261 -4.0667233 3.8579102 58 0 0 0 53.176689
43.145485 -4.1989522 3.5936813 6 0 0 0 51.222359
15.479344 -3.8666146 3.7033658 69 0 0 0 53.563889
22.668856 -3.9109204 3.6207614 35 0 0 0 52.387798
9.3978367 -3.1037247 3.7797463 339 0 0 0 54.735958
14.119547 -3.1608572 3.7193806 86 0 0 0 53.176689
21.165991 -3.1182041 3.9017448 24 0 0 0 52.00206
22.279455 -3.281342 3.546196 24 0 0 0 52.00206
-12.622133 -2.5186915 3.9367394 205 0 0 0 96.633194
10.842508 -2.8527997 3.8634529 43 0 0 0 53.76133
14.383453 -2.8495846 3.7692587 77 0 0 0 52.779846
18.850693 -2.7782345 3.949573 89 0 0 0 52.00206
22.165401 -2.7089183 3.5174141 35 0 0 0 51.60371
-20.111055 -2.4830315 3.6842234 18 0 0 0 97.812553
-12.494816 -2.1755826 3.8799489 114 0 0 0 97.021996
-11.840289 -2.2092977 3.9847217 58 0 0 0 96.827591
9.2370214 -2.1889806 3.6297622 184.5 0 0 0 53.370289
16.70203 -2.040683 3.9063849 62 0 0 0 51.60371
18.863052 -2.3069916 3.9398293 64 0 0 0 51.60371
19.576872 -2.3936079 3.600898 116 0 0 0 51.60371
-11.898341 -1.7718366 3.6821253 441 0 0 0 97.418678
9.1954708 -1.5877622 3.5700676 240 0 0 0 52.387798
10.868978 -1.8788165 3.6682346 79 0 0 0 52.387798
16.544752 -1.6089262 3.860291 50 0 0 0 51.222359
17.235418 -1.6785531 3.5946767 40 0 0 0 51.222359
-12.007954 -1.1886979 3.6938465 154 0 0 0 98.196602
-11.746332 -1.1607089 3.9062493 44 0 0 0 98.196602
9.2061214 -1.3564881 3.560792 59 0 0 0 52.00206
9.7951717 -1.1967206 3.7735853 151 0 0 0 51.60371
10.403053 -1.0108395 3.9945223 181 0 0 0 51.222359
10.623945 -1.2990767 3.6927829 59.5 0 0 0 51.60371
18.881048 -1.3700095 3.9261317 19 0 0 0 50.82542
10.240028 -0.74028695 3.8006454 74 0 0 0 50.82542
35.242386 3.5285952 3.8120573 95 0 0 0 48.089138
34.657036 4.3338318 3.7604792 105 0 0 0 47.700569
34.045845 5.1113462 3.7080135 123 0 0 0 47.301399
33.540157 5.8829327 3.6687472 125 0 0 0 46.910881
29.230928 6.6308861 3.9739039 119 0 0 0 46.135769
32.954975 6.6203017 3.6226671 114 0 0 0 46.524479
28.779816 7.2780809 3.9367106 175 0 0 0 45.73859
28.319534 7.9085059 3.9001396 135 0 0 0 45.344994
-7.6324954 8.2595892 3.9677157 197 0 0 0 12.8805
-7.2031593 8.3889942 3.9030151 275 0 0 0 13.467575
-6.7287302 8.6588326 3.8729784 390.5 0 0 0 14.259624
-6.410676 8.9053097 3.8766682 413 0 0 0 14.84052
27.848703 8.5216436 3.8639309 165 0 0 0 44.955128
-6.5695539 9.1363335 3.7011447 230 0 0 0 14.84052
-6.2249455 9.1134396 3.7648573 312 0 0 0 15.23165
-5.8710256 9.3109884 3.7574644 366 0 0 0 15.821614
27.410215 9.1314955 3.8339398 163 0 0 0 44.571247
-5.5403318 9.5462418 3.768846 445.5 0 0 0 16.401581
-5.2156925 9.800312 3.7925968 424.25 0 0 0 16.984665
26.961666 9.7259398 3.8043594 170 0 0 0 44.170738
-4.7676558 10.12656 3.8254805 410.25 0 0 0 17.767729
-4.4265237 10.375719 3.8565702 411 0 0 0 18.35401
-4.1972208 10.554313 3.7453825 404 0 0 0 18.750389
-3.8063755 10.844172 3.6967127 389.66666 0 0 0 19.399771
-7.797369 11.45581 3.8748326 138 0 0 0 15.23165
-3.3623133 11.165158 3.7043917 395 0 0 0 20.118801
-2.9902291 11.440139 3.7573473 375 0 0 0 20.702669
14.598212 11.494724 3.8637185 184 0 0 0 39.097439
15.248972 11.408426 3.9590364 167 0 0 0 39.4799
15.929967 11.315405 3.578867 146 0 0 0 39.867073
16.621124 11.199333 3.6696811 146 0 0 0 40.266579
17.330906 11.065511 3.7636745 64 0 0 0 40.6549
-6.8296251 11.811234 3.8180108 246 0 0 0 16.401581
-5.5981951 11.555309 3.5970757 175 0 0 0 17.575069
-2.7355032 11.628252 3.7964716 364.5 0 0 0 21.09824
-2.4761047 11.824665 3.8403151 336 0 0 0 21.48278
13.446416 11.70844 3.7092576 166 0 0 0 38.308449
14.011603 11.604744 3.7840812 171 0 0 0 38.69672
-10.736959 12.263306 3.7477989 167 0 0 0 13.27051
-6.555501 12.006838 3.8290048 275 0 0 0 16.787199
-6.3283224 12.299921 3.700104 244.5 0 0 0 17.182131
-2.2095778 12.015072 3.7331161 352 0 0 0 21.87435
-1.7501773 12.361408 3.7134886 363.66666 0 0 0 22.520889
9.8885069 12.19762 3.6561372 200 0 0 0 35.556889
10.232582 12.004015 3.6727648 179 0 0 0 35.956661
13.478034 12.331592 3.7992847 176 0 0 0 37.91914
-1.2207564 12.758508 3.7612092 337.75 0 0 0 23.242496
6.3673105 12.883432 3.6988275 207 0 0 0 32.04118
6.6043849 12.574947 3.6569648 293 0 0 0 32.429871
7.0090156 12.580224 3.7078085 241 0 0 0 32.816151
13.273903 12.759439 3.8287039 13 0 0 0 37.524101
-0.76526546 13.09404 3.6883652 312 0 0 0 23.822729
-0.44876993 13.310854 3.7455277 305 0 0 0 24.22118
2.896512 13.426208 3.7000093 185.5 0 0 0 28.12401
3.324719 13.05743 3.7996264 372 0 0 0 28.715351
12.978788 13.10622 3.8353601 41 0 0 0 37.136398
-6.3283486 13.961144 3.9110825 291 0 0 0 17.96039
-1.5009545 13.963799 3.5967577 295 0 0 0 23.0501
-1.1513897 13.916933 3.577342 256 0 0 0 23.434891
-0.80416965 13.845904 3.5539839 258 0 0 0 23.822729
-0.23561354 13.707105 3.6270924 298.33334 0 0 0 24.481695
12.446342 13.873023 3.8745904 5 0 0 0 36.344528
12.744739 13.520162 3.8629348 8 0 0 0 36.739113
24.333561 13.885957 3.7219887 73 0 0 0 41.443008
-6.0072298 14.16716 3.9271231 249 0 0 0 18.35401
-5.6923885 14.398332 3.9520149 264 0 0 0 18.750389
-3.7116847 14.291317 3.774591 242 0 0 0 20.702669
-3.3283548 14.239752 3.7394791 239 0 0 0 21.09824
-2.7660851 14.159474 3.6912198 260 0 0 0 21.678566
-2.2143466 14.068407 3.64516 269 0 0 0 22.264071
-1.8548137 14.012449 3.6188703 277 0 0 0 22.6493
0.22915731 14.37464 3.6852925 68 0 0 0 25.006781
9.1756401 14.420463 3.6940968 197.33333 0 0 0 33.732342
9.9991131 14.373109 3.6410983 39 0 0 0 34.38076
10.47689 14.293961 3.6853483 27 0 0 0 34.77652
10.94065 14.179061 3.7240739 195 0 0 0 35.172832
-8.1594677 14.987513 3.9307714 84 0 0 0 16.787199
-6.6736465 14.734619 3.7298524 230 0 0 0 17.96039
-6.3512301 14.991476 3.754957 245 0 0 0 18.35401
-5.3796163 14.649905 3.9842846 254 0 0 0 19.14509
-4.2441969 14.849712 3.9459004 160 0 0 0 20.312651
0.97964758 14.968246 3.8455548 276 0 0 0 25.78916
5.6575465 14.985426 3.7208848 67 0 0 0 30.47802
6.0634317 14.935591 3.7449923 266 0 0 0 30.862761
8.5951309 14.545786 3.7201579 144 0 0 0 33.208988
-10.343918 15.249814 3.789557 141 0 0 0 15.23165
-8.2137766 15.095282 3.5391304 86 0 0 0 16.787199
-7.3910556 15.325938 3.5059831 215 0 0 0 17.575069
-6.0137739 15.224997 3.7760494 224 0 0 0 18.750389
-5.6772137 15.474794 3.8029497 244 0 0 0 19.14509
-4.3915381 15.377097 3.6929841 151 0 0 0 20.312651
1.385801 15.338741 3.5701802 9 0 0 0 26.18004
2.7470717 15.421164 3.6337748 166.5 0 0 0 27.54563
4.4764352 15.162655 3.6706965 81 0 0 0 29.29491
4.8707986 15.116569 3.6880994 86 0 0 0 29.68882
5.2614055 15.048298 3.7025924 113 0 0 0 30.08695
-7.0469809 15.578206 3.523757 278 0 0 0 17.96039
-6.6975241 15.829123 3.5429392 257 0 0 0 18.35401
-5.3291731 15.708881 3.827843 215 0 0 0 19.527109
-4.9398241 15.827057 3.8268442 111 0 0 0 19.92495
1.7969793 15.585382 3.6370049 278 0 0 0 26.56678
2.1762412 15.512282 3.6322718 94 0 0 0 26.961
-6.354116 16.108768 3.5701401 276 0 0 0 18.750389
-5.9989343 16.375513 3.5961444 209 0 0 0 19.14509
7.0716553 16.233215 3.6764452 59 0 0 0 31.25416
7.5164008 16.154713 3.6999781 79 0 0 0 31.65168
-5.6344213 16.634481 3.6221514 224 0 0 0 19.527109
10.536589 16.84429 3.6348779 41 0 0 0 33.604168
1.5819792 17.355108 3.6084375 46 0 0 0 26.18004
2.4233768 17.188335 3.5960984 69 0 0 0 26.961
0.0016440928 -34.019081 4.4536304 10 0 0 0 74.718605
-0.8254354 -33.695965 4.4131236 8 0 0 0 75.114204
1.6142714 -32.851074 4.3067503 11 0 0 0 73.9375
0.79718107 -32.453949 4.2514381 6 0 0 0 74.331108
8.9470873 -32.335991 4.3926153 11 0 0 0 70.409676
9.619628 -31.717993 4.3400402 9 0 0 0 70.020096
10.378866 -31.423702 4.3335919 11 0 0 0 69.623558
10.77642 -30.126415 4.1913185 12 0 0 0 69.238274
11.167884 -28.961418 4.0674729 12 0 0 0 68.841217
11.915172 -28.775011 4.0813365 35 0 0 0 68.449219
15.424464 -28.862705 4.2883844 15 0 0 0 66.883339
16.399328 -28.953367 4.3602829 30 0 0 0 66.486458
12.416555 -28.020948 4.017312 16 0 0 0 68.062927
13.191362 -27.899733 4.0452738 15 0 0 0 67.664131
14.054282 -27.929007 4.0982761 11 0 0 0 67.281891
16.652172 -13.672952 4.4429469 9 0 0 0 60.610992
17.020966 -13.28903 4.4534898 32 0 0 0 60.209351
17.420328 -12.924356 4.4740591 24 0 0 0 59.821079
17.683781 -12.457862 4.4625959 25 0 0 0 59.437592
-5.3100476 -11.979802 4.3202014 24 0 0 0 81.374496
17.903088 -11.96501 4.443325 22 0 0 0 59.043659
18.717958 -11.853102 4.0255485 32 0 0 0 58.649071
38.319172 -11.594271 4.2863812 8 0 0 0 54.347191
-5.6664577 -11.259305 4.1571074 200 0 0 0 82.157539
-5.283782 -11.177291 4.229444 55 0 0 0 81.771309
1.3482832 -11.000341 4.2019086 54 0 0 0 72.76001
-5.5096059 -10.956719 4.3458881 25 0 0 0 82.157539
2.8061769 -10.182745 4.0075603 60 0 0 0 70.409676
3.1127546 -10.300953 4.0826106 49 0 0 0 70.020096
3.8157997 -10.300251 4.1678085 38.5 0 0 0 69.039749
16.558582 -10.489018 4.0490284 29 0 0 0 58.649071
10.054661 -8.2663794 4.305809 162 0 0 0 60.610992
16.789503 -8.4478598 4.3478384 26 0 0 0 57.084648
-7.3030419 -7.682776 4.0222874 25 0 0 0 86.862167
12.027379 -7.6235771 4.0064654 27 0 0 0 58.649071
12.561419 -7.5323496 4.4812436 60 0 0 0 58.260319
14.206553 -7.1516891 4.0770507 91 0 0 0 57.084648
11.653383 -6.6086245 4.4352994 84 0 0 0 57.867779
12.593171 -6.7353277 4.0199728 134 0 0 0 57.479359
13.211315 -6.6525064 4.1628351 106 0 0 0 57.084648
9.6173372 -6.0970559 4.0550094 164 0 0 0 58.649071
11.683542 -6.2480879 4.0591512 152 0 0 0 57.479359
14.333137 -6.3527336 4.411088 93 0 0 0 56.299961
-39.885597 -5.9133224 4.3075418 18 0 0 0 97.418678
9.6655931 -5.7998395 4.2919998 170 0 0 0 58.260319
14.405315 -5.554059 4.3459668 103 0 0 0 55.516899
18.386465 -5.5653558 4.4484477 173 0 0 0 54.347191
32.692623 -5.6363683 4.3807836 40 0 0 0 52.387798
-30.058146 -5.2196822 4.0178404 31 0 0 0 97.021996
9.1975079 -5.2168217 4.0295854 252 0 0 0 57.867779
9.784687 -5.2347946 4.2273808 178 0 0 0 57.479359
19.107441 -5.2764339 4.1034732 94 0 0 0 53.958767
22.667973 -5.0713348 4.230165 27 0 0 0 53.176689
-11.048376 -4.5886211 4.248528 104 0 0 0 93.507599
-10.218809 -4.8453388 4.155189 214.5 0 0 0 92.726799
9.8260384 -4.9499073 4.1924243 116 0 0 0 57.084648
14.253114 -4.7040915 4.2276797 119 0 0 0 54.735958
23.823929 -4.7170525 4.4217124 124 0 0 0 52.779846
9.6451273 -4.2778606 4.023735 590 0 0 0 56.299961
12.388709 -4.0912895 4.3261609 57 0 0 0 54.735958
18.685463 -4.179574 4.4362135 58 0 0 0 53.176689
9.9680605 -3.8452694 4.0751581 465 0 0 0 55.516899
13.622707 -3.7615507 4.3332167 195 0 0 0 53.958767
15.589064 -3.8944101 4.1247964 43 0 0 0 53.563889
18.318121 -3.6264396 4.3282967 83 0 0 0 52.779846
19.011652 -3.7663617 4.0151968 137 0 0 0 52.779846
38.723488 -3.7699265 4.1757402 6 0 0 0 51.222359
-20.425232 -3.0327613 4.2616191 76 0 0 0 97.418678
14.394194 -3.2225859 4.1582947 66 0 0 0 53.176689
18.85445 -3.2521431 4.4343486 64 0 0 0 52.387798
-14.751345 -2.5653648 4.2058954 59 0 0 0 97.021996
11.160723 -2.7881539 4.1048942 29 0 0 0 53.563889
14.483541 -2.5005853 4.1448693 43 0 0 0 52.387798
17.262669 -2.5420432 4.0486269 47 0 0 0 52.00206
-18.598236 -2.2995305 4.3298907 27 0 0 0 97.812553
-11.707405 -2.338413 4.2423682 207 0 0 0 96.633194
10.54032 -2.0879524 4.1028161 38 0 0 0 52.779846
14.6029 -2.1520317 4.1629934 33 0 0 0 52.00206
16.882532 -2.0631311 4.3668051 113 0 0 0 51.60371
31.456472 -2.2786474 4.1704059 18 0 0 0 50.82542
-13.185738 -1.9608285 4.406642 70 0 0 0 97.418678
13.402507 -1.8055651 4.152245 57.5 0 0 0 51.802887
24.225914 -1.7566061 4.4261007 15 0 0 0 50.82542
-11.257499 -1.1163683 4.1589446 71.5 0 0 0 98.196602
13.167034 -1.2824969 4.3918738 27 0 0 0 51.222359
-11.417149 5.3072619 4.4270153 184 0 0 0 6.6337099
-11.303312 5.5932531 4.4350905 197 0 0 0 7.0334802
33.472885 5.8765001 4.4986429 96 0 0 0 46.910881
-13.00872 6.4504948 4.0419493 386 0 0 0 7.0334802
-12.979293 6.4328899 4.3860254 362 0 0 0 7.0334802
-12.938063 6.8124352 4.2491608 309.5 0 0 0 7.4173498
-11.925613 6.6533995 4.4715986 162 0 0 0 7.8058
-9.7845573 6.7734241 4.4786954 207 0 0 0 9.3793001
-9.4921246 6.9184093 4.4214768 168 0 0 0 9.7670498
32.906616 6.6159282 4.4442782 119 0 0 0 46.524479
-12.866709 7.1800184 4.4624543 346 0 0 0 7.8058
-9.1888561 7.0457463 4.3596849 189 0 0 0 10.15787
-8.7375011 7.2197213 4.2692928 254 0 0 0 10.741079
-8.3802271 7.4568653 4.2264543 347 0 0 0 11.32953
-8.1473627 7.6133404 4.2023616 332 0 0 0 11.71111
-7.8175688 7.8597779 4.1796227 323 0 0 0 12.297606
-7.9541492 8.1982889 4.0288882 203 0 0 0 12.49743
-7.2752891 8.2663221 4.1550221 320.66666 0 0 0 13.271884
-6.7277956 8.6573544 4.139266 341 0 0 0 14.259624
-6.4067788 8.8995247 4.1412206 349 0 0 0 14.84052
-6.195385 9.0656147 4.1477709 342 0 0 0 15.23165
-5.8685837 9.3031387 4.1568975 340 0 0 0 15.821615
-9.7644901 9.6102934 4.4954953 221 0 0 0 12.09778
-9.4943438 9.8122253 4.4811606 214 0 0 0 12.49743
-5.5420213 9.5448103 4.1723714 307 0 0 0 16.401581
-5.2136908 9.7915802 4.1954317 376.5 0 0 0 16.984665
-14.501096 10.080026 4.4820943 157 0 0 0 9.3793001
-9.1679173 10.198674 4.3325515 201.5 0 0 0 13.075504
-8.7908869 10.356515 4.3497081 190.66667 0 0 0 13.533264
-4.7703357 10.126887 4.2357082 364 0 0 0 17.767731
-4.4265561 10.370019 4.2675982 301 0 0 0 18.35401
-8.2959576 10.710678 4.2847028 219 0 0 0 14.259624
-4.1981554 10.545095 4.1584187 337 0 0 0 18.750389
-3.8462713 10.80504 4.2037835 345.25 0 0 0 19.3361
-7.7690263 11.11205 4.1232967 231.5 0 0 0 15.036085
-3.3623564 11.153072 4.2714462 329 0 0 0 20.118801
-2.990464 11.42704 4.3321075 297 0 0 0 20.702669
14.583225 11.486966 4.3159032 128 0 0 0 39.097439
15.216242 11.388037 4.4175701 152 0 0 0 39.4799
15.898531 11.292991 4.0529251 172 0 0 0 39.867073
16.617342 11.196601 4.163096 156 0 0 0 40.266579
17.310186 11.052115 4.2657948 58 0 0 0 40.6549
29.369871 11.416825 4.1786385 118 0 0 0 43.783058
-14.277991 11.56776 4.2165866 153 0 0 0 10.54499
-2.7360959 11.615588 4.2317791 355 0 0 0 21.09824
-2.4753487 11.803628 4.2775545 322 0 0 0 21.48278
10.217428 11.986374 4.2511864 152.5 0 0 0 35.956661
13.422994 11.692169 4.140306 175 0 0 0 38.308449
13.976559 11.579851 4.2207165 143 0 0 0 38.69672
-14.192872 12.086613 4.2781858 132 0 0 0 10.93717
-10.759189 12.288571 4.1546206 144 0 0 0 13.27051
-2.2094567 12.012798 4.1833801 294.5 0 0 0 21.87435
-1.796702 12.317666 4.2647443 302.75 0 0 0 22.456684
9.861927 12.16511 4.2270584 175 0 0 0 35.556889
13.477814 12.335627 4.2481685 203 0 0 0 37.91914
-1.2184649 12.740767 4.229497 282 0 0 0 23.242496
6.3436174 12.839193 4.2188749 222.5 0 0 0 32.04118
6.726912 12.55794 4.2574182 263.33334 0 0 0 32.558628
7.001164 12.566458 4.0619359 210 0 0 0 32.816151
13.27092 12.760972 4.280251 11 0 0 0 37.524101
-0.76604962 13.081787 4.1687202 298.5 0 0 0 23.822729
-0.44990364 13.299831 4.2340078 275 0 0 0 24.22118
2.884304 13.383286 4.1954093 156 0 0 0 28.12401
3.3206666 13.047376 4.2946711 280.75 0 0 0 28.715351
12.98389 13.115867 4.2903514 42 0 0 0 37.136398
-5.7293816 13.501287 4.1074052 331 0 0 0 18.35401
-5.276895 13.831699 4.1474156 283.5 0 0 0 18.947739
-0.12346731 13.521243 4.3024111 295.5 0 0 0 24.61195
12.757817 13.538658 4.3239708 7 0 0 0 36.739113
24.306406 13.870163 4.4117465 75 0 0 0 41.443008
-4.8174911 14.173465 4.1946745 314 0 0 0 19.527109
-4.4905639 14.359734 4.2167091 230 0 0 0 19.92495
0.22822534 14.465934 4.4233847 14 0 0 0 25.006781
9.3409624 14.421028 4.2761741 121.66666 0 0 0 33.860508
9.9639263 14.328311 4.057497 36 0 0 0 34.38076
10.435894 14.243687 4.1051826 44 0 0 0 34.77652
10.925321 14.164476 4.1586056 125 0 0 0 35.172832
12.774006 14.241187 4.4452167 30 0 0 0 36.344528
-8.1092129 14.893581 4.3213949 79 0 0 0 16.787199
-5.0575519 14.893832 4.0163116 255 0 0 0 19.527109
0.97781932 14.945284 4.2117367 238 0 0 0 25.78916
5.6561484 14.982186 4.1138201 237 0 0 0 30.47802
6.2616796 14.893148 4.151351 247.5 0 0 0 31.05846
8.5925264 14.544569 4.3426638 9 0 0 0 33.208988
-10.375585 15.290656 4.2507744 147 0 0 0 15.23165
-4.7280684 15.135361 4.0495749 208 0 0 0 19.92495
2.1720841 15.485069 4.0099859 318 0 0 0 26.961
2.6817672 15.423408 4.145925 240.66667 0 0 0 27.482042
4.4720173 15.148823 4.2520065 148.5 0 0 0 29.29491
4.8586421 15.079951 4.0686913 315 0 0 0 29.68882
5.252533 15.023985 4.2859411 196 0 0 0 30.08695
1.7922719 15.548828 4.2071195 300.5 0 0 0 26.56678
2.1817253 15.55272 4.4176354 10 0 0 0 26.961
7.049747 16.191475 4.099659 66 0 0 0 31.25416
7.5089631 16.146524 4.1343298 49 0 0 0 31.65168
27.388142 16.530336 4.2439556 22 0 0 0 41.049358
26.684708 17.016005 4.1992931 33 0 0 0 40.6549
7.4887657 19.760134 4.3779106 28 0 0 0 30.47802
22.820503 -36.041828 4.5316033 6 0 0 0 65.70887
25.298283 -35.92289 4.6678205 12 0 0 0 64.917725
25.736382 -34.703079 4.5916071 10 0 0 0 64.53051
11.075044 -28.72271 4.7960153 13 0 0 0 68.841217
-4.825264 -12.520249 4.7513814 6 0 0 0 80.591988
-5.0257921 -12.14453 4.6549034 18 0 0 0 80.979568
-5.2581367 -11.873612 4.5995908 122 0 0 0 81.374496
17.884773 -11.948996 4.9654789 29 0 0 0 59.043659
-5.2907915 -11.197091 4.6911268 56 0 0 0 81.771309
-4.9577489 -11.194186 4.6378098 50 0 0 0 81.374496
-5.4257445 -10.789683 4.5756917 18 0 0 0 82.157539
18.062185 -10.228638 4.7957449 29 0 0 0 57.867779
19.561548 -9.843051 4.5219917 20 0 0 0 57.084648
-14.161823 -7.5828061 4.9007483 42 0 0 0 91.942795
11.703976 -7.4201355 4.585 49 0 0 0 58.649071
13.460794 -5.5760059 4.8236151 81 0 0 0 55.901718
-12.199216 -5.4210052 4.7366281 40 0 0 0 93.114403
14.853632 -5.3080387 4.8287544 33 0 0 0 55.134899
-10.979744 -4.5601187 4.5136504 83 0 0 0 93.507599
13.2302 -4.7324948 4.6549096 76 0 0 0 55.134899
14.134367 -4.6627212 4.559587 158 0 0 0 54.735958
12.287989 -4.3920302 4.647119 25 0 0 0 55.134899
13.326369 -4.0340471 4.9568954 49 0 0 0 54.347191
14.270644 -4.320868 4.5685034 72 0 0 0 54.347191
34.246674 -4.1820545 4.5562248 23 0 0 0 51.60371
14.102352 -3.8966866 4.8473167 55 0 0 0 53.958767
21.91589 -3.7824492 4.6017456 23 0 0 0 52.387798
-20.491066 -3.0460773 4.7825961 54 0 0 0 97.418678
-17.735369 -3.0837884 4.6023073 80 0 0 0 97.021996
15.251417 -3.4116094 4.7884059 19 0 0 0 53.176689
16.615408 -3.2910225 4.7689276 25 0 0 0 52.779846
18.038057 -3.112114 4.6948013 25 0 0 0 52.387798
-12.070341 -2.7207291 4.6985312 20 0 0 0 96.24279
30.181002 -2.9352443 4.7620406 44 0 0 0 51.222359
-20.441132 -2.0186887 4.7428441 43 0 0 0 98.196602
13.622742 -2.0041943 4.9066615 43 0 0 0 52.00206
-11.99087 -1.7875478 4.6052771 26 0 0 0 97.418678
18.003353 -1.3041633 4.6329122 34 0 0 0 50.82542
-13.30228 -0.98932236 4.7374058 25 0 0 0 98.587746
-13.147935 -0.32968593 4.671989 15 0 0 0 99.379539
31.19805 3.9063025 4.9433017 121 0 0 0 47.700569
35.215347 3.5313427 4.6808805 101 0 0 0 48.089138
34.575253 4.3290234 4.6099939 134 0 0 0 47.700569
30.67383 4.6102414 4.878016 161 0 0 0 47.301399
-11.591101 5.0486302 4.7518559 242 0 0 0 6.2481098
-11.172297 5.3581023 4.6583714 283 0 0 0 6.8335953
30.193523 5.3012309 4.8220911 154 0 0 0 46.910881
34.032291 5.114686 4.5542717 117 0 0 0 47.301399
-10.655315 5.7635126 4.5558147 294.5 0 0 0 7.6115751
29.699013 5.9716535 4.7662883 131 0 0 0 46.524479
-12.987761 6.4398251 4.7451997 267 0 0 0 7.0334802
-11.657267 6.3123903 4.6633463 197.5 0 0 0 7.6115751
-10.264284 6.2171144 4.5145531 187.5 0 0 0 8.3971949
-12.895096 6.7908998 4.7711511 164 0 0 0 7.4173498
-11.718657 6.9150057 4.6197486 207 0 0 0 8.2027597
-10.039575 6.5944262 4.5197215 192 0 0 0 8.98769
29.194855 6.6221423 4.7112236 155 0 0 0 46.135769
-11.62344 7.2471533 4.6518841 214 0 0 0 8.59163
28.750664 7.2701683 4.6679902 131 0 0 0 45.73859
-12.80548 7.5619292 4.5046034 370 0 0 0 8.2027597
-11.592041 7.6302929 4.5464444 179 0 0 0 8.98769
-11.441066 7.7977366 4.760756 211 0 0 0 9.2487631
28.256296 7.8903489 4.6188741 149 0 0 0 45.344994
-11.372639 8.3065996 4.7866364 208 0 0 0 9.7670498
-11.165329 8.7285337 4.7599673 202.33333 0 0 0 10.28691
-10.716734 8.8740482 4.9013271 225 0 0 0 10.741079
27.823698 8.5134916 4.581902 125 0 0 0 44.955128
-10.679742 9.0733814 4.5951638 164 0 0 0 10.93717
-10.168931 9.2965641 4.6874647 241.75 0 0 0 11.52032
-14.582612 9.6159935 4.8640776 178 0 0 0 8.98769
-9.7476511 9.5866213 4.8192821 243 0 0 0 12.09778
-14.506785 10.083797 4.9202895 134 0 0 0 9.3793001
-14.42825 10.5622 4.9805374 138 0 0 0 9.7670498
29.829876 10.757676 4.9904866 110 0 0 0 44.170738
14.55994 11.468572 4.7654128 141 0 0 0 39.097439
15.185871 11.36525 4.8758416 126 0 0 0 39.4799
15.892814 11.292949 4.5304236 121 0 0 0 39.867073
16.566439 11.166451 4.6412382 118 0 0 0 40.266579
17.279402 11.036569 4.7618904 77 0 0 0 40.6549
29.34881 11.408153 4.9562817 115 0 0 0 43.783058
-11.030624 11.990644 4.7455845 142.5 0 0 0 12.8805
-2.734832 11.609222 4.5210147 273 0 0 0 21.09824
-2.3420551 11.898764 4.598444 289.5 0 0 0 21.678566
10.183283 11.950821 4.8210287 156 0 0 0 35.956661
13.433149 11.700871 4.5819964 121 0 0 0 38.308449
13.963737 11.569163 4.6633515 136 0 0 0 38.69672
-14.213159 12.103721 4.7404122 132 0 0 0 10.93717
-10.72989 12.254455 4.5459661 150 0 0 0 13.27051
-1.7949786 12.287258 4.7102237 249 0 0 0 22.456684
9.8467922 12.15094 4.8020782 147 0 0 0 35.556889
13.46717 12.325849 4.6942964 164 0 0 0 37.91914
-14.113769 12.628652 4.8097153 99 0 0 0 11.32953
-1.2211059 12.71921 4.6916852 236.25 0 0 0 23.242496
3.4741552 12.996103 4.7883649 250 0 0 0 28.90551
