# .PCD v0.7 - Point Cloud Data file format
VERSION 0.7
FIELDS x y z intensity normal_x normal_y normal_z curvature
SIZE 4 4 4 4 4 4 4 4
TYPE F F F F F F F F
COUNT 1 1 1 1 1 1 1 1
WIDTH 952
HEIGHT 1
VIEWPOINT 0 0 0 1 0 0 0
POINTS 952
DATA ascii
3.9120839 -3.87219 1.2505404 1174.625 0 0 0 61.878033
4.1148434 -3.7814133 1.2703929 689.75 0 0 0 61.293034
8.9461975 -3.7346964 1.233587 249.5 0 0 0 55.816582
14.300793 -3.6023612 1.3238996 376 0 0 0 53.477402
8.9469872 -3.4787021 1.2229835 800 0 0 0 55.43364
19.424088 -3.3884041 1.2687848 182 0 0 0 52.30492
22.393299 -3.3386021 1.4527709 101 0 0 0 51.920181
29.542667 -2.9230461 1.1681902 82 0 0 0 51.143513
-26.279465 1.9083335 1.3932254 155 0 0 0 0.77389997
76.738083 1.8907045 1.0612935 43 0 0 0 49.187279
-21.928486 2.1288362 1.169423 230 0 0 0 1.16567
-22.410034 3.2861583 1.2026772 127 0 0 0 1.95254
-19.034351 3.2633903 1.0296662 129 0 0 0 2.3357301
78.95092 3.8882551 1.0945036 67 0 0 0 48.794559
24.273638 6.7370267 1.0065778 282 0 0 0 45.285992
24.069672 7.3235664 1.0051543 9 0 0 0 44.897846
9.9244347 7.8179479 1.1433525 71 0 0 0 39.034447
12.619252 9.4252768 1.0230365 193 0 0 0 39.430279
13.2415 9.3881683 1.0541269 226 0 0 0 39.815399
10.043411 9.6552629 1.2525164 273 0 0 0 37.469872
17.34337 9.8741169 1.2912924 489 0 0 0 41.380798
17.687704 9.5001307 1.29962 432 0 0 0 41.770153
6.8363385 10.384356 1.1097324 293 0 0 0 33.954647
7.1922865 10.357003 1.1266571 254 0 0 0 34.339699
7.7675791 10.339756 1.1570868 217.5 0 0 0 34.927597
8.3659077 10.316671 1.1894956 181 0 0 0 35.51598
8.7934914 10.310434 1.214211 198 0 0 0 35.906647
9.2150621 10.277499 1.2375427 204 0 0 0 36.293461
9.6746082 10.26609 1.2651932 230 0 0 0 36.689529
10.133449 10.232559 1.2921484 203 0 0 0 37.084167
16.999998 10.242122 1.2835256 482 0 0 0 40.986778
24.901676 10.348089 1.0734904 130 0 0 0 43.328259
31.102453 10.300203 1.2976425 250 0 0 0 44.505432
-20.189848 10.704884 1.2219464 25 0 0 0 7.4103699
6.2426448 10.890052 1.1157959 377.5 0 0 0 32.973808
6.5883336 10.566518 1.1097224 388 0 0 0 33.567928
11.588865 10.593356 1.4079925 132 0 0 0 37.861259
12.145405 10.561899 1.4436599 118 0 0 0 38.256088
12.758065 10.551108 1.4850607 130 0 0 0 38.653461
16.321785 10.965969 1.2700871 532 0 0 0 40.208118
16.665157 10.609426 1.2768689 429 0 0 0 40.601231
24.427492 10.864435 1.0640146 140 0 0 0 42.941639
-1.2323748 11.297812 1.2391713 426 0 0 0 23.01321
-0.81292689 11.296336 1.2383491 460.5 0 0 0 23.604074
-0.25585824 11.269001 1.2370024 443.5 0 0 0 24.386175
0.29767543 11.235326 1.2379234 493 0 0 0 25.166965
0.85889006 11.308359 1.2531776 291.5 0 0 0 25.94643
1.2737993 11.253178 1.2545924 399 0 0 0 26.539299
5.7601805 11.305731 1.1238065 394 0 0 0 32.19722
6.982029 11.192863 1.4950846 303 0 0 0 33.567928
23.97747 11.380056 1.0558966 109 0 0 0 42.558273
31.542267 11.314338 1.3260722 45 0 0 0 44.113018
5.2760925 11.75267 1.1365547 322.5 0 0 0 31.409904
-1.6585072 12.467191 1.2131518 503 0 0 0 22.63241
1.7367923 12.47839 1.2410429 528.5 0 0 0 26.9231
2.2050338 12.450288 1.2489967 548 0 0 0 27.508215
2.8369496 12.41658 1.2623886 596 0 0 0 28.292265
3.3206329 12.401678 1.275465 537.5 0 0 0 28.877701
3.8104773 12.375545 1.2894413 532.5 0 0 0 29.460693
4.3112268 12.35614 1.306 488 0 0 0 30.04269
4.7284837 12.242806 1.2598013 394.66666 0 0 0 30.570229
5.1518354 12.27426 1.4953866 286.5 0 0 0 31.02422
-22.375181 12.582385 1.3712523 116 0 0 0 7.7968998
-13.125723 12.981434 1.2401137 310 0 0 0 12.08772
-11.866098 12.932448 1.4014039 86 0 0 0 12.87227
-8.6592131 12.755283 1.2455822 297 0 0 0 15.21612
-8.2655725 12.838947 1.2361169 386 0 0 0 15.60316
-4.8458648 12.69277 1.2853806 470.5 0 0 0 18.924904
-22.332451 13.288108 1.3897696 121 0 0 0 8.1869602
-15.520724 13.262692 1.1097543 166 0 0 0 10.91678
-14.727287 13.21773 1.0784409 191 0 0 0 11.3019
-13.971651 13.166869 1.0489492 190 0 0 0 11.69938
-12.629799 13.115385 1.2253016 208 0 0 0 12.47992
-11.778664 13.487482 1.4312578 218 0 0 0 13.26133
-8.0896759 13.271666 1.2599957 250 0 0 0 16.00293
-22.026918 13.846597 1.393379 118 0 0 0 8.58078
-11.55123 13.900347 1.4464151 243 0 0 0 13.65311
-21.57443 14.309431 1.388665 130 0 0 0 8.9682598
-20.640335 14.426432 1.3535715 94 0 0 0 9.3605003
-11.214746 14.192382 1.2256596 237.5 0 0 0 14.04143
-10.886623 14.492782 1.2303646 221.5 0 0 0 14.43857
-10.550248 14.785227 1.2351146 219 0 0 0 14.8331
-7.6371799 14.905873 1.3630692 238 0 0 0 17.165489
-7.1724038 14.883245 1.3475 254 0 0 0 17.561621
-6.7226486 14.867884 1.333744 281 0 0 0 17.94956
-6.2852149 14.857044 1.3214833 266 0 0 0 18.33651
-5.0382857 14.861804 1.2939606 310 0 0 0 19.511271
-4.6334572 14.853226 1.2858081 267 0 0 0 19.90064
-4.2069426 14.743564 1.2700677 555 0 0 0 20.287861
-3.8146002 14.7255 1.2629231 618 0 0 0 20.67979
-3.2380319 14.702321 1.2542096 652.5 0 0 0 21.264355
-2.6717315 14.683901 1.247511 596 0 0 0 21.843321
-2.3078144 14.727504 1.2487037 444 0 0 0 22.23834
-20.642263 15.194114 1.379396 153 0 0 0 9.7490797
-8.6506453 15.029569 1.4051347 273 0 0 0 16.38261
-8.1534014 15.000672 1.3863847 245 0 0 0 16.77145
-20.183073 15.63099 1.3761804 133 0 0 0 10.134
-19.725639 16.063408 1.3737066 105 0 0 0 10.53481
-1.3306342 -52.683559 1.7050316 28 0 0 0 74.980682
-0.037947685 -52.593544 1.7056327 20 0 0 0 74.595741
9.1020174 -52.713066 1.7640051 23 0 0 0 71.853554
10.445965 -52.744404 1.7777894 16 0 0 0 71.468231
11.804111 -52.773521 1.792822 18 0 0 0 71.07003
-27.855232 -52.066505 1.856963 9 0 0 0 82.408752
-24.716467 -52.202957 1.8189937 10 0 0 0 81.63501
-2.6155944 -52.496162 1.696736 21 0 0 0 75.369682
3.8231969 -52.381454 1.714977 14 0 0 0 73.417435
5.1053495 -52.258015 1.7187102 16 0 0 0 73.024483
-32.7985 -51.757687 1.9241742 15 0 0 0 83.580246
-29.440273 -51.926109 1.8761073 8 0 0 0 82.798622
12.881207 -51.613747 1.769297 10 0 0 0 70.689056
-34.430798 -51.495342 1.9447218 6 0 0 0 83.967491
15.398946 -50.926178 1.7800848 21 0 0 0 69.894836
-21.971382 -49.50647 1.7090141 5 0 0 0 81.235489
-9.930872 -49.763294 1.6203451 9 0 0 0 77.722404
19.011908 -49.422047 1.7886057 17 0 0 0 68.723518
-34.283127 -48.647224 1.8697859 19 0 0 0 84.351639
20.21162 -48.923847 1.7938176 12 0 0 0 68.329651
21.421858 -48.449509 1.8010653 18 0 0 0 67.944077
22.590246 -47.880127 1.8060256 15 0 0 0 67.554062
25.478903 -47.775883 1.8589519 10 0 0 0 66.766541
26.814619 -47.438637 1.8771774 14 0 0 0 66.37603
28.203505 -47.155273 1.8991644 20 0 0 0 65.990662
29.463564 -46.625145 1.9130191 14 0 0 0 65.603279
33.454197 -45.195793 1.9708945 18 0 0 0 64.4207
29.364677 -44.040146 1.8439968 9 0 0 0 65.205406
14.986321 -42.022255 1.5077387 31 0 0 0 69.11824
29.412308 -41.8512 1.7896725 10 0 0 0 64.810822
-35.564548 -41.206837 1.7133771 15 0 0 0 85.924141
29.092207 -33.801147 1.587641 14 0 0 0 63.245758
4.6398668 -31.571609 1.8447332 13 0 0 0 72.244812
2.9507568 -30.379084 1.7607889 7 0 0 0 73.024483
-6.5902543 -29.206181 1.7013679 52 0 0 0 78.106964
-5.8990998 -29.493494 1.7105559 40 0 0 0 77.722404
-5.1437964 -29.45351 1.7022504 36 0 0 0 77.331604
-14.355886 -28.469873 1.7992461 66 0 0 0 82.023987
-7.090713 -28.184132 1.6511004 74 0 0 0 78.500275
-12.863574 -27.143293 1.6975245 36 0 0 0 81.63501
7.5514779 -27.456032 1.6633624 11 0 0 0 70.290115
-9.568182 -26.662592 1.6057761 65 0 0 0 80.06768
-8.8634109 -26.742714 1.5981641 95 0 0 0 79.666039
-8.1671324 -26.826332 1.591938 77 0 0 0 79.277115
-7.4635572 -26.861139 1.5840313 97 0 0 0 78.894592
-11.674574 -26.278219 1.627103 43 0 0 0 81.235489
-10.889623 -26.225048 1.6079099 20 0 0 0 80.841537
-10.172251 -26.299318 1.597711 47 0 0 0 80.450722
4.5531092 -26.487267 1.561582 6 0 0 0 71.853554
-15.185361 -14.447328 1.7160958 11 0 0 0 87.500061
-7.6953354 -12.45756 1.7440634 18 0 0 0 83.387131
-7.3943219 -12.307401 1.8860904 51 0 0 0 83.194016
18.11249 -12.148075 1.9045955 21 0 0 0 58.944046
-17.516115 -11.088989 1.7024151 220 0 0 0 90.63385
-8.9697933 -10.913857 1.8562651 25 0 0 0 85.530273
-12.172347 -10.490887 1.7139794 215 0 0 0 88.269569
-6.8252912 -10.189873 1.7650346 155.5 0 0 0 83.967491
-7.1006775 -9.887084 1.7043395 335.33334 0 0 0 84.483574
-6.9718351 -9.379487 1.8298359 29 0 0 0 84.747444
14.27035 -9.0806217 1.8998066 30 0 0 0 58.560329
3.7750227 -8.6223831 1.7404178 1153.6666 0 0 0 67.944077
4.1656151 -8.6327763 1.6552877 676.25 0 0 0 67.359962
4.8418632 -8.7996702 1.6948729 951.66669 0 0 0 66.506203
10.920023 -8.5709133 1.7291125 291.5 0 0 0 60.118061
27.988773 -8.5211363 1.8532523 57 0 0 0 54.261768
4.4763212 -8.4670076 1.7746229 368 0 0 0 66.766541
5.9041872 -8.0320358 1.6071866 166 0 0 0 64.4207
14.694546 -8.3650026 1.9036003 94 0 0 0 57.77256
6.2512989 -7.6841583 1.7231977 166 0 0 0 63.63522
6.9875407 -7.7730832 1.9489877 140 0 0 0 62.859741
7.2716942 -7.6991129 1.9758685 219 0 0 0 62.465569
16.410467 -7.796144 1.6067312 195 0 0 0 56.601318
6.8254018 -7.228282 1.6103441 13 0 0 0 62.465569
8.4308605 -7.3246264 1.8109688 137 0 0 0 60.904461
8.5027676 -7.0282135 1.7908911 133 0 0 0 60.511341
-30.381332 -6.8203993 1.7868012 57 0 0 0 96.082283
5.8103848 -6.8003874 1.6719921 350 0 0 0 63.245758
7.9903212 -6.9457088 1.9817742 177 0 0 0 60.904461
8.0740108 -6.6773992 1.9632462 396 0 0 0 60.511341
8.5855436 -6.7485113 1.7748555 162 0 0 0 60.118061
8.1106825 -6.3789015 1.9356502 116 0 0 0 60.118061
8.667738 -6.4748783 1.7603539 156 0 0 0 59.72879
-5.6303797 -4.3000183 1.7835811 648.40002 0 0 0 89.212753
-0.5159502 -3.9378378 1.5216374 99 0 0 0 76.553352
-0.22631469 -3.9486892 1.5171193 217 0 0 0 75.369682
3.8769479 -3.8393457 1.7810864 945.375 0 0 0 61.878033
4.1018891 -3.7712917 1.7506834 541 0 0 0 61.293034
8.7889824 -3.670223 1.6859207 569.5 0 0 0 55.816582
14.27788 -3.5975132 1.6810722 384 0 0 0 53.477402
8.8273811 -3.4331665 1.678304 659.5 0 0 0 55.43364
19.445335 -3.3895898 1.7632265 6 0 0 0 52.30492
25.74942 -3.1915877 1.6609533 40 0 0 0 51.53067
19.670805 -2.9314713 1.7776164 59 0 0 0 51.920181
29.345263 -2.9046996 1.884234 140 0 0 0 51.143513
39.869343 -2.9539595 1.5625713 38 0 0 0 50.745461
-21.971672 2.1277335 1.7172912 228 0 0 0 1.16567
-22.433514 3.2840028 1.7644476 150 0 0 0 1.95254
-19.085917 3.2667215 1.7448413 119 0 0 0 2.3357301
24.233734 6.7265191 1.6224856 253 0 0 0 45.285992
40.824272 7.0935979 1.6313891 34 0 0 0 46.849728
9.9314384 8.6508217 1.5099111 126 0 0 0 38.256088
22.451597 8.6916294 1.5539137 257 0 0 0 43.7244
17.669102 9.4954624 1.7997645 407 0 0 0 41.770153
18.009661 9.11306 1.8114505 128 0 0 0 42.1572
10.042044 9.655838 1.5924565 302 0 0 0 37.469872
17.326807 9.870142 1.7886214 399 0 0 0 41.380798
16.982851 10.23739 1.7780241 462 0 0 0 40.986778
10.158281 10.777224 1.6877074 157 0 0 0 36.689529
16.310947 10.964585 1.7606245 465 0 0 0 40.208118
16.660042 10.611892 1.7703161 377 0 0 0 40.601231
20.793552 10.510056 1.502835 170 0 0 0 42.1572
24.397623 10.852483 1.7182931 157 0 0 0 42.941639
-1.2381095 11.31532 1.5205287 450 0 0 0 23.01321
-0.81754464 11.29041 1.6554931 513.75 0 0 0 23.604074
-0.26112106 11.285694 1.6553446 786 0 0 0 24.386177
0.29241174 11.227981 1.6519932 514.25 0 0 0 25.166965
0.8480227 11.238285 1.6620159 576.5 0 0 0 25.94643
1.2663062 11.231891 1.6699138 713 0 0 0 26.539299
6.743288 11.428111 1.5017362 317 0 0 0 33.169659
7.3076172 11.094277 1.5071748 252 0 0 0 33.954647
7.6943116 11.074262 1.5311338 346 0 0 0 34.339699
8.0944309 11.055421 1.5569957 250 0 0 0 34.729038
8.8098698 11.423405 1.638896 162 0 0 0 35.12616
9.2772655 11.431936 1.6734445 160 0 0 0 35.51598
9.7295923 11.400177 1.704461 128 0 0 0 35.906647
10.202571 11.371427 1.7382363 178 0 0 0 36.293461
11.321309 11.424675 1.8309907 82 0 0 0 37.084167
15.97341 11.319801 1.7528697 432 0 0 0 39.815399
23.958019 11.372268 1.7061322 127 0 0 0 42.558273
6.3646269 11.760033 1.5102317 325 0 0 0 32.583153
12.749067 11.648716 1.9660062 138 0 0 0 37.861259
15.65876 11.687674 1.748349 395 0 0 0 39.430279
-1.6646348 12.463358 1.829265 464.5 0 0 0 22.63241
1.7295117 12.465798 1.7025173 516 0 0 0 26.9231
2.1979365 12.44183 1.712741 575 0 0 0 27.508215
2.8308778 12.413442 1.7304138 553 0 0 0 28.292265
3.3141756 12.398285 1.7472699 494 0 0 0 28.877701
3.8038707 12.372047 1.765511 523.5 0 0 0 29.460693
4.3051219 12.35484 1.787459 550 0 0 0 30.04269
4.8181667 12.333469 1.8120627 434 0 0 0 30.635824
5.3097658 12.23623 1.8282871 164 0 0 0 31.21583
5.7269478 12.344697 1.6989814 411.5 0 0 0 31.603979
6.0059824 12.147513 1.526816 232 0 0 0 32.0061
7.3212371 12.403618 1.9823 248 0 0 0 33.169659
7.6198692 12.210974 1.9830651 185 0 0 0 33.567928
-13.76601 12.963367 1.5017501 239 0 0 0 11.69938
-11.863706 12.926266 1.8247527 68 0 0 0 12.87227
-8.6493645 12.732031 1.8037421 288 0 0 0 15.21612
-8.2717056 12.839718 1.7924988 366 0 0 0 15.60316
-4.8534374 12.696776 1.7834768 416 0 0 0 18.924904
-1.3600682 12.50977 1.9886535 486 0 0 0 23.01321
6.4172478 12.977286 1.9857545 264 0 0 0 32.0061
6.7651887 12.871053 1.996528 286 0 0 0 32.38834
7.0372949 12.623508 1.9868368 287 0 0 0 32.777962
-19.753967 13.086529 1.8601873 40 0 0 0 8.9682598
-15.507358 13.243043 1.6135216 137 0 0 0 10.91678
-14.510218 13.013266 1.5452114 111 0 0 0 11.3019
-13.966743 13.150654 1.9866025 162 0 0 0 11.69938
-13.291363 13.13922 1.9380522 197 0 0 0 12.08772
-12.625771 13.103528 1.8895473 218 0 0 0 12.47992
-11.791565 13.498626 1.8656701 185 0 0 0 13.26133
-8.0890217 13.26601 1.635227 244 0 0 0 16.00293
-11.545941 13.889936 1.8820416 248 0 0 0 13.65311
-20.106596 14.042278 1.9265143 54 0 0 0 9.3605003
-11.228021 14.2005 1.8884515 237 0 0 0 14.04143
-10.744345 14.665509 1.8999791 173.5 0 0 0 14.635836
-7.6430802 14.911741 1.7691647 264 0 0 0 17.165489
-7.1826024 14.898642 1.7492356 286 0 0 0 17.561621
-6.7273631 14.872071 1.7292894 303 0 0 0 17.94956
-6.2861347 14.852486 1.7116021 239 0 0 0 18.33651
-5.0429091 14.867515 1.6747601 297 0 0 0 19.511271
-4.6333632 14.844053 1.661796 265 0 0 0 19.90064
-4.2074389 14.735785 1.6407629 546 0 0 0 20.287861
-3.8114452 14.702507 1.6291116 636 0 0 0 20.67979
-3.1831005 14.721031 1.7438415 529.33331 0 0 0 21.328104
-2.6835971 14.72184 1.7979367 507 0 0 0 21.843321
-2.3112402 14.715607 1.7925707 464 0 0 0 22.23834
-8.648901 15.021119 1.8238076 275 0 0 0 16.38261
-8.1605654 15.008435 1.8005358 274 0 0 0 16.77145
-41.004402 -49.938915 2.0271342 6 0 0 0 85.530273
-45.715607 -47.996483 2.079905 7 0 0 0 86.721207
-47.245979 -47.227264 2.0966525 9 0 0 0 87.103561
-48.403183 -46.066307 2.0982459 5 0 0 0 87.500061
-50.079945 -45.37365 2.122746 7 0 0 0 87.879326
-56.029999 -41.542572 2.1967578 10 0 0 0 89.450035
-57.73645 -40.65131 2.2256556 10 0 0 0 89.844467
-0.92311579 -36.035198 2.0594711 12 0 0 0 74.980682
19.190317 -32.11734 2.2208641 8 0 0 0 65.990662
-5.1026258 -29.233402 2.4281638 10 0 0 0 77.331604
7.5918708 -27.594543 2.3842344 12 0 0 0 70.290115
8.8452778 -26.915026 2.3664718 9 0 0 0 69.501823
5.2120004 -26.411873 2.2368584 22 0 0 0 71.468231
-9.1475134 -25.496387 2.2108665 10 0 0 0 80.06768
-8.432538 -25.448433 2.1893883 18 0 0 0 79.666039
-7.6336985 -25.078503 2.1425893 6 0 0 0 79.277115
-10.978948 -24.717295 2.2052388 8 0 0 0 81.235489
-10.366717 -24.971266 2.2052269 7 0 0 0 80.841537
-6.9429893 -24.991457 2.1214328 10 0 0 0 78.894592
-6.276701 -24.947624 2.1054552 18 0 0 0 78.500275
-13.692625 -15.092064 2.1629663 6 0 0 0 86.323288
-15.527122 -14.063076 2.2238526 17 0 0 0 87.879326
-15.061288 -14.328424 2.2066622 32 0 0 0 87.500061
-12.746177 -14.051789 2.4818885 21 0 0 0 86.323288
-13.26338 -13.917042 2.0426888 30 0 0 0 86.721207
-13.718198 -13.053452 2.4781063 40 0 0 0 87.500061
-7.8617949 -12.387422 2.2889214 30 0 0 0 83.580246
-7.3473086 -12.227636 2.2264981 54 0 0 0 83.194016
-16.717134 -11.768638 2.1738873 64 0 0 0 89.844467
-17.662142 -11.181129 2.2235515 141 0 0 0 90.63385
-17.197065 -11.486633 2.1993437 108 0 0 0 90.231247
-12.483494 -11.30764 2.2081463 55 0 0 0 87.879326
-4.6102729 -11.071253 2.4688487 54 0 0 0 80.841537
-12.595139 -10.858937 2.1809473 17 0 0 0 88.269569
-9.1165991 -10.553709 2.1774433 20 0 0 0 85.924141
-8.7226162 -10.611015 2.4843943 26 0 0 0 85.530273
15.101639 -10.68408 2.0692825 19 0 0 0 59.33009
18.2479 -10.981741 2.3849397 19 0 0 0 58.158527
-13.842096 -10.263314 2.2601883 28 0 0 0 89.450035
-8.0591116 -10.307684 2.2069788 36 0 0 0 85.143501
-7.148006 -10.125482 2.2446735 214 0 0 0 84.351639
-6.646204 -10.190677 2.2041507 143.5 0 0 0 83.773865
-6.4556723 -10.164592 2.4772615 196 0 0 0 83.580246
15.530378 -10.423695 2.0943 28 0 0 0 58.944046
-17.275303 -9.784255 2.1151218 14 0 0 0 91.398994
-13.7543 -9.6849012 2.2077718 31 0 0 0 89.844467
-8.1358213 -9.8966255 2.0028403 9 0 0 0 85.530273
-6.472712 -9.6598148 2.3932102 47 0 0 0 83.967491
6.5230718 -9.8455725 2.47787 98 0 0 0 65.205406
-6.9205627 -9.3091774 2.2446361 67 0 0 0 84.747444
3.2491086 -8.5442791 2.3625948 256 0 0 0 68.723518
3.7772913 -8.6296816 2.3207872 545.5 0 0 0 67.944077
4.1613135 -8.6264601 2.2432568 364.16666 0 0 0 67.359978
4.7969227 -8.805829 2.2270913 705 0 0 0 66.571289
5.3800583 -8.5790472 2.3766506 332 0 0 0 65.603279
15.833502 -8.0058079 2.4379001 116 0 0 0 56.988701
6.2479672 -7.6826453 2.0897777 99 0 0 0 63.63522
14.824724 -7.9612403 2.3119977 42 0 0 0 57.383766
16.250259 -7.7210112 2.2522178 167 0 0 0 56.601318
-24.791937 -6.8634911 2.1193902 28 0 0 0 95.30294
8.7914848 -6.5687551 2.1935744 74 0 0 0 59.72879
-5.6885509 -4.3009939 2.2163975 536.79999 0 0 0 89.291855
3.8854876 -3.8478804 2.1229229 731 0 0 0 61.878029
4.1311746 -3.797235 2.0406148 172 0 0 0 61.293034
8.616848 -3.5996354 2.2313375 675.33331 0 0 0 55.816578
14.23927 -3.5865397 2.2218881 415.5 0 0 0 53.477402
8.798789 -3.4228497 2.2577226 382.33334 0 0 0 55.43364
25.237242 -3.1249034 2.2636728 50 0 0 0 51.53067
19.608696 -2.9231551 2.2555473 127 0 0 0 51.920181
34.395592 -2.5504906 2.1992419 17 0 0 0 50.745461
59.678776 -2.9456058 2.3201549 11 0 0 0 50.356194
-26.362564 1.9081039 2.0515828 25 0 0 0 0.77389997
-22.745279 3.3283436 2.343152 141 0 0 0 1.95254
24.196638 6.7213583 2.2474842 217 0 0 0 45.285992
22.430956 8.6891336 2.1536081 218 0 0 0 43.7244
17.819164 9.2950954 2.2939386 263 0 0 0 41.963676
17.32333 9.8695364 2.2746518 384 0 0 0 41.380798
16.976192 10.234861 2.2609248 469 0 0 0 40.986778
10.135353 10.760278 2.2334752 68.5 0 0 0 36.689529
16.300606 10.959349 2.2387035 464 0 0 0 40.208118
16.643513 10.602987 2.2500124 480 0 0 0 40.601231
15.957644 11.310479 2.2283256 460 0 0 0 39.815399
23.918768 11.360255 2.3649466 125 0 0 0 42.558273
31.871098 11.433202 2.1703975 23 0 0 0 44.113018
36.826405 11.195116 2.462584 10 0 0 0 44.897846
15.636103 11.672763 2.2218709 447 0 0 0 39.430279
-18.555082 12.284074 2.2858958 101 0 0 0 8.9682598
-1.6664456 12.451277 2.2932854 437 0 0 0 22.63241
-1.3610294 12.497269 2.297487 469 0 0 0 23.01321
1.7248666 12.45621 2.1684399 564 0 0 0 26.9231
2.1931543 12.432956 2.1808324 554.5 0 0 0 27.508215
2.8269103 12.41087 2.2033954 519.75 0 0 0 28.292265
3.3085175 12.389451 2.2230163 561 0 0 0 28.877701
3.799535 12.368593 2.2464063 493 0 0 0 29.460693
4.3009729 12.352305 2.2738292 519 0 0 0 30.04269
4.8125329 12.327641 2.3038127 466.75 0 0 0 30.635824
5.3205457 12.268059 2.330806 106 0 0 0 31.21583
5.7221584 12.344331 2.2042265 426 0 0 0 31.603979
8.2385693 12.169447 2.0271692 193.5 0 0 0 34.147171
10.14036 12.493262 2.2226248 134 0 0 0 35.51598
14.990481 12.388053 2.2118599 434 0 0 0 38.653461
15.313498 12.031636 2.2163544 385 0 0 0 39.034447
29.282991 12.164977 2.0340242 51 0 0 0 43.328259
-22.387327 12.580879 2.0078816 104 0 0 0 7.7968998
-11.821712 12.871957 2.2450581 72 0 0 0 12.87227
-8.6551371 12.73202 2.3714666 277 0 0 0 15.21612
-8.2774887 12.839853 2.3557708 377 0 0 0 15.60316
-5.2803559 12.70211 2.2544718 255.33333 0 0 0 18.466642
-4.8044114 12.713296 2.3420732 415 0 0 0 18.990904
-1.0841975 12.930255 2.373143 74 0 0 0 23.41124
6.4170365 12.981524 2.3458314 309 0 0 0 32.0061
9.1662207 12.511666 2.1402929 176 0 0 0 34.729038
9.6697502 12.535278 2.1856875 111 0 0 0 35.12616
10.670928 12.500943 2.2712545 81 0 0 0 35.906647
11.532859 12.849399 2.3857126 115 0 0 0 36.293461
12.721437 12.834486 2.4985394 37 0 0 0 37.084167
-22.352791 13.291602 2.035059 112 0 0 0 8.1869602
-15.50437 13.237093 2.1055369 158 0 0 0 10.91678
-14.713131 13.193398 2.0437725 163 0 0 0 11.3019
-13.97694 13.152266 2.4567559 137 0 0 0 11.69938
-13.286918 13.126684 2.393528 187 0 0 0 12.08772
-12.618356 13.087618 2.3323834 181 0 0 0 12.47992
-11.793152 13.491876 2.3035352 177 0 0 0 13.26133
-8.0888529 13.253554 2.2051578 211.5 0 0 0 16.00293
1.4961416 13.151513 2.4420934 42 0 0 0 26.539299
-22.041222 13.846747 2.038945 118 0 0 0 8.58078
-19.946291 13.926142 2.4990804 154 0 0 0 9.3605003
-19.565975 14.3845 2.4969652 155 0 0 0 9.7490797
-11.265129 14.238582 2.3381352 13 0 0 0 14.04143
-19.206524 14.857067 2.4989681 170 0 0 0 10.134
-10.94314 14.549809 2.3467846 17 0 0 0 14.43857
-8.1602592 14.995918 2.2175112 205 0 0 0 16.77145
-7.2259526 14.977036 2.1659377 12 0 0 0 17.561621
-6.7806554 14.978297 2.1445296 202 0 0 0 17.94956
-6.3396187 14.966859 2.1231043 232 0 0 0 18.33651
-5.0471191 14.863206 2.0593321 244 0 0 0 19.511271
-4.6461 14.863042 2.2381456 287 0 0 0 19.90064
-4.2420864 14.840561 2.0309365 298 0 0 0 20.287861
-3.8534002 14.842047 2.2101119 358.5 0 0 0 20.67979
-3.2693319 14.805141 2.1890957 175 0 0 0 21.264355
-2.7032723 14.803966 2.3636363 28 0 0 0 21.843321
-2.3298013 14.804278 2.3568609 26 0 0 0 22.23834
-20.639303 15.182489 2.0138621 110 0 0 0 9.7490797
-18.827097 15.31375 2.499871 149 0 0 0 10.53481
-20.179714 15.618729 2.00807 135 0 0 0 10.134
-19.731928 16.05868 2.004374 131 0 0 0 10.53481
19.318913 -43.715153 2.7986937 16 0 0 0 67.944077
-0.92298239 -36.156425 2.9665029 12 0 0 0 74.980682
29.14506 -32.235886 2.6182523 11 0 0 0 62.859741
30.465221 -32.075867 2.6703444 15 0 0 0 62.465569
3.8580959 -31.604677 2.630537 10 0 0 0 72.638573
8.7926407 -29.136644 2.5363233 8 0 0 0 69.894836
-13.60126 -28.711311 2.5838714 4 0 0 0 81.63501
1.9946368 -27.584742 2.9565427 11 0 0 0 73.417435
3.38257 -27.765493 2.9944508 10 0 0 0 72.638573
-8.1417379 -26.74667 2.9614704 5 0 0 0 79.277115
-7.248785 -26.089369 2.8703871 6 0 0 0 78.894592
-6.3873291 -25.381687 2.7767959 6 0 0 0 78.500275
-14.306628 -14.29832 2.6444159 9 0 0 0 87.103561
-13.149778 -13.801274 2.7276607 25 0 0 0 86.721207
-13.395115 -13.38571 2.9458466 16 0 0 0 87.103561
28.430573 -12.639532 2.7281387 14 0 0 0 56.207901
-7.2811909 -12.116014 2.5557649 38 0 0 0 83.194016
14.571812 -12.010975 2.569448 22 0 0 0 60.511341
-17.275183 -11.542799 2.7197888 96 0 0 0 90.231247
-5.8585653 -11.59661 2.8291826 8 0 0 0 82.023987
-18.006592 -11.403322 2.7900889 16 0 0 0 90.63385
-12.188464 -11.039575 2.5629826 39 0 0 0 87.879326
-6.3892508 -11.242176 2.6582208 82 0 0 0 82.798622
-5.9573913 -11.105471 2.5916431 15 0 0 0 82.408752
-4.6337256 -11.131499 2.7764754 44 0 0 0 80.841537
15.009818 -11.180449 2.5521088 30 0 0 0 59.72879
18.75123 -11.281552 2.9891315 11 0 0 0 58.158527
-17.776831 -10.656288 2.7149012 24 0 0 0 91.016838
-12.386188 -10.67811 2.5493233 63 0 0 0 88.269569
-8.6818199 -10.560525 2.8084865 34 0 0 0 85.530273
-6.5707898 -10.92962 2.6218891 44 0 0 0 83.194016
-6.2901926 -10.760881 2.8679962 98 0 0 0 82.996323
-5.7791548 -10.775282 2.8140006 11 0 0 0 82.408752
15.125481 -10.700191 2.757791 28.5 0 0 0 59.33009
-8.0071669 -10.239912 2.6718891 63 0 0 0 85.143501
-7.1978855 -10.19685 2.7190785 153 0 0 0 84.351639
-6.8669395 -10.252705 2.8392339 76 0 0 0 83.967491
-6.3745985 -10.039443 2.7373629 80 0 0 0 83.580246
-5.7190962 -10.061166 2.9483492 10 0 0 0 82.798622
6.23207 -10.486364 2.8535352 17 0 0 0 65.990662
6.6767926 -10.074544 2.8312919 34 0 0 0 65.205406
15.285423 -10.259155 2.7448177 15 0 0 0 58.944046
18.013779 -10.245001 2.8354676 27 0 0 0 57.77256
-17.153151 -9.7187271 2.5848999 27 0 0 0 91.398994
-13.648384 -9.6099157 2.6034856 42 0 0 0 89.844467
-6.2837777 -9.8950033 2.9856312 36 0 0 0 83.580246
-5.9271479 -9.857687 2.9304159 28 0 0 0 83.194016
21.464684 -9.551363 2.6416507 44 0 0 0 56.207901
-7.2467732 -9.2673979 2.9964757 62 0 0 0 85.143501
-6.3342676 -9.2075748 2.8481731 73 0 0 0 84.159561
15.252816 -9.1850901 2.8814387 34 0 0 0 58.158527
-6.8495212 -8.7589188 2.5614111 41 0 0 0 85.143501
3.2431314 -8.5314732 2.5859239 74 0 0 0 68.723518
3.9934437 -8.5501356 2.676796 10 0 0 0 67.554062
4.2626743 -8.5698719 2.8338799 110.5 0 0 0 67.165871
4.8076158 -8.5806885 2.7931468 17 0 0 0 66.37603
5.3954134 -8.6064625 2.7601552 35.5 0 0 0 65.603279
7.6245933 -8.9067059 2.7568793 36 0 0 0 63.245758
10.319192 -8.5237627 2.8274479 290 0 0 0 60.511341
10.829136 -8.5044956 2.909718 18 0 0 0 60.118061
7.935329 -8.3975649 2.7209613 11 0 0 0 62.465569
15.65122 -8.4050922 2.8798797 153 0 0 0 57.383766
27.633871 -8.4100914 2.551121 53 0 0 0 54.261768
8.6386366 -7.5060048 2.7027986 45 0 0 0 60.904461
10.960363 -7.7668209 2.5118809 39 0 0 0 59.33009
11.370731 -7.8489275 2.7542138 23.5 0 0 0 59.13707
16.350084 -7.7690034 2.9384406 88 0 0 0 56.601318
-30.312939 -6.8105631 2.5561583 21 0 0 0 96.082283
-24.85718 -6.8814945 2.7510667 125 0 0 0 95.30294
-1.2386374 -6.9665408 2.6876752 232 0 0 0 77.331604
-10.100069 -5.722434 2.9622755 73 0 0 0 91.398994
-5.6750517 -4.3148894 2.61728 435.25 0 0 0 89.252304
8.4553528 -3.5326586 2.8741059 659 0 0 0 55.816582
8.505209 -3.5543101 2.662437 760 0 0 0 55.816582
14.22634 -3.5846651 2.7675548 372 0 0 0 53.477402
-15.716143 -3.1309173 2.9115596 83 0 0 0 96.465805
24.354906 -3.0170145 2.7840598 40 0 0 0 51.53067
19.62351 -2.9227605 2.7470951 152 0 0 0 51.920181
29.276154 -2.8938551 2.6143341 114 0 0 0 51.143513
-26.242649 3.191458 2.6913109 110 0 0 0 1.56496
-22.741905 3.3221681 2.9038551 177 0 0 0 1.95254
24.208979 6.7253118 2.8612258 201 0 0 0 45.285992
-16.512766 8.7261591 2.8303747 203 0 0 0 7.4103699
22.410814 8.6822891 2.7377715 224 0 0 0 43.7244
-16.157022 9.0485945 2.8080862 258 0 0 0 7.7968998
-15.82002 9.3736095 2.7901402 262 0 0 0 8.1869602
17.628984 9.4805174 2.7787588 389 0 0 0 41.770153
-15.494337 9.6986866 2.775347 266 0 0 0 8.58078
17.30052 9.8619909 2.7639308 349 0 0 0 41.380798
-15.145748 10.002528 2.7576044 245 0 0 0 8.9682598
-14.820694 10.315625 2.7452562 261 0 0 0 9.3605003
16.957262 10.22903 2.7479532 430 0 0 0 40.986778
-14.369827 10.80378 2.7362285 173 0 0 0 9.9415398
16.281593 10.952465 2.7211914 395 0 0 0 40.208118
16.61993 10.593709 2.7340622 416 0 0 0 40.601231
-17.936714 11.243121 2.691138 145 0 0 0 8.58078
-14.048544 11.391194 2.7552354 123 0 0 0 10.53481
15.943858 11.306763 2.7096028 433 0 0 0 39.815399
10.154506 11.90343 2.5530121 118 0 0 0 35.906647
15.623305 11.669451 2.7021277 432 0 0 0 39.430279
-18.503618 12.242054 2.8215945 85 0 0 0 8.9682598
-1.6704223 12.44791 2.7547622 426.5 0 0 0 22.63241
-1.364838 12.491412 2.7588439 451.5 0 0 0 23.01321
1.7201805 12.461151 2.7891998 501 0 0 0 26.9231
2.1892776 12.441535 2.8049588 451.5 0 0 0 27.508215
2.8207057 12.407513 2.8301785 494.25 0 0 0 28.292263
3.3076384 12.397966 2.7000389 534 0 0 0 28.877701
3.797317 12.372332 2.726891 510 0 0 0 29.460693
4.2981448 12.353448 2.7590346 495 0 0 0 30.04269
4.8116465 12.333458 2.7959661 438 0 0 0 30.635824
5.302958 12.235557 2.8194315 133 0 0 0 31.21583
5.715261 12.336699 2.708353 328 0 0 0 31.603979
14.958849 12.36865 2.6871033 378 0 0 0 38.653461
15.292274 12.021437 2.6941857 392 0 0 0 39.034447
29.211786 12.142864 2.8192432 61 0 0 0 43.328259
-22.405785 12.588137 2.6304231 114 0 0 0 7.7968998
-11.809903 12.855372 2.6719811 34 0 0 0 12.87227
-8.656127 12.729339 2.7501857 248 0 0 0 15.21612
-8.2724323 12.827567 2.7296121 318 0 0 0 15.60316
-5.2070208 12.660047 2.8039215 324 0 0 0 18.53171
-4.7241149 12.808167 2.8000832 337 0 0 0 19.1229
6.4231496 12.998387 2.7088642 278 0 0 0 32.0061
14.635632 12.722345 2.6832058 327 0 0 0 38.256088
28.696478 12.766623 2.7986255 73 0 0 0 42.941639
-22.367907 13.29731 2.6651905 124 0 0 0 8.1869602
-18.758896 13.083671 2.9101017 167 0 0 0 9.3605003
-15.500327 13.225531 2.6026952 141 0 0 0 10.91678
-14.742908 13.212243 2.5314035 134 0 0 0 11.3019
-13.96065 13.133309 2.9251857 144 0 0 0 11.69938
-13.272272 13.108545 2.8495576 181 0 0 0 12.08772
-12.626433 13.092484 2.781076 173 0 0 0 12.47992
-8.1140308 13.288415 2.7865157 140 0 0 0 16.00293
1.5215474 13.380091 2.8156161 9 0 0 0 26.539299
14.163551 13.263572 2.6826692 166 0 0 0 37.665565
-22.051937 13.850061 2.6691949 117 0 0 0 8.58078
-18.232807 13.736744 2.9081616 166 0 0 0 9.9415398
-11.809279 13.506663 2.7478585 194 0 0 0 13.26133
1.2134317 13.639514 2.8596957 13 0 0 0 26.138901
7.2094698 13.712268 2.7018838 245.5 0 0 0 32.38834
-17.720339 14.398732 2.9118199 160 0 0 0 10.53481
0.90272522 14.019761 2.9301429 251 0 0 0 25.75396
-10.778404 14.697431 2.7997117 20 0 0 0 14.635836
-7.2154317 14.94242 2.9795702 66 0 0 0 17.561621
-6.7673235 14.938522 2.74544 245.5 0 0 0 17.94956
-5.068893 14.911951 2.8435416 81 0 0 0 19.511271
-4.654851 14.878154 2.8177283 271 0 0 0 19.90064
-4.2489142 14.845467 2.7941897 361 0 0 0 20.287861
-3.8569729 14.840106 2.7776947 393 0 0 0 20.67979
-3.4727995 14.846619 2.7652569 95 0 0 0 21.073111
-2.7061145 14.805026 2.7357767 17 0 0 0 21.843321
-2.3263457 14.763738 2.7199554 12 0 0 0 22.23834
-0.13229172 14.694181 2.6926031 30 0 0 0 24.58395
0.22844589 14.671426 2.6917393 29 0 0 0 24.970409
8.1317873 14.566999 2.7018313 184 0 0 0 32.777962
-8.666276 15.034665 2.6785312 219 0 0 0 16.38261
-8.1749458 15.017583 2.6422684 289 0 0 0 16.77145
9.1933041 15.542219 2.9238937 165 0 0 0 33.169659
-4.6496716 16.292946 2.6450057 76 0 0 0 20.287861
-9.6952534 16.849749 2.5185726 44 0 0 0 16.38261
4.0154824 -55.0625 3.1522899 16 0 0 0 73.417435
-29.239994 -54.650105 3.464118 8 0 0 0 82.408752
-0.043072894 -54.999153 3.1281693 18 0 0 0 74.595741
18.530125 -51.949944 3.2060404 15 0 0 0 69.11824
19.731993 -51.306057 3.201298 10 0 0 0 68.723518
18.901052 -31.629774 3.1057467 9 0 0 0 65.990662
86.884911 -31.140974 3.4862728 21 0 0 0 55.038273
23.166269 -29.764805 3.202466 6 0 0 0 64.03653
-6.6066628 -29.283308 3.1814148 8 0 0 0 78.106964
4.9198117 -28.607521 3.1115055 15 0 0 0 71.853554
5.6607499 -28.684837 3.1365831 14 0 0 0 71.468231
27.311102 -28.756588 3.3861911 6 0 0 0 62.465569
7.0238476 -28.227568 3.1264091 6 0 0 0 70.689056
7.6780324 -27.917137 3.1150599 15 0 0 0 70.290115
-9.0783014 -27.397041 3.0549848 9 0 0 0 79.666039
8.2388039 -27.319468 3.0734737 7 0 0 0 69.894836
8.8753138 -27.015358 3.0659997 14 0 0 0 69.501823
-13.2134 -14.566512 3.0576632 31 0 0 0 86.323288
-14.908376 -14.186251 3.1989255 33 0 0 0 87.500061
-12.955605 -14.281074 3.4751041 78 0 0 0 86.323288
-13.028578 -13.672675 3.4046142 56 0 0 0 86.721207
-13.284308 -13.274105 3.3858366 12 0 0 0 87.103561
8.4894705 -12.136023 3.4633446 9 0 0 0 64.810822
18.564144 -11.799917 3.0015173 28 0 0 0 58.560329
-17.098671 -11.424404 3.2006295 22 0 0 0 90.231247
-12.809576 -11.319589 3.0858774 36 0 0 0 88.074448
-5.7785382 -11.437881 3.261965 7 0 0 0 82.023987
-5.2513666 -11.054974 3.4203439 26 0 0 0 81.63501
-4.8991251 -11.000724 3.0676997 7 0 0 0 81.235489
-7.8074436 -10.507594 3.0102985 42 0 0 0 84.747444
-6.3393736 -10.544358 3.4373713 19 0 0 0 83.194016
-5.7504978 -10.720355 3.0979118 19 0 0 0 82.408752
-5.4717803 -10.827062 3.3902287 27 0 0 0 82.023987
-4.539566 -10.901484 3.1552382 31.5 0 0 0 80.841537
9.3007355 -10.853692 3.0017173 13 0 0 0 63.245758
-17.054888 -10.22303 3.0974824 16 0 0 0 91.016838
-8.4538126 -10.28558 3.0611012 16 0 0 0 85.530273
-7.6716638 -10.323606 3.2733457 140 0 0 0 84.747444
-5.9393559 -10.448785 3.3586876 30 0 0 0 82.798622
6.128006 -10.316345 3.250762 12.5 0 0 0 65.990662
9.1671896 -10.181492 3.2170901 17 0 0 0 62.859741
17.751749 -10.098557 3.3019962 30 0 0 0 57.77256
-39.367691 -9.8656034 3.3260434 35 0 0 0 95.686409
-10.149868 -9.6561432 3.2202704 93 0 0 0 87.500061
-7.0937171 -9.5433617 3.3231463 49 0 0 0 84.747444
-6.1072278 -9.6151981 3.1844621 106 0 0 0 83.580246
-5.7623167 -9.5843954 3.401387 39 0 0 0 83.194016
6.9042625 -9.8845758 3.1231616 48 0 0 0 64.810822
7.2487917 -9.6023226 3.4193878 28 0 0 0 64.228615
15.058529 -9.5823822 3.3293459 41 0 0 0 58.560329
-10.268229 -9.3004332 3.1851971 63 0 0 0 87.879326
-9.9415274 -9.4571791 3.4908955 47 0 0 0 87.500061
-7.7433176 -9.1876621 3.060082 19 0 0 0 85.727203
-6.5979338 -9.344533 3.1978014 35 0 0 0 84.351639
-6.4666286 -9.1606579 3.4102752 169 0 0 0 84.351639
7.7964725 -9.2629309 3.3464613 86.333336 0 0 0 63.37558
15.241047 -9.1799269 3.3213887 59 0 0 0 58.158527
3.4985228 -8.5689936 3.080369 241 0 0 0 68.329651
7.8602595 -8.7396355 3.0551856 101 0 0 0 62.859741
10.878212 -8.5415087 3.2623634 82 0 0 0 60.118061
9.7708502 -8.4855442 3.3700798 175 0 0 0 60.904461
10.268798 -8.4810629 3.1409104 120 0 0 0 60.511341
11.411403 -8.0851269 3.3026175 14 0 0 0 59.33009
14.793669 -8.423027 3.1820078 68 0 0 0 57.77256
15.860521 -8.2701015 3.3452463 44.5 0 0 0 57.186234
18.743538 -8.3436337 3.3276002 73 0 0 0 56.207901
-2.1870029 -7.8055744 3.0724983 196 0 0 0 78.894592
16.244165 -7.7205119 3.3667645 78 0 0 0 56.601318
-4.9681768 -7.411725 3.3754489 116 0 0 0 83.967491
11.664342 -7.4307976 3.2705958 7 0 0 0 58.560329
35.487801 -7.0791655 3.1975346 18 0 0 0 52.69854
-25.184687 -6.9768338 3.4293361 58 0 0 0 95.30294
-10.579195 -6.699019 3.1917677 133 0 0 0 90.63385
-10.291809 -6.693295 3.434278 133 0 0 0 90.432549
8.843936 -6.610013 3.1623495 111 0 0 0 59.72879
-10.449301 -6.2632766 3.4087603 112 0 0 0 91.016838
-9.8354807 -5.5722647 3.1657007 198 0 0 0 91.398994
8.1757259 -5.8050947 3.1254835 74 0 0 0 59.33009
-9.9835167 -5.3395743 3.4490647 513 0 0 0 91.79023
8.1264849 -5.4781718 3.3014889 250 0 0 0 58.944046
20.131828 -4.5401425 3.364141 116 0 0 0 53.092579
8.4863482 -4.0476117 3.4113204 351 0 0 0 56.601318
-16.203829 -3.6434889 3.423599 32 0 0 0 96.082283
7.9554014 -3.7969697 3.4190466 55 0 0 0 56.601318
8.4495182 -3.6571805 3.1165266 484 0 0 0 56.012241
11.461632 -3.8138754 3.4798632 155 0 0 0 54.659367
14.208117 -3.5801263 3.3068867 378.5 0 0 0 53.477402
-16.049326 -3.1972783 3.3749318 46 0 0 0 96.465805
8.2768803 -3.4588242 3.3703132 568.5 0 0 0 55.816582
24.396992 -3.018918 3.3955462 63 0 0 0 51.53067
-8.6244488 -2.6229455 3.4209199 16 0 0 0 94.92955
19.596455 -2.9196672 3.235872 172 0 0 0 51.920181
29.18198 -2.885689 3.3205898 48 0 0 0 51.143513
34.588196 -2.5598738 3.077023 35 0 0 0 50.745461
-8.706007 -1.9623026 3.3893168 56 0 0 0 96.082283
8.6495285 -1.5137709 3.4203157 102 0 0 0 52.30492
12.963207 -0.96207285 3.4278023 56 0 0 0 50.745461
13.067231 -0.64558607 3.4505775 153 0 0 0 50.356194
9.6477041 -0.28590864 3.3763294 97.199997 0 0 0 50.04792
8.1650591 0.0018234893 3.1894112 59 0 0 0 49.583641
-22.750717 3.3218021 3.4697378 190 0 0 0 1.95254
24.166912 6.7187543 3.4758353 218 0 0 0 45.285992
23.715227 7.2276626 3.435771 219 0 0 0 44.897846
23.250626 7.7176247 3.3953462 206 0 0 0 44.505432
22.799656 8.197588 3.3582411 223 0 0 0 44.113018
-16.52599 8.730938 3.2915983 221 0 0 0 7.4103699
22.366158 8.6704884 3.3249736 208 0 0 0 43.7244
-16.178368 9.0583172 3.2671113 235 0 0 0 7.7968998
-15.829697 9.376997 3.2436786 226 0 0 0 8.1869602
17.785345 9.2841206 3.2846017 232.5 0 0 0 41.963676
21.938005 9.1332006 3.2937975 222 0 0 0 43.328259
-15.315256 9.8450069 3.2128103 229 0 0 0 8.7745199
17.279306 9.8513384 3.2553043 375 0 0 0 41.380798
21.51531 9.5866184 3.2646923 252 0 0 0 42.941639
-14.825464 10.316355 3.1897874 262 0 0 0 9.3605003
16.944254 10.222712 3.2380743 361 0 0 0 40.986778
20.735796 10.494172 3.2203381 147 0 0 0 42.1572
21.127628 10.045648 3.2421396 215 0 0 0 42.558273
-14.319551 10.761913 3.166667 263.5 0 0 0 9.9415398
16.275156 10.949869 3.2080135 373 0 0 0 40.208118
16.59568 10.579926 3.2196493 428 0 0 0 40.601231
-13.829769 11.20933 3.1498208 219 0 0 0 10.53481
15.940114 11.30595 3.1950312 368 0 0 0 39.815399
31.896311 11.449715 3.0183289 35 0 0 0 44.113018
34.195354 11.331057 3.2062907 30 0 0 0 44.505432
36.702847 11.165642 3.4122233 22 0 0 0 44.897846
-13.51262 11.509927 3.1427021 275 0 0 0 10.91678
-13.197028 11.809019 3.1375203 253 0 0 0 11.3019
15.607019 11.659299 3.1838813 400 0 0 0 39.430279
-12.708008 12.238211 3.1291833 231.5 0 0 0 11.89355
-1.6740357 12.441711 3.2147102 354 0 0 0 22.63241
1.7131339 12.442434 3.2476475 409 0 0 0 26.9231
2.1832852 12.432251 3.2680588 483 0 0 0 27.508215
2.81633 12.407029 3.2991457 423 0 0 0 28.292265
3.2999144 12.389939 3.1703634 426.5 0 0 0 28.877701
3.7907662 12.368624 3.2026877 454.25 0 0 0 29.460693
4.2908878 12.348901 3.2396736 431.5 0 0 0 30.04269
4.8056955 12.333084 3.2836998 383.5 0 0 0 30.635824
5.3134546 12.272518 3.3208933 159.5 0 0 0 31.21583
5.7158513 12.350518 3.2133048 286 0 0 0 31.603979
15.281808 12.015328 3.1758544 419 0 0 0 39.034447
-12.227173 12.671016 3.126138 246 0 0 0 12.47992
-11.878845 12.927575 3.1191654 49 0 0 0 12.87227
-8.6404552 12.701859 3.1204762 258 0 0 0 15.21612
-8.2840366 12.836891 3.2919497 299 0 0 0 15.60316
-5.146647 12.645476 3.2403374 298.33334 0 0 0 18.596777
-4.7279873 12.801943 3.2989213 302 0 0 0 19.1229
-2.0238161 12.6932 3.2879226 27 0 0 0 22.23834
-1.3704054 12.50299 3.2236755 349 0 0 0 23.01321
-22.66976 13.469046 3.3455679 74 0 0 0 8.1869602
-15.453238 13.181603 3.0942831 71 0 0 0 10.91678
-14.71664 13.18504 3.0127721 131 0 0 0 11.3019
-8.1195536 13.29296 3.1690407 101 0 0 0 16.00293
6.4229546 13.007788 3.246969 250.5 0 0 0 32.0061
-11.706903 13.723287 3.2080483 193 0 0 0 13.45722
7.2125998 13.725134 3.2795839 231 0 0 0 32.38834
-11.261023 14.224832 3.2298701 204 0 0 0 14.04143
0.68225169 14.297066 3.2153275 37.666668 0 0 0 25.493668
-10.763582 14.672897 3.2436185 178 0 0 0 14.635836
-8.1578379 14.98002 3.0564311 241 0 0 0 16.77145
-7.6934524 14.987146 3.0217831 61 0 0 0 17.165489
-7.2287331 14.964203 3.3913972 308 0 0 0 17.561621
-6.7594166 14.910995 3.3442328 273 0 0 0 17.94956
-5.0489345 14.843643 3.2154341 11 0 0 0 19.511271
-4.6545215 14.868105 3.198256 297 0 0 0 19.90064
-3.8516107 14.808245 3.1475 156 0 0 0 20.67979
-3.2061751 14.766472 3.2367728 146.33333 0 0 0 21.328104
-2.6990008 14.734574 3.2741847 201.5 0 0 0 21.843321
-2.3255575 14.723764 3.2611165 145.5 0 0 0 22.23834
-1.2246019 14.712728 3.239485 85 0 0 0 23.41124
-0.74008775 14.675076 3.2883055 58.666668 0 0 0 23.927406
-0.25681812 14.657548 3.1656303 75.333336 0 0 0 24.452101
0.22267449 14.641872 3.225836 87 0 0 0 24.970409
8.1359253 14.579054 3.1186211 177 0 0 0 32.777962
-8.6512003 15.002693 3.0999839 62 0 0 0 16.38261
-8.1819544 15.019255 3.4836588 280 0 0 0 16.77145
9.201726 15.561126 3.3763137 144 0 0 0 33.169659
12.223513 15.820764 3.2463951 136 0 0 0 35.12616
12.688422 15.610247 3.2685111 75 0 0 0 35.51598
-4.6541309 16.287508 3.4785292 70 0 0 0 20.287861
10.362059 16.560204 3.1626742 91 0 0 0 33.567928
-4.58816 19.781977 3.172051 52 0 0 0 21.073111
-15.237912 21.399384 3.3797519 22 0 0 0 14.8331
-34.645939 -54.669243 3.6143174 22 0 0 0 83.580246
-31.018562 -54.705502 3.5135956 10 0 0 0 82.798622
-37.955074 -53.855576 3.6785524 14 0 0 0 84.351639
-47.569386 -49.940319 3.8505855 8 0 0 0 86.721207
15.852507 -44.449734 3.9235322 15 0 0 0 69.11824
-0.92865169 -36.260227 3.8557601 6 0 0 0 74.980682
-8.8327169 -29.034863 3.9576037 4 0 0 0 79.277115
5.0629015 -29.420155 3.9331179 11 0 0 0 71.853554
-9.5103779 -28.715084 3.9435339 7 0 0 0 79.666039
-38.207993 -28.334471 3.8570635 11 0 0 0 89.450035
7.8119082 -28.39353 3.892071 28 0 0 0 70.290115
3.372077 -27.662199 3.6686878 19 0 0 0 72.638573
4.1046267 -27.9457 3.720603 20 0 0 0 72.244812
2.6524484 -27.324234 3.6122518 26 0 0 0 73.024483
8.2085972 -27.212799 3.7608702 15 0 0 0 69.894836
6.6005359 -26.527164 3.6125162 10 0 0 0 70.689056
5.2218413 -26.464512 3.5598438 15 0 0 0 71.468231
8.657937 -26.350395 3.6737576 8 0 0 0 69.501823
-13.344529 -14.003751 3.9616115 38 0 0 0 86.721207
-12.757444 -14.061483 3.8887346 24 0 0 0 86.323288
-12.28962 -14.23105 3.8513625 34 0 0 0 85.924141
-14.351699 -13.655341 3.5702498 25 0 0 0 87.500061
-12.910172 -12.89914 3.7395742 7 0 0 0 87.103561
-18.359106 -11.625921 3.9185615 43 0 0 0 90.63385
-16.507925 -11.624296 3.6414375 13 0 0 0 89.844467
-7.9258714 -11.835661 3.9750245 49 0 0 0 83.967491
8.8049469 -11.953588 3.8392353 12 0 0 0 64.4207
-16.500231 -11.023975 3.5803099 24 0 0 0 90.231247
-12.800486 -11.310976 3.5033059 46.5 0 0 0 88.074448
-7.0212674 -11.061799 3.9800797 46 0 0 0 83.580246
-6.0488877 -11.278881 3.7323427 23.5 0 0 0 82.408752
-5.5730133 -11.031474 3.7567155 17 0 0 0 82.023987
-5.2342911 -11.022289 3.7095537 16 0 0 0 81.63501
-4.9195914 -11.04869 3.6774342 16 0 0 0 81.235489
-13.33226 -10.935517 3.5365622 20 0 0 0 88.66597
-8.4223671 -10.773317 3.817333 45 0 0 0 85.143501
-7.1972971 -10.74826 3.929806 47 0 0 0 83.967491
-5.308135 -10.827765 3.964169 43.5 0 0 0 81.829498
-4.6406679 -10.770075 3.7118182 82.5 0 0 0 81.038513
7.5178924 -10.759733 3.7235475 77 0 0 0 64.810822
8.6263046 -10.585564 3.5385895 18 0 0 0 63.63522
-15.027021 -10.038839 3.7074466 34 0 0 0 90.231247
-5.8738956 -10.336261 3.6143155 66 0 0 0 82.798622
7.3606486 -10.004187 3.833744 70 0 0 0 64.4207
-15.787103 -9.99615 3.8331258 10 0 0 0 90.63385
-11.720137 -9.6146641 3.85481 19 0 0 0 88.66597
-8.6413746 -9.7592592 3.6405396 16.5 0 0 0 86.123718
-7.9853735 -9.7131481 3.5124197 109 0 0 0 85.530273
-7.4620876 -9.5453014 3.682703 42 0 0 0 85.143501
-5.9767466 -9.9372482 3.8121128 52 0 0 0 83.194016
7.6840611 -9.6754398 3.8173733 55.5 0 0 0 63.835876
14.447737 -9.7039452 3.6747382 28 0 0 0 58.944046
-7.8472371 -9.3146276 3.7022176 61.5 0 0 0 85.727203
-6.9241867 -9.3173637 3.529669 64 0 0 0 84.747444
6.92945 -9.4274569 3.9040267 52 0 0 0 64.4207
7.3124499 -9.4515581 3.9886477 34 0 0 0 64.03653
7.5051994 -9.2236357 3.9713237 30 0 0 0 63.63522
8.3914289 -9.3285551 3.5714049 46 0 0 0 62.859741
8.5351782 -9.2586441 3.7424901 64.5 0 0 0 62.662655
14.726125 -9.3735743 3.6881206 44 0 0 0 58.560329
27.526676 -9.1220713 3.9800825 8 0 0 0 54.659367
-34.955826 -8.7599077 3.8322985 25 0 0 0 95.686409
-10.428782 -8.9900637 3.8449352 53 0 0 0 88.269569
-9.4163027 -8.9564095 3.6299891 52 0 0 0 87.500061
-8.5914717 -8.5819273 3.8405662 85.5 0 0 0 87.103561
-8.1802349 -8.7971134 3.6521366 11.5 0 0 0 86.522247
-6.3127203 -8.9437704 3.867878 17 0 0 0 84.351639
8.0324612 -8.5069609 3.9142399 29 0 0 0 62.465569
10.746099 -8.8768835 3.9765115 26 0 0 0 60.511341
11.130543 -8.7404404 3.6860821 33 0 0 0 60.118061
14.888712 -8.9703531 3.6751275 23 0 0 0 58.158527
-35.766911 -8.0358858 3.9000645 42 0 0 0 96.082283
-11.382099 -8.014905 3.5438159 30 0 0 0 89.844467
-10.041476 -8.2358856 3.6286454 69 0 0 0 88.66597
-9.3798103 -8.4939222 3.535666 49 0 0 0 87.879326
9.6591082 -8.390152 3.8093324 106 0 0 0 60.904461
11.491966 -8.1435871 3.6731529 85 0 0 0 59.33009
14.814025 -8.4363155 3.6076159 9 0 0 0 57.77256
15.561111 -8.3603773 3.7391243 122 0 0 0 57.383766
18.278461 -8.1390476 3.7434053 71 0 0 0 56.207901
-11.24331 -7.9168 3.8419034 11 0 0 0 89.844467
-9.5980978 -7.8742762 3.7747374 22 0 0 0 88.66597
-9.132432 -7.6775045 3.9232945 285 0 0 0 88.467773
-8.7767849 -7.9479189 3.7472062 91 0 0 0 87.879326
-7.6126981 -7.987906 3.8989975 65 0 0 0 86.721207
11.858253 -7.7611818 3.6992421 36.5 0 0 0 58.75219
15.771187 -7.9794731 3.7436843 92 0 0 0 56.988701
16.226742 -7.7139034 3.8072746 30 0 0 0 56.601318
27.590136 -7.659019 3.935503 11 0 0 0 53.868271
-12.034253 -7.2142057 3.5734539 77 0 0 0 91.016838
-8.6308527 -7.0817099 3.9460084 53 0 0 0 88.66597
8.8428917 -7.3155036 3.8504853 134 0 0 0 60.511341
-10.877376 -6.8901954 3.9165652 113 0 0 0 90.63385
-9.8218575 -6.739646 3.6248617 66 0 0 0 90.037857
7.7489204 -6.7420845 3.9561248 175 0 0 0 60.902187
8.3024426 -6.6990204 3.7146645 22 0 0 0 60.314701
9.2938194 -6.5974388 3.8302131 141 0 0 0 59.33009
10.612294 -6.7653885 3.9159756 42 0 0 0 58.560329
-10.832797 -6.1400251 3.789746 216 0 0 0 91.398994
-10.453053 -6.2678165 3.7094791 116 0 0 0 91.016838
-9.1752768 -6.1329427 3.902936 18 0 0 0 90.231247
8.0303583 -6.0049782 3.6205733 25 0 0 0 59.72879
9.5765123 -6.1122022 3.8219728 31 0 0 0 58.560329
10.154676 -6.1329875 3.9909513 59 0 0 0 58.158527
-10.684479 -5.712182 3.9880431 372 0 0 0 91.79023
-9.7224064 -5.507853 3.6797373 276 0 0 0 91.398994
-9.2441349 -5.8567286 3.8708725 137 0 0 0 90.63385
9.0950375 -5.8034167 3.8980155 34 0 0 0 58.560329
10.260262 -5.5231566 3.6346877 28 0 0 0 57.383766
11.665032 -5.554441 3.7094781 44 0 0 0 56.601318
12.337198 -5.6865654 3.5598497 73 0 0 0 56.40461
-9.6854458 -5.4912062 3.9389756 269 0 0 0 91.398994
8.1001492 -5.4580879 3.6522374 51 0 0 0 58.944046
11.742432 -5.2404585 3.6940465 33 0 0 0 56.207901
19.522264 -5.4274635 3.8041601 28 0 0 0 53.868271
9.7380724 -4.791657 3.6617255 195 0 0 0 56.79501
10.239885 -4.8781772 3.5428545 76 0 0 0 56.601318
11.906173 -4.622982 3.9894216 44 0 0 0 55.43364
12.015934 -4.6667585 3.7067714 151 0 0 0 55.43364
12.955977 -4.6649737 3.6143646 36 0 0 0 55.038273
14.064742 -4.6741014 3.8886032 31 0 0 0 54.659367
-8.5625925 -4.3144045 3.6316245 93 0 0 0 92.17495
8.3735952 -4.2514801 3.6375952 476 0 0 0 56.988701
10.045229 -4.4856386 3.9852214 58 0 0 0 56.207901
11.656887 -4.20048 3.5666256 58 0 0 0 55.038273
13.363132 -4.0789199 3.669894 39 0 0 0 54.261768
18.698809 -4.2191906 3.6044505 56 0 0 0 53.092579
-15.832366 -3.5628459 3.7428925 74 0 0 0 96.082283
10.002392 -3.8905525 3.6272886 61 0 0 0 55.43364
13.111475 -3.6514521 3.57758 34 0 0 0 53.868271
14.173757 -3.5715377 3.8401482 320 0 0 0 53.477402
19.824827 -3.9616668 3.8007605 47 0 0 0 52.69854
20.14394 -3.5113728 3.8452473 67 0 0 0 52.30492
-15.799559 -3.1503754 3.7170739 155 0 0 0 96.465805
-11.465076 -3.1800716 3.6302557 81 0 0 0 95.30294
8.9231091 -3.4713166 3.714437 114 0 0 0 55.43364
11.340915 -3.1602747 3.6870999 283 0 0 0 53.868271
13.323506 -3.0114999 3.9346812 59 0 0 0 53.092579
14.498156 -3.2747622 3.9055467 334 0 0 0 53.092579
16.279848 -3.2546051 3.9483154 50 0 0 0 52.69854
-15.923205 -2.7707117 3.7300787 137 0 0 0 96.857277
-11.772923 -2.6514499 3.6834762 71 0 0 0 96.082283
19.561049 -2.9153326 3.7220097 171 0 0 0 51.920181
24.029514 -2.974623 3.9466808 129 0 0 0 51.53067
59.760601 -2.9514766 3.7903178 18 0 0 0 50.356194
-10.502635 -2.0942142 3.5377998 28 0 0 0 96.465805
-10.303614 -2.0582595 3.7289064 25 0 0 0 96.465805
13.929382 -2.4315886 3.7202561 186 0 0 0 52.30492
31.881563 -2.3611619 3.6182039 26 0 0 0 50.745461
44.325016 -2.1840365 3.9285192 29 0 0 0 50.356194
-11.699416 -1.7412783 3.9061615 40 0 0 0 97.252304
-10.50726 -1.567624 3.7716942 78 0 0 0 97.252304
23.107224 -1.7106719 3.7814159 17 0 0 0 50.745461
10.816525 -1.2071079 3.9604201 92 0 0 0 51.33709
11.599166 -1.1518134 3.9496384 152 0 0 0 51.143513
12.48083 -1.2360502 3.9329791 140 0 0 0 51.143513
16.089388 -1.1919545 3.8441734 67 0 0 0 50.745461
10.567972 -0.78325993 3.8585322 116 0 0 0 50.745461
11.908499 -0.58742309 3.7431164 78 0 0 0 50.356194
12.735929 -0.78410959 3.8413858 106 0 0 0 50.550827
28.075512 -0.6895079 3.8793693 66 0 0 0 49.97179
9.415658 -0.34758711 3.6712673 118.5 0 0 0 50.163994
14.365175 -0.35385218 3.7859817 45 0 0 0 49.97179
32.996006 -0.0021559214 3.7378662 15 0 0 0 49.583641
14.219728 0.0010952394 3.7477884 40 0 0 0 49.583641
-22.515343 3.2855411 3.9928374 137 0 0 0 1.95254
-22.159418 3.7873497 3.9458206 83 0 0 0 2.3357301
-24.066031 4.1174026 3.6848221 196 0 0 0 2.3357301
22.787394 8.1940403 3.958461 230 0 0 0 44.113018
-16.531933 8.7318516 3.7490168 218 0 0 0 7.4103699
22.352932 8.6663275 3.919044 222 0 0 0 43.7244
-16.183134 9.0586929 3.7206619 239 0 0 0 7.7968998
-15.850131 9.3868198 3.6974273 201 0 0 0 8.1869602
17.766081 9.2752399 3.7798982 229 0 0 0 41.963676
21.918318 9.1260815 3.881145 192 0 0 0 43.328259
-15.500799 9.6978493 3.6718538 235 0 0 0 8.58078
17.265211 9.8447294 3.7473171 296 0 0 0 41.380798
21.525337 9.5922308 3.8520827 179 0 0 0 42.941639
-15.164514 10.009958 3.6508334 214 0 0 0 8.9682598
-14.827835 10.315414 3.6312053 264 0 0 0 9.3605003
16.92309 10.211494 3.7259955 290 0 0 0 40.986778
21.094301 10.03112 3.817826 212 0 0 0 42.558273
-14.501831 10.622676 3.6157386 259 0 0 0 9.7490797
-14.175834 10.925024 3.6018803 272 0 0 0 10.134
16.251865 10.935986 3.6910043 330 0 0 0 40.208118
16.59342 10.580093 3.7089889 339 0 0 0 40.601231
-13.840636 11.215345 3.5872352 268 0 0 0 10.53481
