# .PCD v0.7 - Point Cloud Data file format
VERSION 0.7
FIELDS x y z intensity normal_x normal_y normal_z curvature
SIZE 4 4 4 4 4 4 4 4
TYPE F F F F F F F F
COUNT 1 1 1 1 1 1 1 1
WIDTH 890
HEIGHT 1
VIEWPOINT 0 0 0 1 0 0 0
POINTS 890
DATA ascii
5.1012311 -41.533466 -0.7226128 25 0 0 0 72.644653
-5.1244135 -41.412991 -0.71724761 38 0 0 0 76.564285
-2.0458529 -41.272026 -0.71063071 20 0 0 0 75.39045
-1.0257062 -41.013142 -0.70554101 20 0 0 0 74.994354
-0.019304376 -41.274105 -0.71033126 39 0 0 0 74.599586
0.9983989 -41.473221 -0.7144922 30 0 0 0 74.212837
1.9941174 -41.004978 -0.70703006 22 0 0 0 73.820007
4.0604396 -41.44009 -0.71842414 17 0 0 0 73.038834
3.0011077 -40.96677 -0.7078321 27 0 0 0 73.430687
-19.610849 -38.937012 -0.73384476 42 0 0 0 82.029343
8.681756 -38.767712 -0.68615413 10 0 0 0 71.088669
30.042608 -38.535267 -0.86127669 16 0 0 0 64.040886
-21.578133 -38.0714 -0.7343744 18 0 0 0 82.816078
-15.870367 -38.282841 -0.69935763 59 0 0 0 80.852226
9.5468416 -38.210354 -0.68045461 16 0 0 0 70.688965
-34.153934 -37.675579 -0.84892946 10 0 0 0 86.339722
-26.470678 -37.572376 -0.76857281 19 0 0 0 84.368767
6.4175186 -37.12167 -0.64779586 20 0 0 0 71.859055
5.4150758 -36.663658 -0.63626933 13 0 0 0 72.256279
-22.976469 -36.26717 -0.7175833 9 0 0 0 83.589249
-5.9378562 -34.117626 -0.58846182 35 0 0 0 77.335281
-26.286926 -32.019375 -0.68642527 32 0 0 0 85.548897
-13.756378 -31.000502 -0.56467873 35 0 0 0 81.246941
-14.475998 -30.57633 -0.56217802 18 0 0 0 81.643288
-36.479561 -27.051212 -0.74983108 23 0 0 0 89.471046
44.247051 -26.546412 -0.91959518 17 0 0 0 58.177391
44.075329 -24.993383 -0.90319872 14 0 0 0 57.785542
-38.328274 -24.268368 -0.74826914 19 0 0 0 90.645325
-40.034481 -23.993422 -0.77076608 20 0 0 0 91.038246
44.101368 -23.597088 -0.8920033 12 0 0 0 57.397701
44.795013 -21.209377 -0.88535464 15 0 0 0 56.608009
-0.50485933 -9.6516466 -0.61072057 202 0 0 0 75.39045
-6.4400434 -9.1157265 -0.70400947 85 0 0 0 84.368767
-1.1799713 -9.3303003 -0.59296513 126 0 0 0 76.564285
-0.26115459 -9.3650818 -0.59098196 172 0 0 0 74.994354
-10.675425 -8.7482204 -0.87700242 174 0 0 0 88.68
-10.046941 -8.6527596 -0.8411361 73 0 0 0 88.28936
-9.4460878 -8.5466442 -0.80672753 196 0 0 0 87.89296
-7.5732327 -8.7582245 -0.73075193 52 0 0 0 85.946358
-7.0393305 -8.5546274 -0.69778037 278 0 0 0 85.548897
-6.8817496 -8.793602 -0.70384496 192 0 0 0 85.160561
-5.7136984 -8.5205784 -0.64427811 280 0 0 0 83.984688
-5.3014593 -8.5664549 -0.75532579 408.5 0 0 0 83.399506
-4.7421722 -8.5751038 -0.85666406 378.5 0 0 0 82.618217
-4.2307644 -8.6183338 -0.83912754 524.5 0 0 0 81.836319
-3.7272897 -8.6370802 -0.70671976 402.5 0 0 0 81.049583
-3.1159356 -8.6386547 -0.57547206 20 0 0 0 80.075829
-1.093641 -8.6281643 -0.76045513 65 0 0 0 76.564285
0.29433486 -8.8722668 -0.66798747 290.5 0 0 0 74.016418
1.6592362 -8.5230207 -0.76117021 37 0 0 0 71.47261
2.2300007 -8.6011982 -0.67062813 279 0 0 0 70.494522
3.8231137 -8.7157631 -0.72207808 343 0 0 0 67.956848
4.1078296 -8.5894442 -0.76221943 412.66666 0 0 0 67.431282
4.6110144 -8.7050533 -0.7472347 442.5 0 0 0 66.779129
5.8267345 -8.5551987 -0.66161644 282 0 0 0 65.015038
6.2802777 -8.5290747 -0.67797577 53 0 0 0 64.431152
6.7936058 -8.5435925 -0.70002997 331 0 0 0 63.846825
7.6281786 -8.6804237 -0.74346828 270 0 0 0 63.057373
8.7458601 -8.7949018 -0.80092329 327 0 0 0 62.08831
9.2392721 -8.6996431 -0.71636987 263.33334 0 0 0 61.557812
16.245199 -8.7146788 -0.75833642 94 0 0 0 57.397701
17.7162 -8.9479513 -0.81946909 93 0 0 0 57.003498
-11.546887 -8.1220942 -0.5523212 304 0 0 0 89.864258
-11.337746 -8.3975086 -0.89716405 101 0 0 0 89.471046
-10.507248 -8.1880398 -0.84500891 341 0 0 0 89.076721
-3.3826609 -8.3971138 -0.67830598 405.5 0 0 0 80.658638
-0.85809541 -8.4086704 -0.6330623 295.5 0 0 0 76.161697
0.89447582 -8.3803082 -0.73712021 279.5 0 0 0 72.841743
1.3098953 -8.3542786 -0.74010134 390.5 0 0 0 72.057663
1.8514541 -8.4078693 -0.75460541 318 0 0 0 71.088669
2.0891345 -8.4883852 -0.7669906 331 0 0 0 70.688965
2.6109495 -8.363656 -0.7694754 190 0 0 0 69.713364
5.3294706 -8.4849319 -0.63909614 368 0 0 0 65.60675
7.9445691 -8.3952637 -0.74383593 218 0 0 0 62.475872
17.599279 -8.3528919 -0.80409509 73 0 0 0 56.608009
18.727169 -8.3291454 -0.84819829 55 0 0 0 56.219913
-11.844453 -7.9047866 -0.55738217 210 0 0 0 90.25676
-3.1405375 -7.530252 -0.90881175 423 0 0 0 80.852226
-2.7248793 -7.5489273 -0.89410162 381.33334 0 0 0 80.075981
-1.7242855 -7.5624757 -0.86436772 316.66666 0 0 0 78.12207
-1.2427099 -7.5575428 -0.85368836 269.5 0 0 0 77.141174
-0.77495295 -7.5828571 -0.84988838 316 0 0 0 76.166389
0.25044131 -7.6244411 -0.85130566 389 0 0 0 74.016418
0.72093123 -7.6377454 -0.85689193 438.33334 0 0 0 73.038063
1.2953857 -7.6533012 -0.86803883 419.66666 0 0 0 71.862648
1.776041 -7.6227813 -0.87603635 240 0 0 0 70.888817
2.0553792 -7.553781 -0.87649602 234 0 0 0 70.300079
4.4242482 -7.8853316 -0.79712319 143 0 0 0 66.38298
4.7618108 -7.7978115 -0.80614901 367.5 0 0 0 65.799057
5.293921 -7.7797747 -0.83161497 530.5 0 0 0 65.015038
5.7474532 -7.8111038 -0.85827351 513 0 0 0 64.431152
6.2569389 -7.6807275 -0.87804109 297 0 0 0 63.649303
8.8127079 -7.645874 -0.75193477 219 0 0 0 60.906239
-19.977901 -7.14257 -0.8489483 54 0 0 0 94.166573
-11.73119 -7.2186632 -0.87487566 137 0 0 0 90.841782
-11.023301 -7.3560557 -0.8402701 247 0 0 0 90.25676
-10.480961 -7.371356 -0.81123906 204 0 0 0 89.864258
-6.4723878 -7.4819179 -0.86313224 57 0 0 0 85.946358
-4.0125852 -7.0498557 -0.90201861 254 0 0 0 82.816078
-3.6797607 -7.2716413 -0.90711021 303.33334 0 0 0 82.030998
-3.3436441 -7.4960289 -0.91422498 271 0 0 0 81.246941
2.3229976 -7.4459162 -0.87360919 186.5 0 0 0 69.713364
3.1896079 -7.0467777 -0.86740768 278.5 0 0 0 67.75766
6.6127553 -7.1710935 -0.86437726 209.5 0 0 0 62.668182
8.8282013 -7.2874761 -0.73734331 150 0 0 0 60.522438
-4.2411032 -6.8537979 -0.89571589 242.5 0 0 0 83.399506
-1.3206465 -6.5023437 -0.89821571 44 0 0 0 77.728752
-0.75182402 -6.517117 -0.88848746 168.5 0 0 0 76.362991
3.4510775 -6.9333196 -0.86886585 235 0 0 0 67.17688
3.7637517 -6.7152386 -0.86390907 205.66667 0 0 0 66.384491
6.8654652 -6.7475271 -0.85294032 197.5 0 0 0 61.88858
18.933535 -6.7986665 -0.83320612 50 0 0 0 55.056873
-12.450889 -6.2606945 -0.88554525 112 0 0 0 92.186073
-11.138108 -6.3022013 -0.81006414 122 0 0 0 91.427299
-2.5250325 -6.0395107 -0.88339096 286 0 0 0 80.852226
-2.3072057 -6.1428261 -0.88606238 263 0 0 0 80.270439
-1.610765 -6.3255148 -0.88238901 165 0 0 0 78.512718
-1.2962495 -6.3795061 -0.88079923 135 0 0 0 77.730011
-0.74958932 -6.483026 -0.88422132 146 0 0 0 76.36013
0.28313738 -6.4242301 -0.87127358 161.33333 0 0 0 73.821175
0.75354576 -6.3867211 -0.87193608 151.66667 0 0 0 72.646591
1.2142825 -6.283432 -0.86815602 158 0 0 0 71.473442
1.7398446 -6.1286912 -0.8650828 150 0 0 0 70.103943
4.2132673 -6.3686008 -0.8571828 242.33333 0 0 0 65.212273
4.5763717 -6.0713062 -0.85364056 230 0 0 0 64.236023
7.2269998 -6.2791486 -0.84874964 212 0 0 0 60.908142
19.009628 -6.3028121 -0.82977861 32 0 0 0 54.658752
-11.852254 -5.7204375 -0.6183154 96.333336 0 0 0 92.453011
-10.545307 -5.6298075 -0.75417876 158 0 0 0 91.802872
-8.3385363 -5.7114887 -0.88153648 231 0 0 0 90.060509
-3.5131896 -5.5164638 -0.88102555 288 0 0 0 83.589249
-3.2354171 -5.6738548 -0.88038176 242.33333 0 0 0 82.815399
-2.8139775 -5.9020767 -0.88203382 253 0 0 0 81.639854
-1.7692474 -5.8511243 -0.76297271 182.8 0 0 0 79.212128
-0.21835007 -5.9578972 -0.69926411 193.42857 0 0 0 75.105995
2.7155879 -5.6489878 -0.85238022 192.25 0 0 0 67.367836
4.8229723 -5.7845073 -0.84567177 280 0 0 0 63.453514
5.0226121 -5.5909333 -0.84406948 292 0 0 0 62.860489
7.4316368 -5.8406382 -0.83780563 216 0 0 0 60.121689
-8.5692291 -5.2721739 -0.87733066 172 0 0 0 90.841782
-4.4099832 -5.092793 -0.90774691 220 0 0 0 85.946358
-3.8782053 -5.3396926 -0.88900506 332.5 0 0 0 84.565544
-1.7826582 -5.1053185 -0.85354286 131.5 0 0 0 79.879173
-1.2945274 -5.3264127 -0.86680216 95 0 0 0 78.316071
-0.76483744 -5.4027462 -0.86371303 82.5 0 0 0 76.752083
-0.23151554 -5.3870368 -0.85366786 68.75 0 0 0 75.189392
0.29775053 -5.4196978 -0.86033964 78.75 0 0 0 73.625587
0.74869847 -5.2988715 -0.84828073 84.333336 0 0 0 72.253326
1.2034211 -5.2306657 -0.85189247 137.75 0 0 0 70.887581
1.5932178 -5.1554599 -0.85716504 130 0 0 0 69.713364
3.24034 -5.3283176 -0.84872776 261.75 0 0 0 65.798447
3.5467346 -5.0987673 -0.84532124 295 0 0 0 64.817398
5.2383161 -5.2854333 -0.83600062 275 0 0 0 62.084347
7.7007575 -5.4613276 -0.83723503 275 0 0 0 59.351761
11.313627 -5.3792377 -0.81282806 213 0 0 0 56.608009
11.700664 -5.2135477 -0.83220905 308 0 0 0 56.219913
-13.230167 -4.7293086 -0.89341468 85 0 0 0 94.166573
-8.8117666 -4.8433199 -0.87678981 218 0 0 0 91.615082
-6.3733439 -4.7199974 -0.87878156 257.33334 0 0 0 89.470673
-4.8322673 -4.5866194 -0.89678204 239 0 0 0 87.512253
-2.7479157 -4.6754327 -0.85441852 200.25 0 0 0 83.008858
-2.2697632 -4.8996487 -0.85134435 201.5 0 0 0 81.442955
-1.1650759 -4.5389495 -0.85255688 57.666668 0 0 0 78.511841
-0.76873267 -4.5961194 -0.84865993 37.5 0 0 0 77.143845
-0.26170295 -4.6794367 -0.85480469 40.200001 0 0 0 75.38385
0.25184572 -4.6564512 -0.85100871 44 0 0 0 73.625587
0.70333099 -4.5937128 -0.84887409 38 0 0 0 72.058151
1.0025293 -4.6310277 -0.86655122 93 0 0 0 71.088669
2.369015 -4.7932315 -0.85095876 157.66667 0 0 0 67.171494
2.6982968 -4.5766139 -0.84601212 166.66667 0 0 0 65.993698
3.7726743 -4.8926187 -0.84127975 289.66666 0 0 0 64.041603
4.0689058 -4.6543837 -0.84227288 288.5 0 0 0 63.057373
5.4313107 -4.965044 -0.82658976 298 0 0 0 61.295738
5.6669326 -4.6902256 -0.82691449 279 0 0 0 60.516788
6.0558228 -4.5304232 -0.66388744 88 0 0 0 59.734322
8.1866627 -4.8042088 -0.84293664 154.5 0 0 0 57.981468
11.188505 -4.6599565 -0.78593421 376 0 0 0 55.822487
15.982183 -4.8690162 -0.68700117 270 0 0 0 54.270802
16.675894 -4.6345596 -0.71331745 44 0 0 0 53.883232
-8.8170509 -4.2959871 -0.85435104 394.5 0 0 0 92.386276
-6.6723042 -4.2202916 -0.87460238 235.33333 0 0 0 90.646782
-5.2777195 -4.108839 -0.90028977 241 0 0 0 89.076721
-3.5009186 -4.4629216 -0.75820088 185 0 0 0 85.160561
-3.328366 -4.3463717 -0.86182523 310.5 0 0 0 84.961441
-2.8582077 -4.191535 -0.70423877 200 0 0 0 84.080711
-2.2302959 -4.1308279 -0.85229987 108.8 0 0 0 82.423759
-1.7606071 -4.3407907 -0.85104078 87.5 0 0 0 80.660011
-1.2637818 -4.2405357 -0.85331786 42.25 0 0 0 79.096642
-0.73947197 -4.0862713 -0.85337287 23.200001 0 0 0 77.340027
-0.23516297 -4.1237583 -0.84962922 20.6 0 0 0 75.38385
0.26705891 -4.0980453 -0.84559929 18.6 0 0 0 73.429398
0.76779795 -4.044858 -0.84924603 48.75 0 0 0 71.473236
1.2319359 -4.0723624 -0.75790787 100.16666 0 0 0 69.779488
1.8475171 -4.1664348 -0.7970348 105.66666 0 0 0 67.824059
2.174598 -4.1503711 -0.85987687 123.66666 0 0 0 66.779663
2.9327211 -4.4583383 -0.85019809 161 0 0 0 65.212677
3.152663 -4.2072139 -0.83800757 154.5 0 0 0 64.23555
4.3425083 -4.2859192 -0.83177733 225 0 0 0 61.887196
5.8569288 -4.2694998 -0.81475067 649.5 0 0 0 59.543041
6.4363756 -4.2233462 -0.6769743 641 0 0 0 58.762016
8.4547129 -4.2851143 -0.84229875 196 0 0 0 57.003498
8.550437 -4.0720396 -0.84183276 201 0 0 0 56.608009
11.366865 -4.4088778 -0.79109895 386 0 0 0 55.438118
12.125779 -4.3616796 -0.83836758 255 0 0 0 55.056873
16.316925 -4.105485 -0.69289446 72 0 0 0 53.48893
19.326653 -4.3577104 -0.82233524 36 0 0 0 53.10231
-8.3506184 -3.6966853 -0.67991054 572.5 0 0 0 92.973808
-7.0586805 -3.5503418 -0.87523949 183 0 0 0 92.186073
-6.9168067 -3.8037467 -0.87438369 182.5 0 0 0 91.615082
-5.5501838 -3.507865 -0.88302547 300 0 0 0 90.645325
-5.4240632 -3.8126934 -0.8922264 233.66667 0 0 0 89.864014
-3.6941116 -3.7106812 -0.77208865 343.79999 0 0 0 87.045555
-3.3046422 -3.7283914 -0.83222091 260.28571 0 0 0 86.114357
-2.6655395 -3.8560166 -0.85009682 132.25 0 0 0 84.176254
-2.1148171 -3.5887754 -0.85248375 64 0 0 0 83.012917
-1.7542444 -3.7753866 -0.85336208 51 0 0 0 81.442871
-1.3281821 -3.9379132 -0.85217351 28 0 0 0 79.683876
0.75476837 -3.9840837 -0.83519185 34 0 0 0 71.47261
1.3452026 -3.9352901 -0.75558591 78.333336 0 0 0 69.213776
1.7070434 -3.8828881 -0.79917729 61.25 0 0 0 67.855225
2.3462183 -3.8783846 -0.83121961 82 0 0 0 65.799057
2.7340515 -3.6540191 -0.83885312 84.333336 0 0 0 64.234856
3.4248834 -3.9291563 -0.8310023 120.5 0 0 0 63.057373
3.6316881 -3.6822631 -0.825041 163 0 0 0 62.084339
4.6760154 -3.782759 -0.82044202 247.25 0 0 0 60.321175
5.9361019 -3.9995704 -0.80451673 581 0 0 0 58.958778
6.155252 -3.7187614 -0.80912322 563.33331 0 0 0 58.176067
7.3904252 -3.9808168 -0.74197417 238 0 0 0 57.397701
8.6406317 -3.7303569 -0.83686674 270 0 0 0 56.021202
12.168782 -3.8744888 -0.83110869 142 0 0 0 54.464775
19.426199 -3.8805974 -0.82273275 27 0 0 0 52.705872
-9.2774696 -3.3156798 -0.85861486 538 0 0 0 94.166573
-8.5999794 -3.3133037 -0.68682045 391 0 0 0 93.765114
-8.3734055 -3.463932 -0.67415929 585 0 0 0 93.366554
-7.2097583 -3.1942513 -0.8737337 186.33333 0 0 0 92.975616
-5.6591172 -3.2006195 -0.87422723 225 0 0 0 91.422813
-4.5568261 -3.034909 -0.86105752 215 0 0 0 90.25676
-4.2619457 -3.3130045 -0.7833848 210 0 0 0 89.07534
-3.5091774 -3.1151485 -0.69454175 80.666664 0 0 0 88.025085
-3.4400921 -3.2624969 -0.85926074 199 0 0 0 87.511658
-2.7141974 -3.2837293 -0.76283741 57.166668 0 0 0 85.550415
-2.3384964 -3.3791018 -0.84027165 49.5 0 0 0 84.176254
2.2389262 -3.2471516 -0.81746674 33.142857 0 0 0 64.821854
2.5685723 -3.0344105 -0.82437468 52 0 0 0 63.254261
3.1309378 -3.2607548 -0.83154392 102 0 0 0 62.278378
3.852896 -3.3696182 -0.8169744 146.33333 0 0 0 60.908142
4.0397463 -3.1150818 -0.81468415 161.5 0 0 0 59.928005
4.9362373 -3.4223065 -0.81981534 263.5 0 0 0 59.15527
5.0908022 -3.169385 -0.81895316 272.5 0 0 0 58.371323
6.4782858 -3.3885012 -0.82365263 290.5 0 0 0 57.2006
6.610055 -3.1512079 -0.82537097 283 0 0 0 56.608009
8.7468719 -3.2746024 -0.83080709 211 0 0 0 55.247498
12.42902 -3.2941718 -0.83769906 93 0 0 0 53.686081
19.541574 -3.4059844 -0.82434779 44 0 0 0 52.314301
-21.809641 -2.6854639 -0.88251585 20 0 0 0 97.666885
-7.3295317 -2.7241554 -0.86614138 146 0 0 0 93.965843
-6.0401697 -2.5861197 -0.88406122 211.5 0 0 0 93.170181
-5.8555079 -2.8536468 -0.87596142 260.5 0 0 0 92.386276
-4.7286744 -2.7481451 -0.86053169 144.75 0 0 0 91.228439
-3.7160926 -2.7442787 -0.8364445 91 0 0 0 89.469749
-3.2346516 -2.7764943 -0.78240597 60 0 0 0 88.288208
-2.8324661 -2.8845072 -0.82531399 44.75 0 0 0 86.927444
2.788316 -2.7700803 -0.81646842 34.5 0 0 0 61.885914
3.268662 -2.8311284 -0.81961507 52.25 0 0 0 60.81171
3.5908718 -2.6342721 -0.82076395 65.5 0 0 0 59.541637
4.2541418 -2.7300792 -0.80838096 129 0 0 0 58.567749
5.2954645 -2.7758617 -0.81748378 235.75 0 0 0 57.198685
6.7040043 -2.7990685 -0.81930619 200 0 0 0 55.826843
8.896883 -2.838711 -0.83129013 200.5 0 0 0 54.464775
9.0018282 -2.5094554 -0.83223706 206 0 0 0 53.883232
12.560741 -2.6751661 -0.83732307 116.5 0 0 0 52.904091
19.466522 -2.9014301 -0.81814575 45 0 0 0 51.929119
-21.796877 -2.1423192 -0.87977827 25 0 0 0 98.050392
-6.1076918 -2.2680533 -0.876459 163.5 0 0 0 93.965843
-5.0821095 -2.1733699 -0.87013233 141 0 0 0 93.170181
-4.9269314 -2.3985479 -0.86214721 113 0 0 0 92.386276
-4.1321139 -2.2021244 -0.84859312 72.400002 0 0 0 91.808189
-3.6556351 -2.187947 -0.83460206 39 0 0 0 91.036957
-3.3398774 -2.3416958 -0.83320826 40.200001 0 0 0 89.862823
3.2574866 -2.2727909 -0.82765436 37.166668 0 0 0 59.151531
3.7896361 -2.2414961 -0.81228054 64.25 0 0 0 57.981472
4.4516916 -2.340579 -0.80471504 149 0 0 0 57.2006
4.5878544 -2.1292615 -0.80998957 138 0 0 0 56.413963
5.473958 -2.3708477 -0.8161124 215.5 0 0 0 56.021202
5.5775185 -2.0945354 -0.81558752 204.5 0 0 0 55.247498
6.9213085 -2.3997378 -0.82697093 220.5 0 0 0 54.857811
7.0008001 -2.1403089 -0.8267417 230 0 0 0 54.270802
9.0245037 -2.1595831 -0.82665527 183.5 0 0 0 53.29562
12.516182 -2.185281 -0.82850039 119 0 0 0 52.314301
19.37958 -2.4027262 -0.81198663 35 0 0 0 51.531261
-21.801514 -1.6036675 -0.87835652 16 0 0 0 98.440926
-12.937233 -1.5930274 -0.82746351 131 0 0 0 97.666885
-5.1852508 -1.9232396 -0.87082851 161.5 0 0 0 93.965843
-4.4012151 -1.7568264 -0.85950851 63.25 0 0 0 93.568016
-3.727531 -1.7569145 -0.84259474 32.400002 0 0 0 92.583153
3.4437075 -1.8717051 -0.81717825 40.333332 0 0 0 57.39558
3.8572884 -1.8045801 -0.8050254 57.400002 0 0 0 56.452381
4.0519629 -1.5860751 -0.80402184 51 0 0 0 55.438118
4.6644511 -1.7578421 -0.79892206 106.25 0 0 0 55.244057
5.6646743 -1.7368206 -0.81169313 169.66667 0 0 0 54.270924
7.0256252 -1.7742807 -0.81872755 204.33333 0 0 0 53.491489
9.0097656 -1.6911625 -0.81685364 191.5 0 0 0 52.510086
12.362314 -1.6912205 -0.81362474 119.5 0 0 0 51.73019
19.281034 -1.910107 -0.80586946 44 0 0 0 51.150539
-21.663126 -1.0597104 -0.87151164 34 0 0 0 98.835449
-13.024549 -1.2802157 -0.83113641 109 0 0 0 98.050392
-9.7463493 -1.2001386 -0.85686374 154 0 0 0 97.666885
-5.3205338 -1.261198 -0.86110961 90.5 0 0 0 95.907669
-4.540009 -1.0765316 -0.84607768 38.5 0 0 0 95.907669
-3.8999047 -1.4455942 -0.85071445 34 0 0 0 93.965843
4.102951 -1.264289 -0.7942788 34.599998 0 0 0 54.271717
4.7597089 -1.2716223 -0.79035443 54.25 0 0 0 53.686317
5.6972032 -1.2196022 -0.79873687 111.75 0 0 0 52.902851
6.9966035 -1.2236596 -0.80254185 149 0 0 0 52.314301
7.0173836 -1.2277958 -0.8052789 153.5 0 0 0 52.317497
8.9603786 -1.2277796 -0.8060416 203.5 0 0 0 51.73019
12.274883 -1.2181572 -0.80442792 106 0 0 0 51.150539
19.117289 -1.4198498 -0.79745692 43 0 0 0 50.75433
-21.647112 -0.52679485 -0.87037045 20 0 0 0 99.231445
-13.062559 -0.80002707 -0.83150589 104.5 0 0 0 98.638184
-9.773469 -0.8398509 -0.85623729 146.5 0 0 0 98.245659
-7.6876054 -0.75890797 -0.85665458 188 0 0 0 98.052734
-6.4077625 -0.71057153 -0.86813426 138.5 0 0 0 97.858643
-5.3135004 -0.65361339 -0.84301168 98.333336 0 0 0 97.663612
-4.5836496 -0.62141228 -0.83900392 33.5 0 0 0 97.470215
-4.041234 -0.75115454 -0.84172618 28 0 0 0 96.686432
-3.9940951 -0.99804139 -0.84214431 31 0 0 0 95.716034
4.1360416 -0.73055547 -0.77775604 18.4 0 0 0 52.316578
4.8058114 -0.78535116 -0.78188831 59 0 0 0 52.12014
5.6817098 -0.7090354 -0.78518152 136.33333 0 0 0 51.536972
6.955411 -0.60363984 -0.78928173 206.5 0 0 0 50.952435
7.0135579 -0.87177855 -0.79892403 162 0 0 0 51.531261
8.9188986 -0.77613997 -0.7981348 185 0 0 0 50.952435
12.118408 -0.75192642 -0.79187834 124 0 0 0 50.556923
18.895357 -0.93648756 -0.78704745 41 0 0 0 50.35952
-13.003038 -0.31661603 -0.82646251 97 0 0 0 99.231445
-9.7082825 -0.35626662 -0.84798527 143 0 0 0 99.033447
-7.6449051 -0.18927485 -0.84816235 171.33333 0 0 0 99.224876
-6.3839931 -0.23548625 -0.86064035 127.75 0 0 0 99.028893
-5.2953358 -0.25893056 -0.83494067 86.333336 0 0 0 98.835938
-4.5558481 -0.27986667 -0.82813329 39 0 0 0 98.639549
-4.0374174 -0.29718986 -0.82906181 17.200001 0 0 0 98.445023
4.1595516 -0.20828886 -0.77220047 29 0 0 0 50.363598
4.8278055 -0.24256536 -0.77721077 78.599998 0 0 0 50.363598
5.6429138 -0.21083878 -0.77493083 155.5 0 0 0 50.166859
6.8693113 -0.25486287 -0.77716172 203 0 0 0 50.164322
8.8388138 -0.22135061 -0.78865147 182.66667 0 0 0 49.971039
11.965504 -0.15113699 -0.78065813 119.5 0 0 0 49.776794
18.683006 -0.23602872 -0.77768511 46.5 0 0 0 49.776794
-20.997585 0.004566004 -0.84322 23 0 0 0 99.607742
-12.937042 0.16157065 -0.82218087 84.5 0 0 0 49.803871
-9.5793495 0.11970399 -0.83598918 156.5 0 0 0 49.803871
-7.6406832 0.18634801 -0.8476609 176 0 0 0 0
-6.3595591 0.15614584 -0.85677576 149 0 0 0 0
-5.2692766 0.067009687 -0.82989597 70 0 0 0 49.803871
-4.5506363 0.056344554 -0.82573754 40.5 0 0 0 49.803871
-4.0138712 0.050422959 -0.82179523 14.5 0 0 0 49.803871
4.1354823 0.2566146 -0.76887476 22.25 0 0 0 48.607964
4.7702231 0.29522237 -0.76890796 73.75 0 0 0 48.607964
5.5535278 0.27542987 -0.76325256 144.66667 0 0 0 48.802288
6.8164401 0.16946565 -0.77134734 209.33333 0 0 0 49.192112
8.7581463 0.32264143 -0.78204662 209.5 0 0 0 48.995934
11.945574 0.29159048 -0.77992594 160 0 0 0 49.192207
18.571737 0.45207477 -0.77369839 46 0 0 0 49.192207
-5.2703099 0.89610821 -0.81546831 29 0 0 0 2.3371899
-4.5650177 0.77226526 -0.81135875 67 0 0 0 2.3371899
-4.3353257 0.84355086 -0.80375862 45 0 0 0 2.7324066
-3.9801114 0.86768228 -0.80346233 18 0 0 0 3.1228399
3.9921098 0.91168779 -0.76022649 26 0 0 0 46.076382
4.0515528 0.66209984 -0.76223898 24.25 0 0 0 47.047661
4.6545773 0.75803769 -0.75904584 58 0 0 0 47.047661
5.4542265 0.74944103 -0.75626886 124.75 0 0 0 47.437859
6.7594056 0.67275101 -0.76900965 186.66667 0 0 0 48.025803
8.684042 0.7510193 -0.77816164 213.5 0 0 0 48.219994
11.884216 0.73051208 -0.7776044 131.5 0 0 0 48.607327
18.40583 0.90190792 -0.76769817 51 0 0 0 48.79966
-7.5530605 1.4788736 -0.83055222 217 0 0 0 2.73276
-6.133852 1.3506203 -0.82113695 133 0 0 0 3.1228402
-5.1236296 1.1897295 -0.80241138 74 0 0 0 3.3183975
-4.9900513 1.4786904 -0.7937848 95 0 0 0 4.29037
-4.3488927 1.2815123 -0.79525316 52.799999 0 0 0 4.2910438
-3.9028809 1.0974436 -0.80007476 19.5 0 0 0 4.0977201
3.8576248 1.2443534 -0.7531836 30.833334 0 0 0 44.703094
4.411746 1.4193387 -0.74579972 76 0 0 0 44.705769
4.5553594 1.1567074 -0.75664216 80.666664 0 0 0 45.681057
5.3228893 1.2805889 -0.75243568 154.5 0 0 0 45.876839
6.6140699 1.2445602 -0.76244503 203.75 0 0 0 46.657402
8.5804224 1.2801037 -0.7750771 219.33333 0 0 0 47.242146
11.755624 1.3072376 -0.77292728 88.5 0 0 0 47.831207
18.133518 1.3368901 -0.75752139 47 0 0 0 48.414993
-9.4033575 1.8510449 -0.81374997 195 0 0 0 2.73276
-7.4213824 1.828023 -0.82515621 202.33333 0 0 0 3.5136101
-5.9024625 1.7533226 -0.80477667 179.33333 0 0 0 4.2911334
-4.8446913 1.7564774 -0.78652 86.25 0 0 0 5.2647748
-4.1726508 1.6780883 -0.78949565 23 0 0 0 5.8487267
3.6309361 1.7530836 -0.74882293 48.400002 0 0 0 42.560387
4.3095274 1.7523667 -0.74905539 106.25 0 0 0 43.534279
5.1493855 1.7965428 -0.749735 184.75 0 0 0 44.312943
6.4342499 1.801066 -0.75702649 235 0 0 0 45.288116
8.4457445 1.8002601 -0.7717402 207.5 0 0 0 46.27029
11.62356 1.7306669 -0.76816475 56 0 0 0 47.239353
17.915751 1.7654276 -0.75016272 51 0 0 0 48.02499
-12.566141 2.4826126 -0.79012483 119 0 0 0 2.73276
-9.1994524 2.2778032 -0.80488342 165.66667 0 0 0 3.5136099
-7.1404228 2.2230573 -0.80686855 219.5 0 0 0 4.4841652
-6.9515533 2.4434698 -0.7946319 238 0 0 0 5.0733299
-5.704916 2.0754328 -0.79334724 171 0 0 0 5.2655296
-4.5043068 2.4834781 -0.66603696 59 0 0 0 7.7923999
-4.3825388 2.415169 -0.76433277 94.666664 0 0 0 7.7952666
-3.7840793 2.256427 -0.77544713 61.666668 0 0 0 8.3827009
3.3422916 2.2246163 -0.74520117 30.666666 0 0 0 40.406261
3.9652233 2.3553553 -0.74180794 86 0 0 0 41.191727
4.1377926 2.1198046 -0.74830675 118.33334 0 0 0 42.168354
4.8930373 2.3499634 -0.74594814 218.66667 0 0 0 42.559742
5.0436201 2.1202822 -0.75196964 259 0 0 0 43.345459
6.2363586 2.258642 -0.75149441 233 0 0 0 44.118069
8.245676 2.2990086 -0.7651999 201 0 0 0 45.288116
11.431151 2.1373382 -0.7602362 86.5 0 0 0 46.656937
17.738598 2.1903398 -0.7450155 44 0 0 0 47.637421
-12.453264 2.7761319 -0.78716332 119 0 0 0 3.12727
-8.8256769 2.7598178 -0.78477818 194 0 0 0 4.4841652
-7.7149229 2.71997 -0.68914068 237 0 0 0 5.0733299
-6.9258337 2.6257663 -0.70872426 112.5 0 0 0 5.4577298
-4.5823364 2.8247178 -0.5696153 114.66666 0 0 0 8.5788527
-4.1876626 2.6765521 -0.69240743 189.14285 0 0 0 8.85847
-3.85974 2.8338912 -0.70631516 203.60001 0 0 0 9.9052181
-3.2751682 2.7913599 -0.75931305 108.33334 0 0 0 11.10904
2.7780139 2.790843 -0.72856349 34.166668 0 0 0 37.278118
3.2230511 2.668519 -0.73756903 50.333332 0 0 0 38.777889
3.7367923 2.6861062 -0.74008518 80 0 0 0 39.819775
4.6528807 2.7570944 -0.74305248 183.5 0 0 0 41.190395
5.8988729 2.917654 -0.74532902 251.5 0 0 0 42.363907
6.0605965 2.6312819 -0.74843961 248 0 0 0 43.148438
7.97262 2.8768578 -0.75747389 256 0 0 0 44.113873
8.0763302 2.6899943 -0.76081592 200 0 0 0 44.513969
11.23853 2.6820974 -0.75554419 78.5 0 0 0 45.878136
17.554447 2.6080909 -0.73999804 61 0 0 0 47.239353
-12.296738 3.0564063 -0.78172892 146 0 0 0 3.5084901
-11.423316 3.133563 -0.7282154 93 0 0 0 3.9050701
-10.032641 3.0113835 -0.6391446 156 0 0 0 4.29037
-9.8491697 3.2182758 -0.63203198 162 0 0 0 4.6779599
-9.4718151 3.3500009 -0.61176169 157 0 0 0 5.0733299
-4.2429199 3.2170787 -0.56441289 171.39999 0 0 0 10.138568
-3.6999807 3.1770546 -0.66849887 255 0 0 0 11.131908
-3.3522394 3.3995924 -0.67542171 336.16666 0 0 0 12.469586
-2.7690132 3.1534872 -0.74213058 134.16667 0 0 0 13.449787
-2.3926651 3.4120944 -0.73841363 133 0 0 0 15.21098
1.8503202 3.4256833 -0.71397674 29 0 0 0 32.771679
2.1995101 3.2143879 -0.71715373 41.400002 0 0 0 34.415077
2.7915471 3.2774074 -0.72074288 95 0 0 0 36.037098
3.2261467 3.1485326 -0.72307855 93.199997 0 0 0 37.474712
4.3023987 3.2508769 -0.74036413 161.39999 0 0 0 39.42849
5.7079792 3.2789848 -0.74549741 234.33333 0 0 0 41.386898
7.7822013 3.2519042 -0.75385839 242.33333 0 0 0 43.34108
10.978214 3.3487856 -0.75067675 152 0 0 0 44.897568
11.077797 3.0820763 -0.75195926 139 0 0 0 45.286888
17.280525 3.2235332 -0.73322833 48 0 0 0 46.656937
32.986847 3.2501867 -0.59711319 9 0 0 0 48.02499
-13.905503 3.8225286 -0.54621297 73 0 0 0 3.9050701
-12.927589 3.8918717 -0.50904757 76 0 0 0 4.29037
-3.7003133 3.6710908 -0.5531863 402.75 0 0 0 12.274508
-3.2198026 3.6899612 -0.63240379 372.5 0 0 0 13.4453
-2.803082 3.8200078 -0.67256057 273.70001 0 0 0 14.821566
-2.2480483 3.725528 -0.72861153 113.4 0 0 0 16.30068
-1.746859 3.6937988 -0.72719765 50.799999 0 0 0 17.939444
-1.2732465 3.8434696 -0.7233156 46.400002 0 0 0 19.896114
-0.7829113 3.9072652 -0.71436846 23.4 0 0 0 21.844006
-0.34435594 3.9334977 -0.71012527 32.75 0 0 0 23.598263
1.7877711 3.7322659 -0.70410937 38 0 0 0 31.99795
2.2618885 3.8130238 -0.70619702 71.5 0 0 0 33.359722
2.6914675 3.5585454 -0.71265596 98.333336 0 0 0 35.121471
3.7196469 3.8030326 -0.72856003 207.2 0 0 0 37.082394
4.0321779 3.5497634 -0.73641753 143 0 0 0 38.256729
5.3220239 3.8059924 -0.74036425 255.33333 0 0 0 39.817745
5.5258999 3.5507338 -0.74346179 234 0 0 0 40.60088
7.3960114 3.8752604 -0.74587274 240.5 0 0 0 41.973694
7.5795317 3.6187844 -0.7504431 209 0 0 0 42.557671
10.766224 3.7254038 -0.74510932 142.5 0 0 0 44.313919
17.031509 3.8345337 -0.72837919 58 0 0 0 46.076382
-18.443336 4.1258788 -0.72762114 20 0 0 0 3.12727
-16.449333 4.0998583 -0.64884514 55 0 0 0 3.5084901
-3.1560919 4.10004 -0.55055219 291.33334 0 0 0 14.431061
-2.7176116 4.2482681 -0.56011754 171.2 0 0 0 15.835393
-2.2514472 4.2237716 -0.64833558 192 0 0 0 17.113243
-1.7817411 4.2838311 -0.69819373 161.83333 0 0 0 18.656385
-1.2626495 4.3903461 -0.70858908 193.25 0 0 0 20.482573
-0.7598809 4.4257784 -0.69860798 49.200001 0 0 0 22.233454
-0.26565155 4.4616776 -0.69760275 73.75 0 0 0 23.987873
0.22727466 4.427413 -0.69432688 39.400002 0 0 0 25.750666
0.76541275 4.3360815 -0.69221848 64 0 0 0 27.700115
1.2349019 4.1953683 -0.69001573 88.25 0 0 0 29.452875
1.6601753 4.0867314 -0.6987257 56.25 0 0 0 31.019474
2.7727704 4.3987503 -0.70744145 155.5 0 0 0 33.75016
3.2269039 4.1401615 -0.71645021 195 0 0 0 35.318123
4.8392892 4.3537984 -0.73552465 290.5 0 0 0 38.062355
5.0716753 4.1259222 -0.7392745 259.5 0 0 0 38.844604
7.1137872 4.3087735 -0.7427547 244.33333 0 0 0 40.994778
10.441586 4.3528228 -0.73977715 177 0 0 0 43.345459
10.556005 4.0972981 -0.74045539 147 0 0 0 43.72636
16.922983 4.2510076 -0.72825962 61 0 0 0 45.67989
-2.2079351 4.5772295 -0.54313016 120.5 0 0 0 17.743076
-1.7351193 4.729126 -0.60137439 224 0 0 0 19.311056
-1.4094722 4.9413252 -0.61600858 259.5 0 0 0 20.48064
1.2096416 4.9550848 -0.68575436 126 0 0 0 28.6716
1.7521284 4.7863722 -0.68821347 137.60001 0 0 0 30.432404
2.2989407 4.6077356 -0.69811898 112 0 0 0 32.191158
4.2040319 4.8525133 -0.72347242 282.25 0 0 0 36.10041
4.5791783 4.5516329 -0.7287724 299 0 0 0 37.279713
6.7398553 4.8011899 -0.73851734 254.33333 0 0 0 39.817745
10.269468 4.7352705 -0.73960698 153 0 0 0 42.754547
16.785072 4.6591711 -0.72723955 58 0 0 0 45.286888
-1.1487478 5.1134157 -0.61666143 177.2 0 0 0 21.378637
-0.81021553 5.1942959 -0.65377647 171.16667 0 0 0 22.427401
-0.2921958 5.1500702 -0.68717939 265.75 0 0 0 23.987871
0.21401782 5.1206751 -0.6846357 104.5 0 0 0 25.55637
0.7155416 5.0603232 -0.68469393 96.75 0 0 0 27.115101
3.3219078 5.3888612 -0.70948792 241 0 0 0 33.555313
3.7444255 5.1686344 -0.71717995 266.66666 0 0 0 34.730038
6.3625526 5.2865729 -0.73774141 270 0 0 0 38.648647
9.9762068 5.3704619 -0.74096113 79 0 0 0 41.777248
10.100168 5.1193652 -0.74055684 163 0 0 0 42.170139
16.448748 5.4523969 -0.72367328 61 0 0 0 44.513969
16.620176 5.0579424 -0.72540545 65 0 0 0 44.897568
-0.74727118 5.767518 -0.56053084 309 0 0 0 22.817497
-0.24609478 5.8813434 -0.64398634 324 0 0 0 24.183374
1.4037925 5.9957075 -0.68123198 115 0 0 0 28.484499
1.7675529 5.8846989 -0.68155766 192.5 0 0 0 29.452875
2.2917635 5.7598548 -0.69000965 206.66667 0 0 0 30.822975
2.7445984 5.6368375 -0.70006037 226 0 0 0 31.997652
3.0342898 5.5188961 -0.70441282 216 0 0 0 32.771679
5.7798104 5.8613887 -0.73291498 267.66666 0 0 0 37.082951
6.0807066 5.5843644 -0.73564285 227 0 0 0 37.867981
9.3659439 5.9777837 -0.72580177 186 0 0 0 40.60088
9.6741905 5.6803131 -0.73333108 165.5 0 0 0 41.191727
12.559671 5.9720254 -0.57461792 319 0 0 0 42.557671
13.096679 5.8344083 -0.59339452 149 0 0 0 42.95142
13.503224 5.6197085 -0.6059466 159 0 0 0 43.345459
16.337631 5.8663993 -0.72514135 69 0 0 0 44.113873
-0.62107873 6.0221772 -0.51315713 143 0 0 0 23.209459
-0.24888156 6.0169625 -0.51142502 164.33333 0 0 0 24.183374
0.24462564 6.1371603 -0.60931098 315.71429 0 0 0 25.472759
0.80146247 6.0753608 -0.67544323 330.66666 0 0 0 26.921438
1.1770647 6.0264993 -0.67826307 169.5 0 0 0 27.889801
4.9430761 6.4432998 -0.71994346 111 0 0 0 35.125542
5.2958703 6.2364335 -0.72679538 202 0 0 0 35.904072
8.2383261 6.4896784 -0.68268877 461 0 0 0 39.04475
8.7643623 6.3884001 -0.70741624 213.5 0 0 0 39.620178
9.1552925 6.1673894 -0.72075993 159 0 0 0 40.212872
10.842074 6.182343 -0.51221693 424 0 0 0 41.388351
11.37262 6.1162219 -0.53114557 396 0 0 0 41.777248
11.934836 6.0420451 -0.55145204 381 0 0 0 42.170139
16.206829 6.2746592 -0.72614539 47 0 0 0 43.72636
0.7273677 6.6704097 -0.57685179 391 0 0 0 26.530333
1.1127182 6.9732456 -0.60973263 430 0 0 0 27.31496
3.7432933 6.9631968 -0.69620717 224 0 0 0 32.578857
4.1943331 6.761528 -0.70257616 249.33333 0 0 0 33.555309
4.6522059 6.5553541 -0.71150386 111.5 0 0 0 34.532288
5.7121716 6.8887582 -0.57492268 855 0 0 0 35.708542
6.1810946 6.7410851 -0.58936644 739 0 0 0 36.492279
6.7587938 6.6721592 -0.61422646 767 0 0 0 37.279713
7.2176628 6.6140771 -0.63452226 717 0 0 0 37.867981
7.7168846 6.55758 -0.6578657 568 0 0 0 38.450592
1.3199744 7.1221051 -0.6270256 429 0 0 0 27.696091
1.7568873 7.3885083 -0.66066712 315.66666 0 0 0 28.477537
2.240725 7.3698463 -0.67224067 469.5 0 0 0 29.450705
2.731415 7.3189378 -0.68406242 356 0 0 0 30.434214
3.2945805 7.1570077 -0.69222456 228 0 0 0 31.60623
5.3508677 7.3300543 -0.58204037 708 0 0 0 34.729874
5.5008254 7.1573577 -0.57934594 799 0 0 0 35.125542
2.3153324 7.9428 -0.51899117 381 0 0 0 29.253799
4.9036045 7.8815317 -0.59421617 456 0 0 0 33.558849
5.1224346 7.5928373 -0.58686 646 0 0 0 34.138824
2.7632976 8.2969284 -0.55165809 343 0 0 0 29.84655
4.4280796 8.4511051 -0.60965896 650 0 0 0 32.38604
4.6609588 8.1497746 -0.60043788 638 0 0 0 32.967903
3.2547321 8.6765738 -0.58767909 343 0 0 0 30.436409
3.6241953 8.9705877 -0.61580539 338 0 0 0 30.820749
4.1810341 8.752121 -0.61933273 691 0 0 0 31.803459
3.9129565 9.0325832 -0.62788475 411 0 0 0 31.211769
21.431246 -9.52316 -0.40092769 113 0 0 0 56.219913
-0.48982501 -9.3492298 -0.36138788 304 0 0 0 75.39045
8.0097237 -9.3359184 -0.1903502 15 0 0 0 63.254261
18.744123 -9.4608326 -0.35447252 92 0 0 0 57.003498
-0.73299807 -8.5871801 -0.18922819 388.66666 0 0 0 75.902687
0.18586825 -8.8801136 -0.34127152 114 0 0 0 74.212837
5.3903565 -8.5806074 -0.39815268 278 0 0 0 65.60675
6.7751575 -8.7399426 -0.43815526 105 0 0 0 64.040886
7.0732026 -8.674962 -0.44403923 145 0 0 0 63.652767
7.7808247 -8.8496304 -0.46956336 180 0 0 0 63.057373
8.3206539 -8.7898569 -0.48343614 186 0 0 0 62.475872
8.6363974 -8.685009 -0.48978874 6 0 0 0 62.08831
-11.501382 -8.0932455 -0.20676725 306 0 0 0 89.864258
-11.890591 -7.9387908 -0.21074528 105 0 0 0 90.25676
8.3927908 -7.6520038 -0.45194393 101 0 0 0 61.295738
8.7097626 -7.3695526 -0.45446515 137 0 0 0 60.71434
8.35215 -6.7244911 -0.16230205 188.5 0 0 0 60.322063
18.880487 -6.7754245 -0.3390986 59 0 0 0 55.056873
-10.648081 -6.0273957 -0.17496677 156 0 0 0 91.427299
-10.235641 -6.1272011 -0.46082163 80 0 0 0 91.038246
8.3876181 -6.2569327 -0.15775509 192 0 0 0 59.734322
8.621459 -6.1066847 -0.15978292 127 0 0 0 59.351761
-10.624796 -5.6749001 -0.17166387 154 0 0 0 91.802872
-10.36662 -5.6985693 -0.4566792 60 0 0 0 91.615082
-1.5037322 -5.8957372 -0.22084706 180 0 0 0 78.512718
-1.2670922 -5.8521652 -0.21710059 183 0 0 0 77.92675
-0.93458188 -5.6362514 -0.20585921 148.5 0 0 0 77.141174
-0.38793659 -5.7790165 -0.42056942 141.5 0 0 0 75.581818
26.602972 -5.988029 -0.47646207 95 0 0 0 53.10231
-11.331959 -5.0202899 -0.17774738 62 0 0 0 92.973808
-10.695583 -5.2166662 -0.16917664 143.5 0 0 0 92.386276
-2.0699492 -5.3018284 -0.48238602 165 0 0 0 80.46505
-1.7533947 -5.2218633 -0.46613777 212 0 0 0 79.683876
-1.2415261 -5.1100531 -0.44412094 38 0 0 0 78.316071
-0.78660375 -5.2952528 -0.31983143 215.8 0 0 0 76.868729
-0.099548914 -5.4870281 -0.46636206 98.5 0 0 0 74.796967
21.693396 -5.4490027 -0.38406521 99 0 0 0 53.48893
26.966846 -5.3770218 -0.48138103 46 0 0 0 52.705872
5.8687148 -4.6204343 -0.46941212 273 0 0 0 60.121689
6.1404643 -4.5927305 -0.29438213 62 0 0 0 59.734322
11.303173 -4.7058182 -0.34253722 382 0 0 0 55.822487
16.256044 -4.7284994 -0.28169215 95.5 0 0 0 54.077019
-3.7234228 -4.3487749 -0.27330753 120.25 0 0 0 85.845963
-3.2305202 -4.2377014 -0.31645387 100.2 0 0 0 84.921616
-2.7987769 -4.159615 -0.418973 49 0 0 0 83.980904
1.2896632 -4.0214486 -0.1960935 75 0 0 0 69.51545
5.7958498 -4.2280135 -0.44982091 194 0 0 0 59.543041
6.2237749 -4.1922374 -0.19437028 685.25 0 0 0 58.958641
11.480411 -4.4510555 -0.34525403 329 0 0 0 55.438118
-8.4189653 -3.7270777 -0.34721082 311 0 0 0 92.973808
-4.1281943 -3.7904778 -0.38223371 192.66667 0 0 0 87.766052
-3.7246513 -3.7785771 -0.25426939 352.53845 0 0 0 86.97287
-2.6417894 -3.6312206 -0.48123932 33.5 0 0 0 84.565544
1.4047602 -3.9244094 -0.22706141 119 0 0 0 68.985306
1.6064904 -3.9746971 -0.25312895 68.800003 0 0 0 68.342621
5.9005904 -3.8737252 -0.4423961 555.5 0 0 0 58.762016
6.192358 -3.7456269 -0.36416233 292.75 0 0 0 58.176399
6.5160136 -3.7224689 -0.28819451 168 0 0 0 57.785542
-8.6517677 -3.3342562 -0.23717806 395 0 0 0 93.765114
-8.4358063 -3.4907613 -0.23248176 574 0 0 0 93.366554
-3.7470694 -3.0614817 -0.40198275 36.666668 0 0 0 88.68203
-3.0570383 -3.0425837 -0.46008042 34 0 0 0 87.129745
-2.821223 -3.2541683 -0.45987767 48.400002 0 0 0 85.944717
6.4135618 -3.4582436 -0.45843923 156 0 0 0 57.397701
6.757915 -3.4304097 -0.47838134 185 0 0 0 57.003498
-28.669079 -2.8227606 -0.46470407 115 0 0 0 98.050392
-23.721289 -2.925076 -0.3790291 98 0 0 0 97.666885
-3.9730797 -2.936584 -0.41113037 31 0 0 0 89.471046
-3.3051255 -2.9814184 -0.47601196 35 0 0 0 87.898193
-22.931816 -1.6908346 -0.36387333 13 0 0 0 98.440926
-22.836058 -1.1210712 -0.36193514 23 0 0 0 98.835449
-4.6936336 2.8963501 -0.4515706 371.66666 0 0 0 8.5788527
-5.7089677 3.3521461 -0.38992304 252 0 0 0 8.1884699
-5.18748 3.2967696 -0.35929871 261.5 0 0 0 8.774045
-4.7100677 3.4062488 -0.33806381 411.66666 0 0 0 9.7502499
-4.2540374 3.2273121 -0.43697515 392.39999 0 0 0 10.138568
-3.9470751 3.4725451 -0.43006065 430 0 0 0 11.30815
-11.159885 3.9554455 -0.44197801 146 0 0 0 5.0733299
-6.5583038 3.8620038 -0.27116564 247 0 0 0 8.1884699
-6.1615462 3.8287671 -0.25677824 293 0 0 0 8.5764198
-5.7721233 3.7796404 -0.24245781 336 0 0 0 8.9716702
-5.2789469 3.7300062 -0.22491889 300 0 0 0 9.5557747
-4.8114891 3.8533309 -0.21312542 539 0 0 0 10.527097
-4.2650557 3.7596469 -0.33076972 501.39999 0 0 0 11.303007
-3.6824079 3.655725 -0.42475423 685 0 0 0 12.274508
-3.3959818 3.9007177 -0.42391616 799.5 0 0 0 13.4453
-12.506196 4.0981798 -0.49548596 104 0 0 0 4.6779599
-7.4096537 4.3713999 -0.10429613 337 0 0 0 8.1884699
-6.7412252 4.3067808 -0.094628051 323 0 0 0 8.774045
-6.1417985 4.2432861 -0.086048275 386 0 0 0 9.3623199
-5.7736449 4.1954236 -0.080783837 371 0 0 0 9.7492304
-5.2074442 4.1748943 -0.073434077 475.33334 0 0 0 10.527097
-4.7485275 4.2702708 -0.11788303 677 0 0 0 11.435191
-4.292511 4.2817049 -0.2097809 716.5 0 0 0 12.274508
-3.7303052 4.1924162 -0.3270458 747.79999 0 0 0 13.253099
-3.2116621 4.1784859 -0.39936984 896.75 0 0 0 14.431601
-2.8096554 4.3800941 -0.4286387 569 0 0 0 15.796195
-16.380127 4.9389586 -0.24090603 73 0 0 0 4.29037
-14.456641 4.741498 -0.21041687 45 0 0 0 4.6779599
-13.62955 4.8385563 -0.19846487 38 0 0 0 5.0733299
-4.5829525 4.5787077 -0.070723236 887 0 0 0 12.27533
-4.2732921 4.8213573 -0.0704313 965.66669 0 0 0 13.249566
-3.7737465 4.6919718 -0.20888607 974.79999 0 0 0 14.036757
-3.2555177 4.7055321 -0.29868752 748.25 0 0 0 15.210547
-2.7934635 4.8016224 -0.3572135 608.75 0 0 0 16.474102
-2.3087461 4.8044591 -0.44165385 352.75 0 0 0 17.743076
-19.031902 5.2417774 -0.28329968 40 0 0 0 3.9050701
-4.0323529 5.0215278 -0.070592426 1063 0 0 0 14.04167
-3.7257974 5.267355 -0.07110168 903.75 0 0 0 15.016541
-3.2013934 5.157434 -0.2116379 683.66669 0 0 0 15.991844
-2.7506795 5.2422395 -0.27526954 638 0 0 0 17.157309
-2.2447329 5.2456522 -0.36957514 724 0 0 0 18.428474
-1.7636764 5.2354531 -0.4612934 413 0 0 0 19.701324
-1.4751585 5.4678597 -0.47475585 420 0 0 0 20.67528
-22.5893 5.6386309 -0.34034789 25 0 0 0 3.5084901
-3.2229381 5.6543922 -0.0724755 539 0 0 0 16.572777
-2.703063 5.6627021 -0.14370951 437.75 0 0 0 17.74287
-2.2637928 5.7428694 -0.17830306 410.75 0 0 0 18.870817
-1.7465352 5.7750525 -0.29647055 390.57144 0 0 0 20.174465
-1.257205 5.7982802 -0.42556357 338.16666 0 0 0 21.456316
-0.91273671 5.9595609 -0.3614589 205 0 0 0 22.425535
12.547527 5.9690309 -0.23292366 337 0 0 0 42.557671
13.217273 5.6970959 -0.24246059 308.5 0 0 0 43.148438
-27.847391 6.240006 -0.42501083 10 0 0 0 3.12727
-2.092685 6.0094495 -0.071550146 706 0 0 0 19.50127
-1.7607535 6.2860312 -0.07502903 735.75 0 0 0 20.482571
-1.2487009 6.1627293 -0.22467552 402 0 0 0 21.650597
-0.71822214 6.2283883 -0.32506573 365.66666 0 0 0 23.012182
-0.33489352 6.3681145 -0.38604432 506 0 0 0 23.987064
8.2417507 6.4933434 -0.29578015 644.5 0 0 0 39.04475
8.7379999 6.4247775 -0.35227451 617.33331 0 0 0 39.555702
9.2840319 6.3643818 -0.27487808 597.33331 0 0 0 40.079784
9.8637733 6.2939339 -0.33434668 493.5 0 0 0 40.60088
10.320569 6.2305684 -0.34562749 500 0 0 0 40.995098
10.830247 6.1781507 -0.20544054 497 0 0 0 41.388351
11.37329 6.1191554 -0.21406379 380 0 0 0 41.777248
11.94657 6.0506034 -0.22324501 357 0 0 0 42.170139
-1.261395 6.6759109 -0.080493636 607 0 0 0 21.84403
-0.76737213 6.7294941 -0.18921828 466 0 0 0 23.012182
-0.26934215 6.7829242 -0.30121702 489.33334 0 0 0 24.183374
0.23831643 6.825747 -0.41755834 452 0 0 0 25.361277
5.7080688 6.884583 -0.24453557 883.75 0 0 0 35.708542
6.1781383 6.7387781 -0.25159276 730.25 0 0 0 36.492279
6.7520084 6.6665001 -0.26350594 750 0 0 0 37.279713
7.2092209 6.6073403 -0.27282637 654.5 0 0 0 37.867981
7.7140026 6.5560627 -0.28400391 654.25 0 0 0 38.450592
-0.71630341 7.132843 -0.087919995 482.5 0 0 0 23.209459
-0.28284433 7.3142934 -0.14912613 493.33334 0 0 0 24.183374
0.17100319 7.3143606 -0.27060443 473.5 0 0 0 25.166225
0.70240283 7.2089825 -0.44598413 404 0 0 0 26.334743
1.00688 7.444768 -0.46449527 669 0 0 0 26.921511
5.3764544 7.2915764 -0.22461018 842 0 0 0 34.809105
-0.10115615 7.6476679 -0.097278103 507 0 0 0 24.575991
0.27939406 7.7596917 -0.16141362 499.33334 0 0 0 25.361277
0.76697946 7.7884417 -0.29309341 471 0 0 0 26.334743
1.3179741 7.5970221 -0.47846061 264.5 0 0 0 27.505526
1.6928232 7.5305614 -0.48029241 195 0 0 0 28.284004
2.040055 7.7139935 -0.49864802 406 0 0 0 28.864599
4.8990016 7.8751283 -0.25184375 780.5 0 0 0 33.558849
5.0972257 7.6233535 -0.28674254 806.66669 0 0 0 34.073532
0.4991352 8.1185818 -0.10670834 459 0 0 0 25.751379
0.83163518 8.3819828 -0.11228791 446 0 0 0 26.334743
1.2170459 8.157711 -0.31159252 325.5 0 0 0 27.118237
1.7479019 8.2077398 -0.31915736 221 0 0 0 28.088034
2.2260327 8.3847342 -0.33235481 691 0 0 0 28.864599
4.4305186 8.4565983 -0.25847039 677 0 0 0 32.38604
4.6644292 8.156456 -0.2546638 850.25 0 0 0 32.967903
1.3125279 8.7580395 -0.1205879 450.5 0 0 0 27.118237
2.693357 8.788887 -0.35531157 379.5 0 0 0 29.450705
4.1720743 8.7350779 -0.26137823 746 0 0 0 31.803459
1.850281 9.1902466 -0.13087575 376.5 0 0 0 27.889801
3.2022731 9.2079983 -0.37997407 335 0 0 0 30.04549
3.7442129 9.2666416 -0.2694056 618.5 0 0 0 30.822977
2.2965364 9.5523195 -0.1398513 268 0 0 0 28.484499
2.7017112 9.6468239 -0.14433426 92.5 0 0 0 29.0592
3.2327838 9.6676283 -0.14888427 435 0 0 0 29.84655
34.865639 -61.549442 0.46741024 7 0 0 0 66.38298
26.001436 -58.666637 0.42938417 10 0 0 0 67.956848
27.34684 -57.828144 0.42696503 14 0 0 0 67.558479
28.925777 -57.473515 0.42849141 14 0 0 0 67.17688
30.521288 -57.109695 0.43097427 9 0 0 0 66.779129
32.891449 -54.886715 0.42612591 7 0 0 0 65.991364
34.299751 -54.176235 0.42677534 7 0 0 0 65.60675
35.430538 -53.037292 0.42454988 8 0 0 0 65.212677
38.134834 -48.879055 0.41294083 6 0 0 0 64.040886
12.928646 -46.76004 0.33812946 12 0 0 0 70.300079
14.126778 -46.608528 0.33858919 16 0 0 0 69.911278
-28.91029 -45.661419 0.40718049 14 0 0 0 83.589249
-17.625359 -45.689362 0.36151826 19 0 0 0 80.46505
-16.31492 -45.592564 0.35640341 20 0 0 0 80.075829
11.444325 -45.736443 0.33026725 19 0 0 0 70.688965
-30.086956 -45.035751 0.40930709 17 0 0 0 83.984688
-24.148451 -45.182186 0.38388285 17 0 0 0 82.420357
-21.448679 -45.350788 0.37388772 18 0 0 0 81.643288
-20.119331 -45.388531 0.36895999 19 0 0 0 81.246941
-13.771019 -45.387745 0.34685466 26 0 0 0 79.288757
-12.556007 -45.359657 0.34294882 33 0 0 0 78.898048
-10.120788 -45.050507 0.3341161 24 0 0 0 78.124748
-7.8417058 -45.16346 0.3288711 19 0 0 0 77.335281
10.125881 -45.146965 0.32538804 25 0 0 0 71.088669
-26.841522 -44.787731 0.3933157 15 0 0 0 83.209755
-11.253716 -44.9114 0.3364566 38 0 0 0 78.512718
-6.6730666 -44.946716 0.32585189 22 0 0 0 76.947075
-1.1053438 -44.664085 0.31978291 21 0 0 0 74.994354
8.8735113 -44.671829 0.32144031 21 0 0 0 71.47261
1.0788825 -44.35701 0.3171815 22 0 0 0 74.212837
2.1617813 -44.218468 0.31619692 28 0 0 0 73.820007
3.2412243 -44.089417 0.3154093 29 0 0 0 73.430687
4.3265948 -44.044491 0.31530029 23 0 0 0 73.038834
7.4947991 -43.267311 0.31173456 21 0 0 0 71.859055
5.2627349 -42.770016 0.30752927 29 0 0 0 72.644653
6.3382688 -42.815018 0.30825743 16 0 0 0 72.256279
-8.4571781 -42.486286 0.31424385 23 0 0 0 77.728752
-37.915005 -41.84256 0.43244582 17 0 0 0 86.339722
-0.011128582 -41.362026 0.29843837 22 0 0 0 74.599586
-5.0584903 -40.943489 0.29896191 21 0 0 0 76.564285
-19.633724 -39.001404 0.33131719 24 0 0 0 82.029343
-26.500811 -37.630592 0.35431582 17 0 0 0 84.368767
-12.492206 -37.795532 0.29816055 26 0 0 0 79.687042
43.004604 -37.111382 0.3780607 11 0 0 0 60.906239
-1.7376183 -35.097752 0.25942391 27 0 0 0 75.39045
43.846405 -32.533669 0.36293659 13 0 0 0 59.734322
-26.243568 -31.979021 0.32482773 7 0 0 0 85.548897
-42.109383 -26.674051 0.39162916 15 0 0 0 90.645325
43.51799 -24.666229 0.3319498 18 0 0 0 57.785542
-40.451809 -24.253733 0.37265709 11 0 0 0 91.038246
67.47126 -24.145912 0.45090002 14 0 0 0 55.056873
23.295244 -10.343748 0.1849778 21 0 0 0 56.219913
18.607019 -9.9678802 0.16049603 31 0 0 0 57.397701
-0.77520883 -8.6839447 0.20061991 367 0 0 0 75.967445
-17.206127 -8.1388454 0.17196655 156 0 0 0 92.586487
-11.352994 -8.2719002 0.25221014 232.33333 0 0 0 89.602112
-11.803231 -7.7424431 0.37213907 159.33333 0 0 0 90.386284
41.16127 -7.1466732 0.27167144 35 0 0 0 52.314301
48.464554 -7.1917596 0.31130701 52 0 0 0 51.929119
31.340698 -6.2408676 0.21695015 56 0 0 0 52.705872
26.529377 -5.9659662 0.19055088 136 0 0 0 53.10231
21.653311 -5.4343853 0.16334939 32 0 0 0 53.48893
11.388686 -4.7372441 0.10782168 224 0 0 0 55.822487
16.167381 -4.7010365 0.13255778 153 0 0 0 54.077019
39.635002 -4.8912163 0.25945893 29 0 0 0 51.531261
6.2796216 -4.1178155 0.26714179 1211 0 0 0 58.762012
11.445743 -4.434721 0.26090464 503.5 0 0 0 55.438118
-8.4745693 -3.5086732 0.2159294 615 0 0 0 93.366554
-4.0148082 -3.6270282 0.34114185 780.33331 0 0 0 87.892967
-3.8230863 -3.7728028 0.2466329 721.59998 0 0 0 87.202415
1.3394456 -3.8469415 0.26148969 148.46666 0 0 0 69.126678
1.5896734 -3.9306111 0.06206426 26 0 0 0 68.342621
6.4254808 -3.8804138 0.080474496 7 0 0 0 58.177391
39.753498 -3.9170165 0.25858811 46 0 0 0 51.150539
47.989861 -3.5399189 0.30303439 174 0 0 0 50.75433
-8.586072 -3.3107615 0.21621031 547.5 0 0 0 93.765114
-39.088982 -2.8887987 0.31141093 45 0 0 0 98.440926
-28.715992 -2.8324752 0.23915336 87 0 0 0 98.050392
-23.89645 -2.9509459 0.20582488 201 0 0 0 97.666885
54.75457 -2.6884961 0.33893156 21 0 0 0 50.35952
-22.743887 -1.1205382 0.19571286 245 0 0 0 98.835449
56.123451 0.0033881518 0.3434175 28 0 0 0 49.584473
56.426216 2.7774112 0.34265646 26 0 0 0 48.79966
56.874138 4.2016954 0.34413645 14 0 0 0 48.414993
13.193058 5.4943638 0.46822834 354 0 0 0 43.345459
-2.9400938 5.9818954 0.085923992 554 0 0 0 17.550409
13.276255 5.7251177 0.29391253 148.5 0 0 0 43.148438
-3.1573164 6.05336 0.25533921 836 0 0 0 17.157841
-2.7765632 6.0954638 0.18545084 1332.2 0 0 0 18.01796
-2.3025131 6.377996 0.085952133 1045 0 0 0 19.310295
-2.0892229 6.5313926 0.086221218 1132 0 0 0 19.89871
-1.8063275 6.7894807 0.087063543 826 0 0 0 20.677193
56.044762 6.9210224 0.33826163 9 0 0 0 47.637421
-1.5045198 7.030622 0.087826408 638 0 0 0 21.453939
-1.1831874 7.2805443 0.088734575 680.33331 0 0 0 22.231926
-0.75898099 7.6167908 0.090136088 610.5 0 0 0 23.209459
-0.39370778 7.9151201 0.091558851 584.5 0 0 0 23.987064
5.0709777 7.7203197 0.32006159 64 0 0 0 33.942951
-4.6376991 8.2244396 0.22477102 1008.75 0 0 0 16.570545
-0.10231761 8.1476126 0.092739291 491 0 0 0 24.575991
0.20911293 8.4043055 0.094147325 564 0 0 0 25.166225
4.421845 8.44485 0.092528388 614 0 0 0 32.38604
4.6573548 8.148716 0.090834275 709.5 0 0 0 32.967903
5.0090203 8.0527973 0.090586558 276 0 0 0 33.558849
-14.797455 8.8002081 0.17208882 80 0 0 0 8.1884699
-13.83839 8.6897793 0.16481864 75 0 0 0 8.5764198
-12.98213 8.5968075 0.1584315 99 0 0 0 8.9716702
-12.284042 8.792944 0.15442303 221.5 0 0 0 9.5557747
0.65616202 8.7745361 0.096304819 439.5 0 0 0 25.946514
4.1721716 8.7401237 0.094315566 728 0 0 0 31.803459
57.270142 8.504838 0.34442469 15 0 0 0 47.239353
-40.691681 9.1250267 0.37737399 24 0 0 0 3.12727
-11.690201 9.0323801 0.15145987 265 0 0 0 10.1392
-11.292302 9.1719666 0.14948213 264 0 0 0 10.52542
-10.75881 9.4093285 0.14720443 250 0 0 0 11.11241
-9.3328609 9.2189369 0.30003256 1142 0 0 0 12.07553
-1.983982 9.4497328 0.34615546 1131 0 0 0 21.453939
1.1473191 9.1728077 0.098771036 363 0 0 0 26.724674
1.5482516 9.4950857 0.10085698 336 0 0 0 27.31496
3.7130375 9.3235493 0.19912252 570.40002 0 0 0 30.745214
16.677975 9.493288 0.13547282 105 0 0 0 41.388351
-10.232033 9.6314106 0.14503454 291 0 0 0 11.68927
-6.0927215 9.9791431 0.27023804 1404 0 0 0 15.99218
-2.271168 9.6474953 0.35467345 721 0 0 0 21.070299
1.8372816 9.7333364 0.10217879 329 0 0 0 27.696091
2.1455436 9.9922466 0.10365822 218 0 0 0 28.083509
3.2811387 9.8154316 0.23092315 636.25 0 0 0 29.84655
-10.063633 10.448997 0.148298 210 0 0 0 12.47513
-2.6325314 10.089783 0.37166125 685 0 0 0 20.67528
-1.7588977 10.294424 0.37123859 493 0 0 0 22.039074
2.4640188 10.227177 0.10498496 293 0 0 0 28.484499
2.8883502 10.29425 0.23868775 607.5 0 0 0 29.0592
4.4356656 10.212876 0.38266328 380 0 0 0 31.211769
4.8505197 10.447445 0.3939544 509 0 0 0 31.608971
5.29739 10.382057 0.39724758 589.5 0 0 0 32.191994
