# .PCD v0.7 - Point Cloud Data file format
VERSION 0.7
FIELDS x y z intensity normal_x normal_y normal_z curvature
SIZE 4 4 4 4 4 4 4 4
TYPE F F F F F F F F
COUNT 1 1 1 1 1 1 1 1
WIDTH 952
HEIGHT 1
VIEWPOINT 0 0 0 1 0 0 0
POINTS 952
DATA ascii
0.84664923 9.4995003 1.7277731 1273 0 0 0 26.111111
1.1960109 9.4543076 1.8442706 1197.5 0 0 0 26.702629
-5.3195443 9.7707596 1.7309455 613 0 0 0 16.7514
-2.1980464 9.9361877 1.7122654 976.75 0 0 0 21.240864
-1.6815641 9.8675423 1.6851618 1030.25 0 0 0 22.01675
-1.1778992 9.7826824 1.659855 397.75 0 0 0 22.798038
-0.66526681 9.7203693 1.7138315 1041.6 0 0 0 23.61729
-0.20960653 9.6550856 1.7472639 1116.8334 0 0 0 24.360418
0.23936149 9.586937 1.7830887 1243.8 0 0 0 25.101131
0.69179541 9.5228577 1.8860302 1246.3334 0 0 0 25.854868
-16.069424 10.122653 1.5660609 369 0 0 0 8.5715199
-6.0211301 10.45907 1.8763503 338 0 0 0 16.36305
-5.3169956 10.371372 1.6688886 689 0 0 0 17.144939
-4.8749409 10.318809 1.6811439 836.66669 0 0 0 17.66997
-4.1299615 10.206904 1.8036636 807.66669 0 0 0 18.575172
-3.7233562 10.139942 1.8146874 896 0 0 0 19.101099
-3.4331977 10.10577 1.9250926 807 0 0 0 19.48922
-20.076183 10.692584 1.8756064 163 0 0 0 7.4018302
-7.2110691 10.647777 1.8408234 496.5 0 0 0 15.19769
-6.7943602 10.576971 1.7995522 576 0 0 0 15.58426
-6.4060431 10.526691 1.7641203 644 0 0 0 15.98363
-57.61039 11.495784 1.9590729 23 0 0 0 2.7232399
-13.293507 11.968864 1.9021726 212 0 0 0 11.28973
-54.457726 12.259572 1.8600504 16 0 0 0 3.1195099
-20.83889 12.447319 1.9976933 137 0 0 0 8.17805
-12.75416 12.358042 1.8876524 171 0 0 0 11.880365
-12.23765 12.760223 1.878083 164 0 0 0 12.4659
-11.707258 13.138365 1.8685015 165 0 0 0 13.051825
-11.078293 13.389772 1.8443295 148 0 0 0 13.6373
-31.158794 13.799535 1.9614302 61 0 0 0 6.2307801
-10.683022 13.574037 1.8326658 228 0 0 0 14.02487
-10.34035 13.821388 1.8307341 203 0 0 0 14.42127
-9.9976311 14.068266 1.829855 117 0 0 0 14.81524
2.8560455 16.926401 1.8159034 182 0 0 0 27.280199
55.626877 16.854555 1.7434037 11 0 0 0 44.850471
3.446116 17.725811 1.9085203 131 0 0 0 27.67654
4.0955706 18.591829 1.5476725 114 0 0 0 28.06501
4.8395782 19.632034 1.6415882 81 0 0 0 28.457741
51.294975 19.774773 1.6511223 11 0 0 0 43.677658
5.646832 20.68181 1.7383771 70 0 0 0 28.846081
51.438374 21.296032 1.6719706 14 0 0 0 43.281738
6.6003127 22.005442 1.8602668 71 0 0 0 29.233049
51.793617 22.949354 1.7011579 7 0 0 0 42.895321
7.6639185 23.420696 1.9927154 50 0 0 0 29.62348
10.930483 24.806393 1.5114603 12 0 0 0 31.179501
11.857472 25.20624 1.5517228 43 0 0 0 31.566679
12.837066 25.627756 1.5951749 76 0 0 0 31.9678
13.83675 26.00189 1.6376929 58 0 0 0 32.34927
19.591125 26.488726 1.8236735 82 0 0 0 34.68819
21.507637 26.270164 1.8767663 49 0 0 0 35.475006
22.511097 26.155001 1.9062262 62 0 0 0 35.865726
52.470524 26.4048 1.7637799 8 0 0 0 42.111328
17.813242 26.743912 1.7809205 83 0 0 0 33.913979
18.682102 26.605215 1.8006488 79 0 0 0 34.29892
52.641205 28.132059 1.7923663 10 0 0 0 41.724678
51.833401 29.360247 1.7897158 24 0 0 0 41.335472
12.365846 -62.515247 2.1143968 7 0 0 0 71.401268
13.807036 -61.798283 2.0986242 12 0 0 0 71.003555
41.490444 -53.294308 2.1593006 21 0 0 0 63.977058
-33.056805 -52.137608 2.0713837 14 0 0 0 83.500404
-36.655437 -51.989254 2.1313715 13 0 0 0 84.271202
-40.174316 -51.427654 2.1831443 9 0 0 0 85.06237
-52.925381 -50.3521 2.4290326 6 0 0 0 87.417274
-5.2046995 -41.841427 2.4564886 36 0 0 0 76.480286
-0.047208678 -40.483509 2.3563538 13 0 0 0 74.525238
-0.91228378 -35.360859 2.0638075 5 0 0 0 74.909592
-11.83823 -32.986759 2.0502605 9 0 0 0 79.991211
-22.438568 -31.817127 2.2703879 9 0 0 0 84.271202
-33.180416 -25.874762 2.4384921 8 0 0 0 88.970428
8.851778 -14.045244 2.193167 29 0 0 0 65.542389
-10.662926 -13.646607 2.3042655 42 0 0 0 85.06237
-8.6010609 -13.557871 2.1396301 42 0 0 0 83.500404
7.8089929 -13.855025 2.4985235 23 0 0 0 66.314682
8.1424551 -13.654342 2.1027417 7 0 0 0 65.929611
10.032494 -13.586865 2.2269092 23 0 0 0 64.360909
-9.9751606 -13.431441 2.2274134 35 0 0 0 84.666626
-9.3981943 -13.323958 2.1718585 35 0 0 0 84.271202
-8.944438 -13.363802 2.1426747 20 0 0 0 83.887405
9.3019772 -13.269604 2.1392314 29 0 0 0 64.750679
-24.958017 -12.560386 2.3187695 16 0 0 0 92.0886
-10.514854 -12.797192 2.204808 40 0 0 0 85.448753
-9.4746094 -12.123904 2.4311702 29 0 0 0 85.06237
-24.875298 -11.76336 2.2831721 16 0 0 0 92.480865
-20.987076 -11.885211 2.007838 25 0 0 0 91.31353
-12.182129 -11.589758 2.2359061 20 0 0 0 87.417274
-8.6810074 -11.686442 2.3021181 7 0 0 0 84.666626
-8.1521664 -11.861382 2.2768664 35 0 0 0 84.0793
-7.5652499 -11.922252 2.2344382 47 0 0 0 83.500404
-5.2742119 -11.855387 2.0565777 28 0 0 0 81.156723
12.867037 -11.707292 2.2830555 80 0 0 0 61.235821
-5.0374122 -11.321735 2.2717752 30 0 0 0 81.156723
7.4659839 -11.234333 2.4555528 77 0 0 0 65.14489
8.1862297 -10.724281 2.3423617 261.33334 0 0 0 64.105011
8.6458597 -10.587344 2.4842296 163 0 0 0 63.576221
-20.085653 -10.107782 2.418566 21 0 0 0 92.0886
-16.236275 -10.27632 2.0740426 15 0 0 0 90.549088
4.7111564 -10.038136 2.3018005 37 0 0 0 67.492119
8.542778 -10.463193 2.1206071 51 0 0 0 63.576221
-20.684927 -9.7813673 2.4597576 17 0 0 0 92.480865
-18.262238 -9.7582436 2.2304444 31 0 0 0 91.704369
-17.412989 -9.8605499 2.1573586 55 0 0 0 91.31353
-16.674126 -9.9896202 2.0970821 40 0 0 0 90.931725
-6.2807488 -9.8936863 2.1493704 112 0 0 0 83.500404
1.4070413 -9.6850109 2.1592875 24 0 0 0 72.177139
2.1762359 -9.8239479 2.3412974 19 0 0 0 71.003555
-10.367228 -9.3883972 2.2105896 175 0 0 0 87.796417
-7.2612925 -9.2873831 2.1613171 23 0 0 0 85.06237
4.716083 -9.437356 2.4495213 65 0 0 0 67.10405
-10.326184 -8.9004335 2.1551144 252 0 0 0 88.186165
-7.5568814 -8.7463751 2.1192632 74 0 0 0 85.842369
-20.85985 -8.0462646 2.4020543 106 0 0 0 93.662598
36.275761 -8.1852074 2.0507715 56 0 0 0 53.039993
16.035122 -6.2106547 2.2423582 393 0 0 0 55.380032
20.888359 -6.3636236 2.2968173 186 0 0 0 54.209049
11.125086 -5.2886028 2.2296901 746 0 0 0 56.546673
11.867875 -5.2869825 2.0266724 135 0 0 0 56.153553
5.8782411 -4.6206784 2.294512 819 0 0 0 60.061909
5.9828033 -4.4685812 2.3834109 861.5 0 0 0 59.67289
6.0020275 -4.4844794 2.113668 1224 0 0 0 59.67289
-11.777392 -3.5752344 2.2473454 55 0 0 0 94.841217
-9.9283895 -3.5539479 2.1898119 35 0 0 0 94.052444
-8.977354 -3.7191255 2.0208435 25 0 0 0 93.267265
-3.7613521 -3.84694 2.057725 606 0 0 0 86.830002
-16.130716 -3.2133832 2.1766844 233 0 0 0 96.376869
-14.778253 -3.3227422 2.3822546 198 0 0 0 95.993614
-13.681507 -3.4306686 2.2210665 318 0 0 0 95.597763
-12.569655 -3.4815629 2.3792181 352 0 0 0 95.214485
-9.0491285 -3.4927986 2.2542086 801 0 0 0 93.662598
-18.590261 -2.7602127 2.0193024 169 0 0 0 97.162994
-64.088501 6.3648367 2.1567376 14 0 0 0 1.16433
-13.003697 6.1087732 2.2416775 722 0 0 0 6.6251898
-13.106123 6.5528011 2.2854884 414 0 0 0 7.0047698
-60.37571 7.4929533 2.0361381 12 0 0 0 1.56321
-14.705134 8.280899 2.2146823 582 0 0 0 7.7880502
-61.630184 9.1872416 2.0821881 36 0 0 0 1.9504
0.84600174 9.498456 2.3121552 963 0 0 0 26.111111
1.194854 9.4516172 2.3108199 973 0 0 0 26.702629
-2.595237 9.9827719 2.3660712 752 0 0 0 20.657049
-2.1960926 9.9284792 2.2096391 931.25 0 0 0 21.240866
-1.6798763 9.8582916 2.1742404 903.25 0 0 0 22.01675
-1.1534884 9.7836552 2.2150929 762.20001 0 0 0 22.836086
-0.71310127 9.7152948 2.2867937 950.79999 0 0 0 23.540209
-0.20979959 9.6352892 2.3344312 975 0 0 0 24.36042
0.26184976 9.5723438 2.3206167 954.5 0 0 0 25.140408
0.61273485 9.5259695 2.3139625 936.5 0 0 0 25.726749
-16.065422 10.120694 2.2561994 112 0 0 0 8.5715199
-6.019372 10.458454 2.3206644 583 0 0 0 16.36305
-5.6574812 10.407123 2.2782016 611 0 0 0 16.7514
-5.3127985 10.366467 2.2405829 699.5 0 0 0 17.144939
-4.8093987 10.290393 2.1857402 747.25 0 0 0 17.73456
-4.2252784 10.205262 2.1708088 756 0 0 0 18.445076
-3.7208338 10.134045 2.3423839 705 0 0 0 19.101099
-3.337492 10.090158 2.3497784 771.66669 0 0 0 19.618967
-2.8691585 10.024843 2.3913229 760 0 0 0 20.265329
-20.099621 10.707082 2.4282241 233 0 0 0 7.4018302
-7.2071319 10.644295 2.3144505 476 0 0 0 15.19769
-6.7977304 10.58475 2.2650514 482 0 0 0 15.58426
-6.4137759 10.542097 2.2220328 496 0 0 0 15.98363
-63.430618 11.051186 2.1478889 13 0 0 0 2.3333199
-20.062515 11.982869 2.4888341 120 0 0 0 8.17805
-11.732834 13.836012 2.3689306 66 0 0 0 13.44164
-11.194299 14.22766 2.3629351 142 0 0 0 14.02487
-10.829577 14.479429 2.3594337 154 0 0 0 14.42127
-10.334303 14.544208 2.3278296 30 0 0 0 14.81524
2.8535569 16.925041 2.2377994 158 0 0 0 27.280199
3.4427879 17.721102 2.3519521 153 0 0 0 27.67654
4.0765381 18.509209 2.234549 158 0 0 0 28.06501
4.8399611 19.629963 2.1327 86 0 0 0 28.457741
5.6321211 20.625378 2.2532861 54 0 0 0 28.846081
6.6070237 22.024168 2.4206371 68 0 0 0 29.233049
8.4826956 23.909359 2.050102 101 0 0 0 30.009239
9.2710371 24.21907 2.0944555 126 0 0 0 30.40457
10.090311 24.529989 2.1409965 114 0 0 0 30.79734
10.958242 24.877851 2.1929634 109 0 0 0 31.179501
11.883358 25.269627 2.2512398 86 0 0 0 31.566679
12.804552 25.571865 2.3042643 108 0 0 0 31.9678
13.802625 25.946609 2.3664968 81 0 0 0 32.34927
30.879932 29.436487 2.344816 26 0 0 0 37.428593
29.73078 29.77109 2.3140366 26 0 0 0 37.043007
27.505268 30.395224 2.2573466 37 0 0 0 36.252529
28.920561 30.419739 2.309567 25 0 0 0 36.648602
39.659904 -70.186768 2.6084974 9 0 0 0 66.314682
1.1796371 -50.186005 2.9128275 29 0 0 0 74.124817
-8.6154261 -49.387936 2.9159038 8 0 0 0 77.25811
-4.7308421 -47.554287 2.7791789 13 0 0 0 76.08577
6.5912361 -44.801991 2.6240511 6 0 0 0 72.177139
7.3800268 -42.846466 2.5190969 14 0 0 0 71.786354
-23.018633 -36.29826 2.5043101 22 0 0 0 83.500404
-8.0650482 -32.077568 2.7594192 7 0 0 0 78.426201
-9.3744755 -30.809034 2.6879461 7 0 0 0 79.202065
-10.791003 -30.082346 2.6679542 14 0 0 0 79.991211
-10.064554 -30.381048 2.6716661 16 0 0 0 79.590309
-11.292875 -29.206558 2.6147437 7 0 0 0 80.373398
-11.928157 -28.73431 2.5980315 12 0 0 0 80.763443
8.3485317 -15.692144 2.789721 7 0 0 0 66.704857
6.6732402 -15.138678 2.6017902 11 0 0 0 67.881889
7.8822417 -13.982058 2.9187872 7 0 0 0 66.314682
8.180213 -13.715194 2.5074966 39 0 0 0 65.929611
8.7861414 -13.939463 2.5850048 46 0 0 0 65.542389
9.5529709 -13.624041 2.6077337 20 0 0 0 64.750679
7.7776709 -13.041619 2.7620602 42 0 0 0 65.929611
8.83078 -13.278406 2.5017145 118 0 0 0 65.14489
-10.659996 -12.974366 2.6500206 51 0 0 0 85.448753
-9.3561811 -12.59735 2.8670585 64 0 0 0 84.666626
0.60758555 -12.881549 2.9939191 16 0 0 0 73.738167
-10.093757 -12.284514 2.9040101 14 0 0 0 85.448753
-8.0494747 -12.024907 2.6467285 30 0 0 0 83.887405
0.89369476 -12.466503 2.9023786 7 0 0 0 73.34848
1.1972406 -12.423641 2.898159 20 0 0 0 72.955986
10.49282 -12.215149 2.7199171 42 0 0 0 63.187153
-12.323707 -11.724736 2.6821074 19 0 0 0 87.417274
-8.4612036 -11.993973 2.6840653 31 0 0 0 84.271202
7.8993106 -11.88095 2.9465868 87 0 0 0 65.14489
12.946561 -11.777877 2.7304153 25 0 0 0 61.235821
-4.7978673 -11.147151 2.5239167 90.5 0 0 0 80.960083
2.2510853 -11.457514 2.9988973 34 0 0 0 71.401268
7.9668093 -11.37036 2.5254598 288 0 0 0 64.750679
-24.617382 -10.91095 2.8878627 17 0 0 0 92.876541
-16.29888 -10.888726 2.5973716 25 0 0 0 90.146652
1.8103409 -10.594355 2.7631226 19 0 0 0 71.786354
4.2535849 -10.712129 2.817862 22 0 0 0 68.46386
7.6079001 -10.859291 2.7399321 68 0 0 0 64.750679
8.2127628 -10.848941 2.8097744 87 0 0 0 64.168983
8.6096916 -10.541843 2.8090522 125 0 0 0 63.576221
2.5836596 -10.432907 2.6296563 123 0 0 0 70.623085
3.7544019 -10.183608 2.7878392 44.5 0 0 0 68.85759
4.1544785 -10.10879 2.5377398 69 0 0 0 68.267189
1.792552 -9.7685261 2.8024144 59 0 0 0 71.593811
3.6666977 -9.5862846 2.892766 217 0 0 0 68.66053
4.2013445 -9.5517492 2.6803753 75 0 0 0 67.881889
4.6461954 -9.8946762 2.5372844 18 0 0 0 67.492119
8.8470764 -9.8087606 2.725517 46 0 0 0 62.801449
50.027363 -9.9982262 2.7988486 16 0 0 0 52.645962
-19.112844 -9.0418682 2.795177 41 0 0 0 92.480865
2.5814056 -9.4266529 2.9977832 29 0 0 0 70.224709
4.3016858 -9.1654978 2.601295 47 0 0 0 67.492119
5.2965002 -9.4104996 2.7705011 29 0 0 0 66.314682
7.4659958 -9.1441813 2.730293 37 0 0 0 63.576221
4.0686121 -8.6718159 2.7009499 25 0 0 0 67.492119
36.304077 -8.183547 2.9797504 76 0 0 0 53.039993
-20.68499 -7.982933 2.9273124 80 0 0 0 93.662598
30.221754 -7.5999031 2.5020492 74 0 0 0 53.424927
11.928055 -6.7869406 2.8201144 87 0 0 0 57.71743
24.36677 -6.7705469 2.6533539 50 0 0 0 53.815781
15.952989 -6.1781068 2.6551785 308 0 0 0 55.380032
20.98855 -6.3891168 2.847883 95 0 0 0 54.209049
11.106045 -5.2773714 2.6799889 458 0 0 0 56.546673
5.8306131 -4.5793762 2.7321997 600.5 0 0 0 60.061913
-9.8405161 -4.0788579 2.9981434 212 0 0 0 93.267265
5.9301958 -4.4260926 2.7268412 630 0 0 0 59.67289
-9.1375294 -3.5293508 2.9997528 333 0 0 0 93.662598
-6.7094626 -3.5891457 2.8976932 162 0 0 0 91.704369
-16.04501 -3.1963062 2.5698926 182 0 0 0 96.376869
-15.95349 -3.1780722 2.9578185 167 0 0 0 96.376869
-14.687158 -3.3022549 2.7401221 236 0 0 0 95.993614
-13.532951 -3.3934083 2.5423636 254 0 0 0 95.597763
-13.464796 -3.3763099 2.8709826 229 0 0 0 95.597763
-12.407261 -3.4377246 2.8220448 283 0 0 0 95.214485
-9.0493479 -3.4934738 2.7326567 414 0 0 0 93.662598
-7.1433325 -2.7602363 2.9155753 94 0 0 0 93.662598
-13.005225 6.1112905 2.7700467 710 0 0 0 6.6251898
-13.118338 6.5602183 2.6478291 409 0 0 0 7.0047698
-13.669457 7.2613726 2.7933288 338 0 0 0 7.4018302
-14.706503 8.2831573 2.6298363 492 0 0 0 7.7880502
-14.257804 8.0297279 2.9520371 206 0 0 0 7.7880502
-14.878741 8.867178 2.6976893 226 0 0 0 8.17805
0.84453464 9.4829464 2.7784595 887 0 0 0 26.111111
1.192692 9.4355488 2.7766309 904.25 0 0 0 26.702631
-15.639053 9.8506269 2.8772531 197 0 0 0 8.5715199
-2.5915771 9.9718208 2.7428098 727 0 0 0 20.657049
-2.1936653 9.9181728 2.7052958 768.5 0 0 0 21.240864
-1.6785288 9.8520727 2.6630344 814.75 0 0 0 22.01675
-1.2014395 9.7759495 2.795485 768.79999 0 0 0 22.759991
-0.68847966 9.7053022 2.8351889 759.25 0 0 0 23.578751
-0.20977885 9.6370535 2.8103426 813.5 0 0 0 24.36042
0.26166812 9.5651894 2.7911971 864.25 0 0 0 25.140408
0.61172819 9.5113087 2.7808249 896 0 0 0 25.726749
-6.0164995 10.451593 2.7602479 507 0 0 0 16.36305
-5.6539421 10.399475 2.8539388 537 0 0 0 16.7514
-5.3059654 10.35178 2.8050523 588 0 0 0 17.144939
-4.8054161 10.280569 2.7373776 615.75 0 0 0 17.73456
-4.1694012 10.18512 2.6558547 678.5 0 0 0 18.510124
-3.715323 10.119761 2.867121 660.5 0 0 0 19.101099
-3.2840874 10.066407 2.8172102 663.25 0 0 0 19.68384
-2.864315 10.010748 2.7712126 708.5 0 0 0 20.265329
-20.097662 10.703511 2.9850004 169 0 0 0 7.4018302
-7.1988277 10.632233 2.781903 430.5 0 0 0 15.19769
-6.7928448 10.577398 2.7238836 472 0 0 0 15.58426
-6.3979349 10.515971 2.6672511 524 0 0 0 15.98363
-19.415079 11.591203 2.9620705 168 0 0 0 8.17805
-14.345086 12.921551 2.5240548 102 0 0 0 11.28973
97.06617 14.340858 2.9223089 16 0 0 0 47.182072
-10.349342 14.567798 2.7717321 37 0 0 0 14.81524
2.8590276 16.95188 2.6667166 177 0 0 0 27.280199
3.4382894 17.694418 2.7945578 124 0 0 0 27.67654
4.1180034 18.695024 2.9658482 122 0 0 0 28.06501
4.8377752 19.632116 2.6302254 118 0 0 0 28.457741
5.6345263 20.644547 2.7817073 119 0 0 0 28.846081
6.6147137 22.059879 2.9909966 66 0 0 0 29.233049
7.6790571 23.463131 2.5962796 66 0 0 0 29.62348
8.4829025 23.906832 2.6664453 149 0 0 0 30.009239
9.2420559 24.141171 2.7161343 75 0 0 0 30.40457
10.089445 24.525122 2.7852097 106 0 0 0 30.79734
10.950225 24.857136 2.8514504 98 0 0 0 31.179501
11.874155 25.247648 2.9275718 116 0 0 0 31.566679
12.806699 25.573668 2.9997482 104 0 0 0 31.9678
20.524338 26.375055 2.681581 53 0 0 0 35.085239
21.497387 26.265203 2.7221272 50 0 0 0 35.475006
22.458363 26.101391 2.7603576 52 0 0 0 35.865726
16.937933 26.846905 2.5514767 74 0 0 0 33.527401
17.777168 26.697964 2.5770946 76 0 0 0 33.913979
18.675529 26.603708 2.6104403 80 0 0 0 34.29892
62.541389 -84.502495 3.3505981 9 0 0 0 64.360909
-5.1504016 -41.475361 3.4756558 20 0 0 0 76.480286
0.96985662 -41.104065 3.415293 19 0 0 0 74.124817
2.7760038 -38.175903 3.1797092 10 0 0 0 73.34848
-24.250219 -32.669323 3.3830252 7 0 0 0 84.666626
-8.6580734 -31.184101 3.4869115 17 0 0 0 78.82
-13.165683 -29.645348 3.49493 20 0 0 0 81.156723
-11.566131 -29.916864 3.4564166 11 0 0 0 80.373398
-10.585427 -29.51053 3.3791909 15 0 0 0 79.991211
-32.391876 -25.26894 3.4042213 5 0 0 0 88.970428
56.885395 -25.286324 3.4332068 9 0 0 0 56.153553
7.1706471 -16.257694 3.2319288 13 0 0 0 67.881889
6.3090777 -15.314427 3.4233806 20 0 0 0 68.267189
7.5776443 -14.245363 3.3323648 16 0 0 0 66.704857
9.0824013 -14.405071 3.0922468 35 0 0 0 65.542389
1.663726 -13.702365 3.2015121 27 0 0 0 72.570473
6.0351334 -13.694445 3.0956068 19 0 0 0 67.881889
6.9579692 -13.894781 3.2115464 7 0 0 0 67.10405
0.79662681 -13.38158 3.4401865 13.5 0 0 0 73.54332
7.2370768 -12.841437 3.0461514 27 0 0 0 66.314682
7.6033554 -12.745392 3.2468081 63.5 0 0 0 65.929611
12.873914 -12.919085 3.298064 13 0 0 0 62.014431
13.102478 -12.51829 3.2759314 17 0 0 0 61.62608
1.1807775 -12.250877 3.1604156 23 0 0 0 72.955986
7.8082175 -12.391524 3.0249643 55 0 0 0 65.542389
9.0103836 -12.197233 3.4991326 34 0 0 0 64.360909
10.329309 -12.023188 3.2644966 23 0 0 0 63.187153
1.4313111 -11.81683 3.2069619 26 0 0 0 72.570473
12.284347 -11.737932 3.4922695 15 0 0 0 61.62608
1.9103317 -11.150258 3.4659462 125 0 0 0 71.786354
7.8544827 -11.203528 3.1615095 43 0 0 0 64.750679
12.971676 -11.230353 3.101445 140 0 0 0 60.847618
2.1228085 -10.798109 3.372206 42 0 0 0 71.401268
7.6917372 -10.971068 3.4259489 41 0 0 0 64.750679
8.3194485 -10.707079 3.2983332 135.5 0 0 0 63.977058
0.47936374 -10.253139 3.402154 32 0 0 0 73.738167
1.6407375 -10.363961 3.4769714 186.5 0 0 0 71.98175
2.3135059 -10.42845 3.0112324 134 0 0 0 71.003555
2.5590487 -10.325925 3.2585232 186.66667 0 0 0 70.623085
4.2835727 -10.416207 3.1707501 30 0 0 0 68.267189
4.6062717 -10.462124 3.217294 46 0 0 0 67.881889
7.6016579 -10.297935 3.2735507 27 0 0 0 64.360909
2.143878 -9.667181 3.1603699 67 0 0 0 71.003555
3.6651838 -9.5786963 3.3968596 53 0 0 0 68.66053
8.1060724 -9.9221458 3.2751925 96 0 0 0 63.576221
8.6171494 -9.7886934 3.332123 88.5 0 0 0 62.994301
-20.970037 -9.2984495 3.0289643 54 0 0 0 92.876541
-19.158369 -9.0634079 3.3259475 13 0 0 0 92.480865
2.0364897 -9.1756859 3.3474579 46 0 0 0 71.003555
2.5374367 -9.2723684 3.1869831 20 0 0 0 70.224709
3.4720328 -9.0678759 3.4559133 20 0 0 0 68.66053
3.8903675 -9.462038 3.1349599 227 0 0 0 68.267189
4.2500544 -9.3436651 3.1450377 30 0 0 0 67.687004
4.7677598 -9.2469597 3.1862888 49.5 0 0 0 66.904449
7.5961967 -9.3001623 3.3705235 55 0 0 0 63.576221
2.201575 -8.8852854 3.4851975 22 0 0 0 70.623085
7.1028562 -8.6953945 3.4302816 43 0 0 0 63.576221
16.946619 -8.558877 3.4169166 44 0 0 0 56.933807
-20.409746 -7.8766775 3.4299142 48 0 0 0 93.662598
30.156519 -7.5823474 3.2529171 65 0 0 0 53.424927
6.4196482 -7.4844394 3.2608371 52 0 0 0 63.187153
8.4565611 -7.3260221 3.4144244 265 0 0 0 60.847618
8.7103481 -7.178483 3.4436355 168 0 0 0 60.455021
15.996095 -7.1166191 3.1521764 189 0 0 0 56.153553
21.393385 -7.0901308 3.4840245 70 0 0 0 54.60651
11.391544 -6.8543797 3.386858 119 0 0 0 58.10342
11.792665 -6.7062483 3.2856514 109 0 0 0 57.71743
15.944446 -6.6291776 3.1086521 174 0 0 0 55.7626
-10.203065 -6.1160221 3.0512137 33 0 0 0 90.931725
-5.2611775 -6.4024644 3.1558521 257 0 0 0 85.448753
9.4377098 -6.3316374 3.4649651 194 0 0 0 58.888618
15.8543 -6.1387601 3.2704163 258.5 0 0 0 55.380032
24.408457 -6.1344266 3.2594657 34 0 0 0 53.424927
8.8193913 -5.6099439 3.1895797 80 0 0 0 58.505089
10.992175 -5.8992753 3.4899116 42 0 0 0 57.328739
11.041712 -5.9265013 3.1935816 436 0 0 0 57.328739
-15.597 -5.1558156 3.3928618 29 0 0 0 94.447075
-9.6852684 -5.1802649 3.3613131 41 0 0 0 91.704369
-8.6846533 -5.2062693 3.2264147 19 0 0 0 90.931725
-8.4097395 -5.3246584 3.2954376 77 0 0 0 90.549088
11.111785 -5.2775173 3.2875888 504 0 0 0 56.546673
15.0193 -5.3953881 3.2679827 308 0 0 0 54.985142
17.882492 -5.444602 3.358871 25 0 0 0 54.209049
-9.7089834 -4.5960894 3.2874691 76 0 0 0 92.480865
-9.0536461 -4.5605288 3.1043572 62 0 0 0 92.0886
-7.8794413 -4.5954356 3.3569388 64.5 0 0 0 91.122627
16.239506 -4.9452615 3.4723384 39 0 0 0 54.209049
-8.6727734 -4.2339721 3.1953971 48 0 0 0 92.284729
-7.8120084 -4.3027468 3.2823148 65 0 0 0 91.508949
15.671585 -4.354702 3.3281038 125 0 0 0 53.815781
-14.210273 -3.5658686 3.3865902 247 0 0 0 95.597763
-9.2148552 -3.68736 3.1632988 276 0 0 0 93.464935
-8.9595013 -3.9753871 3.0021276 196 0 0 0 92.876541
-8.0449505 -3.6909871 3.2566054 82.5 0 0 0 92.678703
-7.6822243 -3.7526722 3.252528 55.5 0 0 0 92.284729
14.171232 -3.7479162 3.362844 97.5 0 0 0 53.620354
-14.320642 -3.22246 3.3925748 94 0 0 0 95.993614
-9.5777359 -3.1694653 3.088172 450 0 0 0 94.447075
-9.3317671 -3.2575958 3.1891677 485.66666 0 0 0 94.183983
61.179844 -3.0501773 3.3432319 9 0 0 0 50.304314
-12.053391 -2.7122831 3.1636498 124 0 0 0 95.993614
-9.8371525 -2.989871 3.1464324 111 0 0 0 94.841217
-10.240714 -2.0438039 3.1944382 134 0 0 0 96.376869
-9.5592651 -2.1527917 3.3612642 126.5 0 0 0 95.993614
-9.6745205 -1.8095889 3.3746843 248.5 0 0 0 96.57251
-9.1786127 -1.5972518 3.0833931 38 0 0 0 96.768158
-10.242877 -1.2687513 3.4121666 128 0 0 0 97.559341
-9.5363293 -1.184641 3.4144814 106 0 0 0 97.559341
-9.1381788 -1.3635187 3.28424 65 0 0 0 97.162994
-10.445498 -0.77625048 3.462002 78 0 0 0 98.329155
-13.013403 6.1141996 3.2961869 550 0 0 0 6.6251898
-13.162719 6.5830679 3.1947398 328 0 0 0 7.0047698
-13.708266 7.2835135 3.1804554 301 0 0 0 7.4018302
-14.263576 8.0344334 3.3533459 267 0 0 0 7.7880502
-14.908097 8.8863611 3.1299491 199 0 0 0 8.17805
0.84604758 9.4829435 3.1307111 689 0 0 0 26.111111
1.1951295 9.4416447 3.1307733 707 0 0 0 26.702629
-15.68306 9.8802338 3.3415651 154 0 0 0 8.5715199
-3.127053 9.9949541 3.1725614 649 0 0 0 19.87846
-2.7235298 9.9717026 3.1327219 474 0 0 0 20.461189
-2.1920772 9.9065113 3.0763805 673 0 0 0 21.240864
-1.6321025 9.8177481 3.1005363 552.66669 0 0 0 22.082552
-1.1709356 9.7347775 3.2178376 447 0 0 0 22.798038
-0.68472987 9.6688652 3.1827323 568 0 0 0 23.578751
-0.20769438 9.6047106 3.1560302 502 0 0 0 24.36042
0.26327837 9.5653105 3.1450062 497.5 0 0 0 25.140409
0.61412895 9.5230856 3.1372964 685 0 0 0 25.726749
-19.622761 10.450945 3.4621208 206 0 0 0 7.4018302
-6.1823034 10.442486 3.0739508 448.5 0 0 0 16.17334
-4.7835546 10.23539 3.1425042 501 0 0 0 17.73456
-4.1670275 10.181734 3.0611877 498.5 0 0 0 18.510124
-3.4113102 10.037811 3.2108798 492 0 0 0 19.48922
-2.1647651 10.424357 3.4897771 368 0 0 0 21.43186
-1.8995687 10.423127 3.4734881 64 0 0 0 21.81934
-55.07827 10.993081 3.2457519 10 0 0 0 2.7232399
-6.755969 10.519394 3.1662524 365 0 0 0 15.58426
-5.7527113 10.905975 3.4278946 238.5 0 0 0 16.94817
-4.2191358 10.691883 3.4789898 345 0 0 0 18.705271
-3.9162493 10.680482 3.4438035 137 0 0 0 19.101099
-53.977299 12.154925 3.1951876 27 0 0 0 3.1195099
-14.347062 12.925286 3.0000355 103 0 0 0 11.28973
-52.721237 13.236329 3.1368141 11 0 0 0 3.50755
-9.6860285 13.625863 3.0059597 25 0 0 0 14.81524
2.8629143 16.969616 3.0954256 140 0 0 0 27.280199
56.201054 17.028151 3.1997893 18 0 0 0 44.850471
3.4531715 17.764786 3.2535386 112 0 0 0 27.67654
4.0834584 18.537842 3.4110725 90 0 0 0 28.06501
4.8290453 19.593702 3.1246593 81 0 0 0 28.457741
5.6600285 20.732964 3.3255339 34 0 0 0 28.846081
7.6812253 23.480072 3.2058132 43 0 0 0 29.62348
8.4813995 23.912626 3.2912109 116 0 0 0 30.009239
9.2580147 24.19203 3.359005 120 0 0 0 30.40457
10.097851 24.554644 3.4416699 77 0 0 0 30.79734
13.818566 25.974012 3.0842464 69 0 0 0 32.34927
14.894919 26.405445 3.1765485 46 0 0 0 32.738388
19.591526 26.495041 3.4463763 68 0 0 0 34.68819
20.505665 26.349312 3.4908721 63 0 0 0 35.085239
16.950996 26.865345 3.3255596 88 0 0 0 33.527401
17.774235 26.691517 3.3561988 77 0 0 0 33.913979
18.673618 26.599014 3.4002154 82 0 0 0 34.29892
30.869417 29.434977 3.4072931 15 0 0 0 37.428593
29.725298 29.774122 3.3623974 30 0 0 0 37.043007
28.939205 30.447966 3.3581667 26 0 0 0 36.648602
54.068584 30.623381 3.3877373 7 0 0 0 41.335472
28.322905 31.304979 3.3757143 28 0 0 0 36.252529
50.707798 32.110157 3.2751143 27 0 0 0 40.556873
41.422054 -53.199207 3.8065815 19 0 0 0 63.977058
5.6387944 -46.071022 3.8459737 9 0 0 0 72.570473
-0.039028678 -43.864864 3.6424928 15 0 0 0 74.525238
-10.756992 -32.47897 3.684763 21 0 0 0 79.590309
-9.8276348 -32.305378 3.6369336 18 0 0 0 79.202065
-8.0501003 -32.022224 3.5565867 12 0 0 0 78.426201
-12.521584 -30.168406 3.519233 8 0 0 0 80.763443
-35.567635 -25.041777 3.5997407 9 0 0 0 89.760017
45.097374 -20.039343 3.9580901 10 0 0 0 56.153553
6.8492327 -13.668283 3.910187 27 0 0 0 67.10405
7.8319092 -13.88315 3.6816783 23 0 0 0 66.314682
0.79363203 -13.303282 3.751322 31.5 0 0 0 73.54332
7.1578107 -13.450193 3.8960228 73 0 0 0 66.704857
8.3629112 -13.260026 3.6193674 17 0 0 0 65.542389
1.2414957 -12.857739 3.6363986 29 0 0 0 72.955986
1.7075535 -12.761548 3.7844155 32 0 0 0 72.37381
7.2850494 -12.209431 3.6359618 21 0 0 0 65.929611
0.26849362 -11.872243 3.931679 16 0 0 0 74.124817
1.4138767 -11.663618 3.8895674 40 0 0 0 72.570473
1.7155658 -11.724463 3.6291399 79 0 0 0 72.177139
7.2065878 -11.748285 3.6965098 63 0 0 0 65.736
7.7704134 -11.68027 3.5862999 64 0 0 0 65.14489
0.82021672 -11.425969 3.5100484 16 0 0 0 73.34848
7.3402214 -11.035471 3.7196276 23 0 0 0 65.14489
12.978117 -11.234491 3.5256202 185 0 0 0 60.847618
64.256516 -11.204844 3.5666637 15 0 0 0 52.252312
1.5364709 -10.50311 3.7770972 79 0 0 0 72.177139
2.9181972 -10.627863 3.9194732 38 0 0 0 70.224709
6.8772612 -10.912794 3.6218388 21 0 0 0 65.542389
8.3484564 -10.741969 3.8146651 53 0 0 0 63.977058
9.2134333 -10.721851 3.9607022 65 0 0 0 63.187153
13.355625 -10.993564 3.9754825 134 0 0 0 60.455021
0.98700655 -10.229948 3.9100223 31 0 0 0 72.955986
1.245048 -10.265973 3.8060467 47 0 0 0 72.570473
2.2358065 -10.056241 3.9185503 34 0 0 0 71.003555
7.2280617 -10.311866 3.5351365 68 0 0 0 64.750679
7.7012501 -10.427971 3.7966142 63 0 0 0 64.360909
10.402479 -10.440235 3.7584169 16 0 0 0 62.014431
15.833398 -10.058408 3.8426805 28 0 0 0 58.505089
1.7107198 -9.9866905 3.7308266 69 0 0 0 71.786354
3.6835186 -9.6125078 3.9142947 36 0 0 0 68.66053
4.2976923 -9.7635403 3.5311728 23 0 0 0 67.881889
4.7678289 -9.5236492 3.7861285 36 0 0 0 67.10405
5.1540418 -9.7010889 3.6339586 25 0 0 0 66.704857
5.9570289 -9.9915552 3.8447478 28 0 0 0 65.929611
2.5443251 -9.2803669 3.661973 49 0 0 0 70.224709
3.8393109 -9.3310184 3.5896547 94 0 0 0 68.267189
4.0317168 -9.1527758 3.8033578 58 0 0 0 67.881889
5.015615 -9.433095 3.7972918 49 0 0 0 66.704857
6.306973 -9.0029335 3.6332064 71 0 0 0 64.750679
7.9219308 -9.221714 3.7105639 47 0 0 0 63.187153
45.462383 -9.0771246 3.7016432 30 0 0 0 52.645962
-18.648857 -8.8223028 3.7487388 48 0 0 0 92.480865
4.1898651 -8.9151058 3.5046496 149 0 0 0 67.492119
4.7437181 -8.6640205 3.6324244 59 0 0 0 66.509766
5.0088205 -8.8889122 3.8776987 64 0 0 0 66.314682
6.3875861 -8.6513548 3.8186057 51 0 0 0 64.360909
8.0701351 -8.9407721 3.6757798 50 0 0 0 62.801449
14.507369 -8.7217646 3.8852873 128 0 0 0 58.10342
16.643915 -8.925024 3.8654966 36 0 0 0 57.328739
-18.999638 -8.4245453 3.7756743 69 0 0 0 92.876541
6.9191461 -8.4665756 3.8808901 36 0 0 0 63.576221
8.296504 -8.1969748 3.6561372 32.666668 0 0 0 61.884979
9.2462492 -8.4156284 3.5036125 135 0 0 0 61.235821
36.296364 -8.1804724 3.8837683 63 0 0 0 53.039993
-21.422571 -7.6695237 3.5653808 43 0 0 0 94.052444
-10.47258 -7.7684498 3.9870505 21 0 0 0 89.365669
-8.8317604 -7.803854 3.8989649 33 0 0 0 87.991287
-7.9111557 -7.5312276 3.8830884 64 0 0 0 87.417274
7.9523964 -7.7946792 3.81426 58 0 0 0 61.820255
8.3237944 -7.5784159 3.7145481 18 0 0 0 61.235821
11.792639 -7.6995935 3.761889 31 0 0 0 58.696854
12.127477 -7.7068915 3.6580966 32 0 0 0 58.505089
-9.5327215 -7.4396038 3.6997924 42 0 0 0 88.970428
-9.4658146 -7.3847332 3.9702396 10 0 0 0 88.970428
7.6021886 -7.2679248 3.7318676 39 0 0 0 61.62608
8.7023373 -7.173562 3.720331 92 0 0 0 60.455021
10.561151 -7.4634438 3.9378769 70 0 0 0 59.274593
14.601132 -7.3729377 3.7532463 164 0 0 0 56.933807
-19.394238 -6.9432511 3.7405589 48 0 0 0 94.052444
-12.371362 -6.6150651 3.9404531 58 0 0 0 91.704369
9.7514486 -6.5426354 3.8699718 84 0 0 0 58.888618
11.32205 -6.8118858 3.6951997 17 0 0 0 58.10342
15.340302 -6.8208485 3.8495636 26 0 0 0 56.153553
15.672446 -6.9722004 3.5118799 283 0 0 0 56.153553
21.736416 -6.6151695 3.5110624 109 0 0 0 54.209049
-10.93571 -6.1988797 3.8430636 51 0 0 0 91.31353
10.093432 -6.4173117 3.9404664 78 0 0 0 58.505089
10.974543 -6.2418628 3.5320189 30 0 0 0 57.71743
15.096263 -6.2729845 3.748836 103 0 0 0 55.7626
-12.056819 -5.7055159 3.7473128 50 0 0 0 92.480865
-11.345828 -5.7133737 3.5705462 78 0 0 0 92.0886
9.1420927 -5.5049291 3.5197737 33 0 0 0 58.10342
11.159687 -5.9854631 3.8540401 74 0 0 0 57.328739
11.655754 -5.8895836 3.6508663 164 0 0 0 56.933807
20.873079 -5.7955422 3.885479 15 0 0 0 53.815781
-11.612516 -5.1507039 3.5699708 9 0 0 0 92.876541
11.062288 -5.2507219 3.7271345 330 0 0 0 56.546673
12.256248 -5.2729092 3.7280188 88 0 0 0 55.958076
14.943268 -5.3644857 3.6407244 230 0 0 0 54.985142
16.408155 -5.4368496 3.9594243 170 0 0 0 54.60651
23.45508 -5.2850132 3.7104642 49 0 0 0 53.039993
-14.958271 -4.5437822 3.9959419 36 0 0 0 94.841217
-14.469726 -4.7859149 3.5228951 39 0 0 0 94.447075
-13.319016 -4.7705646 3.9711821 81 0 0 0 94.052444
9.2540998 -4.6751428 3.9292371 47 0 0 0 56.933807
10.964393 -4.8795285 3.9508157 280 0 0 0 56.153553
15.104488 -4.5972991 3.6194942 133 0 0 0 54.209049
37.962845 -4.7071333 3.9870546 21 0 0 0 51.478233
-18.360746 -4.1281991 3.8799937 76 0 0 0 95.993614
-14.467051 -4.00983 3.8381393 152 0 0 0 95.214485
-10.021063 -4.1537104 3.5871437 91 0 0 0 93.267265
-9.5895567 -4.2570744 3.7276387 59 0 0 0 92.876541
-8.8495817 -4.4596095 3.5227909 183 0 0 0 92.0886
17.275494 -4.3440218 3.6404061 301 0 0 0 53.424927
23.620888 -4.1140871 3.6987188 22 0 0 0 52.252312
-17.894009 -3.5646131 3.7622318 13 0 0 0 96.376869
-14.055808 -3.5270982 3.7056835 248 0 0 0 95.597763
-12.195064 -3.7043254 3.5799227 58 0 0 0 94.841217
-9.2921114 -3.7219596 3.5575762 204.5 0 0 0 93.464935
16.852427 -3.7960804 3.9545815 37 0 0 0 53.039993
17.168907 -3.8709085 3.5966949 202 0 0 0 53.039993
-19.104088 -3.3207371 3.9956973 34 0 0 0 96.768158
-16.900602 -3.3697903 3.9768903 26 0 0 0 96.376869
-13.49911 -3.0375891 3.8827746 157 0 0 0 95.993614
-12.494863 -3.4654908 3.9598653 78 0 0 0 95.214485
-11.44114 -3.4752698 3.9498727 110 0 0 0 94.841217
-9.8041058 -3.2462716 3.668771 41 0 0 0 94.447075
-9.419383 -3.2904708 3.7091658 308.33334 0 0 0 94.183983
9.5135221 -3.4160266 3.8305283 127 0 0 0 54.985142
10.846413 -3.0145831 3.7067335 59 0 0 0 53.815781
15.254457 -3.4368396 3.9682631 106 0 0 0 53.039993
15.671623 -3.1279647 3.660995 39 0 0 0 52.645962
17.11405 -3.4184623 3.5663061 258 0 0 0 52.645962
-14.230119 -2.8373513 3.7096558 225 0 0 0 96.376869
-9.609127 -2.9223657 3.6915233 65 0 0 0 94.841217
9.3004265 -2.7073135 3.6724105 86.5 0 0 0 54.012413
10.013144 -2.5157332 3.9105918 58 0 0 0 53.424927
14.973192 -2.9885759 3.8753736 118 0 0 0 52.645962
15.171513 -2.6415389 3.9079196 67 0 0 0 52.252312
16.810518 -2.5018141 3.8899713 33 0 0 0 51.867641
17.616982 -2.6250792 3.6379249 56 0 0 0 51.867641
-10.612259 -2.1198668 3.8418856 128 0 0 0 96.376869
-9.2319775 -2.1975534 3.6055205 132 0 0 0 95.795685
10.204395 -2.0350835 3.940573 90 0 0 0 52.645962
10.726631 -2.2767804 3.8811166 38.5 0 0 0 52.842979
16.178129 -2.0024095 3.7324352 29 0 0 0 51.478233
-10.952593 -1.6302756 3.65872 260 0 0 0 97.162994
-9.5242405 -1.6608069 3.6719511 25 0 0 0 96.768158
10.743687 -1.8726513 3.5914123 39 0 0 0 52.252312
16.816908 -1.6620854 3.8672917 40 0 0 0 51.091179
17.070009 -1.2636685 3.9162817 22 0 0 0 50.693394
-9.5182133 -0.71073657 3.6250255 27 0 0 0 98.329155
-9.1714373 -0.91155136 3.5015948 117 0 0 0 97.945251
-13.377057 0.66391677 3.7314806 126 0 0 0 0.38486999
-10.516036 0.77521139 3.9586987 99 0 0 0 0.77288997
-14.528617 1.075914 3.7009633 34 0 0 0 0.77288997
-14.143856 1.0479859 3.9517806 21 0 0 0 0.77288997
47.464157 1.1436297 3.7794986 50 0 0 0 49.136158
47.213158 2.2994802 3.7624195 25 0 0 0 48.743832
-13.009243 6.1134148 3.6452825 528 0 0 0 6.6251898
-13.173313 6.5888567 3.7349486 268 0 0 0 7.0047698
-13.695551 7.2756424 3.743161 247.5 0 0 0 7.4018302
-60.484917 7.5103612 3.5286517 29 0 0 0 1.56321
-14.307303 8.0574322 3.7625923 209 0 0 0 7.7880502
-14.928033 8.8988838 3.770823 211.5 0 0 0 8.17805
-61.648495 9.1939707 3.6055062 28 0 0 0 1.9504
-15.67605 9.8774443 3.7934082 176 0 0 0 8.5715199
-2.8540492 10.478258 3.5579958 462 0 0 0 20.461189
-2.4344039 10.433687 3.5110452 412 0 0 0 21.04987
-1.102511 10.246117 3.6330171 175 0 0 0 22.988279
-0.76403975 10.232078 3.703171 283 0 0 0 23.514513
-0.21654171 10.107777 3.5674579 528 0 0 0 24.36042
0.27869913 10.054785 3.5508962 487 0 0 0 25.140409
0.77171952 10.012993 3.5467598 442 0 0 0 25.91893
-6.2994771 10.955865 3.5127618 260 0 0 0 16.36305
-4.695323 10.728706 3.5439477 290.5 0 0 0 18.121655
-63.426857 11.054739 3.7207551 21 0 0 0 2.3333199
117.83987 11.531326 3.5207171 10 0 0 0 47.971539
3.0395629 17.978241 3.7263656 130 0 0 0 27.280199
-15.606476 18.918812 3.800725 20 0 0 0 13.6373
-20.444221 19.392839 3.6757255 48 0 0 0 11.68651
-16.624741 19.181494 3.934195 114 0 0 0 13.24598
7.019546 23.387802 3.7738726 33 0 0 0 29.233049
7.9170074 24.188868 3.93186 54 0 0 0 29.62348
10.921906 24.802351 3.5119374 71 0 0 0 31.179501
11.831626 25.166656 3.6024249 57 0 0 0 31.566679
21.453377 26.209856 3.5400748 65 0 0 0 35.475006
22.453918 26.094517 3.5967674 48 0 0 0 35.865726
54.692493 36.541683 3.5871737 7 0 0 0 40.164261
52.579582 37.031479 3.509176 19 0 0 0 39.77216
-14.676878 -73.509346 4.3445807 22 0 0 0 77.648926
-16.491795 -73.199753 4.3497581 13 0 0 0 78.033234
-2.6527731 -53.194244 4.4179029 11 0 0 0 75.298004
-3.9280832 -52.728138 4.3870029 9 0 0 0 75.696045
-5.1927085 -52.338806 4.3648753 25 0 0 0 76.08577
-1.2755134 -50.3424 4.1779943 17 0 0 0 74.909592
-5.0923243 -41.018105 4.4416852 33 0 0 0 76.480286
-0.98450601 -38.658218 4.1552229 8 0 0 0 74.909592
-8.2535152 -32.862579 4.4820333 5 0 0 0 78.426201
-10.456741 -31.591974 4.4030113 16 0 0 0 79.590309
-8.7489491 -31.537458 4.3305879 10 0 0 0 78.82
-22.11116 -31.36598 4.1255131 9 0 0 0 84.271202
-9.5591555 -31.443813 4.3486671 18 0 0 0 79.202065
-11.076703 -30.902586 4.3439469 10 0 0 0 79.991211
-12.592623 -30.356892 4.3487802 9 0 0 0 80.763443
7.3595352 -13.824831 4.3932266 16 0 0 0 66.704857
1.2747951 -13.172108 4.213397 15.5 0 0 0 72.955986
6.7024455 -13.37473 4.198864 35 0 0 0 67.10405
7.15239 -12.680755 4.0852838 31 0 0 0 66.314682
2.386879 -12.12786 4.0897255 34 0 0 0 71.401268
6.8134584 -12.076407 4.2337542 24 0 0 0 66.314682
8.1590757 -12.25308 4.4899015 28 0 0 0 65.14489
0.26601374 -11.591285 4.1235847 6 0 0 0 74.124817
0.71075255 -11.870558 4.2287893 34.5 0 0 0 73.54332
2.3363466 -11.84971 4.2930994 52 0 0 0 71.401268
2.9588025 -11.896841 4.3565669 18 0 0 0 70.623085
13.124715 -11.930624 4.0775042 73 0 0 0 61.235821
-0.018008938 -11.181947 4.251946 9 0 0 0 74.525238
0.26249689 -11.432753 4.3477616 44 0 0 0 74.124817
0.67759347 -11.31214 4.3089075 29 0 0 0 73.54332
6.4603472 -11.457064 4.3435173 23 0 0 0 66.314682
6.8550897 -11.484762 4.0842614 37 0 0 0 65.929611
7.1641517 -11.154736 4.2675681 40 0 0 0 65.409889
7.8041654 -11.123201 4.1461692 35 0 0 0 64.750679
13.241711 -11.266538 4.2807088 22.333334 0 0 0 60.716755
1.5777856 -10.775751 4.1413288 41 0 0 0 72.177139
6.6546345 -10.548735 4.4251442 29 0 0 0 65.542389
8.4681835 -10.889796 4.2070975 54 0 0 0 63.977058
7.8281937 -10.073247 4.2093859 169 0 0 0 63.977058
4.0109277 -9.7422476 4.0050626 24 0 0 0 68.267189
4.6498094 -9.8830442 4.1501236 19 0 0 0 67.492119
4.7518377 -9.4903612 4.0334029 40 0 0 0 67.10405
-18.200886 -8.6103201 4.1545901 20 0 0 0 92.480865
-16.972801 -8.5482903 4.3884969 15 0 0 0 92.0886
-16.469559 -8.8074541 4.3140178 31 0 0 0 91.704369
-11.503134 -8.5304184 4.0242405 9 0 0 0 89.365669
16.299118 -8.73594 4.2390428 21 0 0 0 57.328739
-18.794046 -8.3333549 4.2407403 34 0 0 0 92.876541
-17.421957 -8.2454453 4.4499722 16 0 0 0 92.480865
-12.369809 -8.2658625 4.1786633 37 0 0 0 90.146652
-11.769995 -8.2891712 4.0447659 20 0 0 0 89.760017
-8.4055624 -8.0027056 4.4084091 17 0 0 0 87.417274
-7.5787668 -8.3590088 4.2873054 24 0 0 0 86.241325
6.869936 -8.4056044 4.1196909 29 0 0 0 63.576221
9.3055038 -8.0591211 4.0578671 28 0 0 0 60.847618
9.5319471 -8.2473726 4.4634724 26 0 0 0 60.847618
-11.372394 -7.6018181 4.1805806 19 0 0 0 90.146652
-9.2670727 -7.6047935 4.1096706 31.5 0 0 0 88.58213
-8.6664486 -7.855463 4.1561522 38 0 0 0 87.796417
9.6397924 -7.93539 4.4211645 109 0 0 0 60.455021
10.696414 -7.5604296 4.3126287 36 0 0 0 59.274593
15.333043 -7.7401609 4.361505 59 0 0 0 56.933807
-9.0690718 -7.0800867 4.3694034 13 0 0 0 88.970428
11.693037 -7.0304003 4.1504121 47 0 0 0 58.10342
12.334143 -7.0077157 4.3130217 29 0 0 0 57.71743
-14.73331 -6.9726024 4.1679134 19 0 0 0 92.480865
-11.7827 -6.6765795 4.4729004 26 0 0 0 91.31353
-9.2013826 -6.8272691 4.3510618 19 0 0 0 89.365669
9.2680721 -6.5499158 4.0207624 102 0 0 0 59.274593
10.488417 -6.6611896 4.3969603 21 0 0 0 58.505089
15.632706 -6.720293 4.3196068 80.5 0 0 0 55.958076
16.827614 -6.5095868 4.1326132 135 0 0 0 55.380032
-15.430213 -6.3966727 4.2693677 20 0 0 0 93.267265
-9.2187271 -6.495985 4.0067735 62 0 0 0 89.760017
9.4279366 -6.3211455 4.0209732 29 0 0 0 58.888618
10.826131 -6.2694707 4.3232694 52.666668 0 0 0 57.846088
11.87367 -6.3684378 4.4319038 46 0 0 0 57.328739
19.304935 -6.398005 4.1529016 55 0 0 0 54.60651
-18.387678 -5.5856323 4.4332466 18 0 0 0 94.841217
9.3869839 -5.9643412 4.2131681 20 0 0 0 58.505089
9.7334366 -5.5320272 4.2401309 76 0 0 0 57.71743
11.722589 -5.9216628 4.3205085 67 0 0 0 56.933807
23.235777 -5.8385615 4.2921548 60 0 0 0 53.424927
80.469025 -5.9950237 4.3950424 10 0 0 0 50.693394
10.547838 -5.0035148 4.4183693 159 0 0 0 56.546673
11.089357 -5.2651901 4.0407081 160 0 0 0 56.546673
14.768988 -5.3006759 4.3751302 109 0 0 0 54.985142
15.118124 -5.4262657 4.0778618 214 0 0 0 54.985142
22.638639 -5.100667 4.1578512 8 0 0 0 53.039993
31.010466 -5.3988223 4.0639977 17 0 0 0 52.252312
10.32468 -4.5913267 4.0000539 161 0 0 0 56.153553
10.902215 -4.5291038 4.1768236 422 0 0 0 55.7626
11.845928 -4.698626 4.2943645 70.333336 0 0 0 55.507553
14.949031 -4.7506127 4.3730373 66.5 0 0 0 54.40778
15.068562 -4.9938121 4.0300303 153 0 0 0 54.60651
15.69753 -4.7764106 4.1635094 137 0 0 0 54.209049
-14.452386 -4.0057549 4.2066107 91 0 0 0 95.214485
10.722261 -4.3019781 4.3723259 139 0 0 0 55.571316
11.882002 -4.2620182 4.4622402 214 0 0 0 54.985142
12.349666 -4.0944123 4.2777486 24 0 0 0 54.60651
16.118044 -4.4739079 4.2431445 115 0 0 0 53.815781
-14.270661 -3.5836415 4.4889326 84 0 0 0 95.597763
12.065963 -3.9955373 4.4923162 280 0 0 0 54.60651
12.613422 -3.8397427 4.3340397 79 0 0 0 54.209049
15.735168 -3.9538522 4.1162581 219 0 0 0 53.424927
-13.937646 -3.4974382 4.0315361 173 0 0 0 95.597763
-13.460392 -3.0313363 4.2109766 133 0 0 0 95.993614
-12.305654 -3.0924428 4.4997787 116 0 0 0 95.597763
10.905034 -3.3174081 4.0330453 59 0 0 0 54.209049
15.081837 -3.2032766 4.2973022 78 0 0 0 52.842979
-17.142021 -2.9827929 4.0144773 38 0 0 0 96.768158
-15.608305 -2.7159441 4.2430801 187 0 0 0 96.768158
12.032009 -2.0911963 4.3164392 116 0 0 0 52.252312
15.88779 -2.364017 4.4737644 38 0 0 0 51.867641
16.733629 -2.2803531 4.28125 40.5 0 0 0 51.672935
-14.379419 -1.7809554 4.0630088 137 0 0 0 97.559341
10.892593 -1.7569646 4.1756091 73 0 0 0 52.059975
12.198771 -1.811769 4.3582506 53 0 0 0 51.867641
14.438527 -1.7841269 4.4144168 25 0 0 0 51.478233
16.951611 -1.6748984 4.3169851 89 0 0 0 51.091179
-11.057065 -1.3734978 4.2268019 50 0 0 0 97.559341
11.035179 -1.3625162 4.2071023 31 0 0 0 51.478233
11.87695 -1.3179784 4.2245269 17 0 0 0 51.284706
16.758825 -1.2403113 4.2590952 22 0 0 0 50.693394
-13.729239 0.34870809 4.4980259 27 0 0 0 0
-10.818223 0.27128139 4.0637898 75 0 0 0 0
-14.820512 0.73471606 4.4973545 23 0 0 0 0.38486999
-12.576658 0.92853773 4.4340615 73 0 0 0 0.77288997
-10.899487 0.53827953 4.098074 32 0 0 0 0.38486999
-13.615252 5.6061254 4.4571795 431 0 0 0 5.8364601
-13.201277 5.8149014 4.3660321 507 0 0 0 6.2307801
-14.63501 6.2416458 4.428843 231 0 0 0 6.0336199
-13.030408 6.1246619 4.0061421 498 0 0 0 6.6251898
-12.739489 6.1753364 4.2844896 539 0 0 0 6.8149796
-16.113741 6.6450844 4.4224944 94 0 0 0 5.8364601
-13.174177 6.5905547 4.098424 256 0 0 0 7.0047698
-12.265785 6.7024369 4.2292371 544 0 0 0 7.5949402
-17.447975 7.1981897 4.328845 269 0 0 0 5.8364601
-15.873697 7.003902 4.4015498 193 0 0 0 6.2307801
-13.756069 7.3101101 4.3339791 203 0 0 0 7.4018302
-12.007092 7.143271 4.2265425 608 0 0 0 8.17805
-11.873943 7.4621563 4.2422538 593 0 0 0 8.5715199
-17.678923 7.8052487 4.4314947 128 0 0 0 6.2307801
-13.879644 7.8172755 4.4315252 223 0 0 0 7.7880502
-11.781584 7.8118424 4.2759371 542 0 0 0 8.9587898
-18.409216 8.1321917 4.1252871 136 0 0 0 6.2307801
-14.288185 8.0479984 4.1575975 164 0 0 0 7.7880502
-13.680884 8.1511707 4.4297729 247 0 0 0 8.17805
-13.4789 8.48314 4.4296389 214 0 0 0 8.5715199
-11.72677 8.1951504 4.3272977 469 0 0 0 9.3506899
-14.844594 8.8492699 4.3810773 167 0 0 0 8.17805
-13.284003 8.8203154 4.4346008 225 0 0 0 8.9587898
-11.714627 8.620985 4.39922 417 0 0 0 9.7388897
-14.621867 9.2075138 4.3798094 152 0 0 0 8.5715199
-13.100263 9.1669436 4.4462733 223 0 0 0 9.3506899
-12.891961 9.4983759 4.4525833 95 0 0 0 9.7388897
-11.924829 9.2379112 4.1938577 155 0 0 0 10.1234
-15.730927 9.9101315 4.2588735 141 0 0 0 8.5715199
-14.44117 9.5941725 4.3940248 191 0 0 0 8.9587898
-12.004457 9.7802525 4.3047328 265 0 0 0 10.52376
-15.915182 10.580047 4.3769417 110 0 0 0 8.9587898
-16.548584 11.006719 4.0679307 132 0 0 0 8.9587898
-13.659661 11.1406 4.4651384 185 0 0 0 10.52376
-12.844414 11.004883 4.2842264 148 0 0 0 10.90516
-15.130621 12.348982 4.4701509 216 0 0 0 10.52376
-7.7634754 12.113573 4.3499694 29 0 0 0 15.58426
-14.906085 12.785849 4.4942155 138 0 0 0 10.90516
-14.212351 12.804168 4.3772392 133 0 0 0 11.28973
-20.472887 19.423082 4.3771849 55 0 0 0 11.68651
-19.754566 19.681143 4.3241167 14 0 0 0 12.07422
18.121914 27.219259 4.2264805 9 0 0 0 33.913979
30.936455 29.496979 4.4537168 6 0 0 0 37.428593
29.73399 29.78097 4.3863816 6 0 0 0 37.043007
28.921749 30.427732 4.3766351 21 0 0 0 36.648602
28.321022 31.300886 4.4015617 39 0 0 0 36.252529
37.62669 -70.566917 4.5522361 9 0 0 0 66.704857
-0.94968033 -37.58168 4.9649296 11 0 0 0 74.909592
-36.045628 -25.378529 4.7183414 8 0 0 0 89.760017
-34.164104 -25.32914 4.5545244 9 0 0 0 89.365669
5.7402048 -14.942043 4.8870859 26 0 0 0 68.66053
6.6207738 -13.208194 4.8766413 26 0 0 0 67.10405
12.050277 -12.085069 4.7707181 30 0 0 0 62.014431
12.917842 -12.333484 4.5456595 77 0 0 0 61.62608
2.3363538 -11.846326 4.5878787 18 0 0 0 71.401268
6.9120469 -11.571442 4.7801528 34 0 0 0 65.929611
12.547386 -11.979525 4.8477273 20 0 0 0 61.62608
13.273466 -11.770279 4.7339048 26.5 0 0 0 61.041718
8.1235914 -11.279932 4.7569513 43 0 0 0 64.555794
13.391079 -11.019863 4.8431206 69 0 0 0 60.455021
8.6639843 -10.596982 4.5129724 21 0 0 0 63.576221
-12.641499 -10.376942 4.9946427 21 0 0 0 88.58213
9.2600336 -10.245352 4.8902445 28 0 0 0 62.801449
-8.2606821 -9.5741119 4.8020496 37 0 0 0 85.842369
7.5599213 -9.7202892 4.6687036 24 0 0 0 63.977058
8.3312225 -9.689455 4.5285778 26 0 0 0 63.187153
-19.286497 -8.5557766 4.8675694 42 0 0 0 92.876541
-12.096264 -8.5223207 4.5202765 6 0 0 0 89.760017
45.019436 -8.9872417 4.781899 24 0 0 0 52.645962
-11.11087 -8.2393961 4.5698342 12 0 0 0 89.365669
-10.835229 -8.0407286 4.7888508 26 0 0 0 89.365669
-10.153517 -8.3361559 4.9856801 29 0 0 0 88.58213
29.475006 -8.1784754 4.7125201 44 0 0 0 53.815781
35.82074 -8.0655384 4.736927 32 0 0 0 53.039993
-11.13769 -7.8436151 4.5004759 27 0 0 0 89.760017
30.045162 -7.5464292 4.7708774 28 0 0 0 53.424927
36.661171 -7.3129826 4.8208356 15 0 0 0 52.645962
42.626099 -7.4261332 4.5075712 7 0 0 0 52.252312
-18.58692 -6.6578135 4.5549498 28 0 0 0 94.052444
13.227653 -6.6764383 4.5017748 49 0 0 0 56.933807
14.967502 -6.6499043 4.970221 55 0 0 0 56.153553
16.895634 -6.5349231 4.5945263 160 0 0 0 55.380032
10.601243 -6.3719387 4.6803904 121 0 0 0 58.10342
11.499872 -6.1628847 4.6133976 26 0 0 0 57.328739
43.05579 -6.4152894 4.5333781 8 0 0 0 51.867641
-12.478692 -5.535028 4.5069623 113 0 0 0 92.876541
11.809898 -5.9596176 4.6763911 43 0 0 0 56.933807
13.815249 -5.7374897 4.5426707 35 0 0 0 55.7626
30.023516 -5.990068 4.713212 40 0 0 0 52.645962
11.372723 -5.0542479 4.7067242 230 0 0 0 56.153553
14.181793 -5.0893159 4.9474502 56 0 0 0 54.985142
15.025249 -5.3885841 4.8431549 111 0 0 0 54.985142
35.834835 -5.3334279 4.670866 9 0 0 0 51.867641
-11.919535 -4.9457784 4.8939581 48 0 0 0 93.267265
14.899931 -4.7309875 4.7436552 96.5 0 0 0 54.40778
16.940388 -4.7006187 4.8948398 50 0 0 0 53.815781
30.501329 -4.5400596 4.745203 11 0 0 0 51.867641
15.979026 -4.0106525 4.9950018 47 0 0 0 53.424927
27.196484 -4.0483036 4.9166374 14 0 0 0 51.867641
-13.878269 -3.4825215 4.7199359 57 0 0 0 95.597763
13.096861 -3.2864456 4.7685113 52 0 0 0 53.424927
15.511245 -3.0916193 4.7963014 159 0 0 0 52.645962
-15.442984 -2.6899543 4.7791109 42 0 0 0 96.768158
12.909262 -2.9033737 4.9982605 44 0 0 0 53.039993
14.654346 -2.5482485 4.5129166 17 0 0 0 52.252312
-14.844517 -1.4724942 4.5484357 17 0 0 0 97.945251
-14.369211 -1.4228435 4.7607975 31 0 0 0 97.945251
-13.311105 0.33410877 4.6836748 22 0 0 0 0
-18.889898 0.93966246 4.8082194 45 0 0 0 0.38486999
-14.663943 0.73028052 4.8097668 34 0 0 0 0.38486999
-14.097043 0.69768524 4.9658871 35 0 0 0 0.38486999
-14.203359 1.4025264 4.6743031 26 0 0 0 1.16433
-12.33923 1.2137825 4.6594996 78 0 0 0 1.16433
47.173164 1.1374002 4.9037156 17 0 0 0 49.136158
46.462257 3.4097338 4.8407826 28 0 0 0 48.35524
-14.152853 5.4333177 4.9619775 247 0 0 0 5.4472098
-13.621016 5.6124558 4.8210878 340 0 0 0 5.8364601
-13.221007 5.82759 4.7276287 389 0 0 0 6.2307801
-12.694293 6.2195477 4.7390952 464.66666 0 0 0 6.878243
-12.271676 6.7074852 4.7448406 499.25 0 0 0 7.5949402
46.058247 6.8189673 4.8372211 16 0 0 0 47.182072
-12.007998 7.1456709 4.7400594 497.5 0 0 0 8.17805
-11.883097 7.4698563 4.7611804 510.5 0 0 0 8.5715199
-11.782054 7.814085 4.7956772 504 0 0 0 8.9587898
-11.724228 8.1977119 4.6784253 441 0 0 0 9.3506899
-58.548416 8.7240362 4.8958693 24 0 0 0 1.9504
-11.715218 8.6259308 4.7576051 441 0 0 0 9.7388897
-11.790888 9.1335831 4.6943135 320.5 0 0 0 10.1234
-56.87212 9.9034796 4.772409 16 0 0 0 2.3333199
-12.005795 9.7793703 4.6832261 232 0 0 0 10.52376
-55.396793 11.050619 4.6677284 15 0 0 0 2.7232399
-12.893696 11.049187 4.7203927 129 0 0 0 10.90516
-54.029373 12.160639 4.5740061 18 0 0 0 3.1195099
-14.254872 12.844711 4.8594241 81 0 0 0 11.28973
84.824364 16.826792 4.6967978 8 0 0 0 46.406391
-13.05852 18.428835 4.6099586 22 0 0 0 14.81524
-17.584547 19.319229 4.6940637 5 0 0 0 12.85767
-19.637505 19.566719 4.982739 9 0 0 0 12.07422
5.3294277 21.577477 4.5354252 31 0 0 0 28.457741
55.933643 26.454004 4.9129534 9 0 0 0 42.512081
54.587257 29.180803 4.9160881 10 0 0 0 41.724678
54.0233 30.60907 4.9322219 17 0 0 0 41.335472
-9.1088486 -61.15089 5.1266589 8 0 0 0 76.871788
-10.60605 -60.909515 5.1275988 18 0 0 0 77.25811
-5.0576081 -40.808502 5.4303155 24 0 0 0 76.480286
-11.055053 -30.844666 5.1466117 10 0 0 0 79.991211
-11.779384 -30.489952 5.1341624 18 0 0 0 80.373398
-12.40337 -29.901951 5.0850754 19 0 0 0 80.763443
6.0404444 -14.645469 5.2287335 19 0 0 0 68.267189
6.9610367 -14.773145 5.3875656 32 0 0 0 67.492119
7.4039335 -11.727334 5.2568483 21 0 0 0 65.542389
7.9912086 -11.992448 5.4600415 20 0 0 0 65.14489
6.7830896 -11.355077 5.015862 43 0 0 0 65.929611
7.6937871 -10.957943 5.0746393 48 0 0 0 64.750679
