# .PCD v0.7 - Point Cloud Data file format
VERSION 0.7
FIELDS x y z intensity normal_x normal_y normal_z curvature
SIZE 4 4 4 4 4 4 4 4
TYPE F F F F F F F F
COUNT 1 1 1 1 1 1 1 1
WIDTH 893
HEIGHT 1
VIEWPOINT 0 0 0 1 0 0 0
POINTS 893
DATA ascii
6.3015256 -52.184902 -0.83948475 30 0 0 0 72.715889
16.796705 -51.352898 -0.84576565 7 0 0 0 69.584915
23.837164 -50.81662 -0.86935025 9 0 0 0 67.64093
3.3972313 -47.666939 -0.76395339 23 0 0 0 73.501854
-3.5392745 -46.612789 -0.75808948 12 0 0 0 75.848976
-2.4023087 -46.790886 -0.75799203 20 0 0 0 75.457565
-1.2570093 -46.877209 -0.75679523 14 0 0 0 75.070717
-4.6120024 -45.839031 -0.74844128 22 0 0 0 76.244911
-5.6544261 -45.084724 -0.7394675 26 0 0 0 76.641846
-6.7004666 -44.55835 -0.73472762 19 0 0 0 77.02285
-7.7621546 -44.225651 -0.73375446 22 0 0 0 77.4189
-23.392326 -43.642952 -0.8270148 20 0 0 0 82.508957
-20.739019 -43.704994 -0.80572987 15 0 0 0 81.722549
-19.467033 -43.759239 -0.79656148 23 0 0 0 81.321754
-30.512285 -43.244999 -0.88913268 15 0 0 0 84.454788
-28.978867 -43.283806 -0.87410265 16 0 0 0 84.062874
-15.63781 -43.496376 -0.7649101 15 0 0 0 80.148956
-8.665803 -43.140331 -0.71996403 22 0 0 0 77.804626
-9.6734638 -42.711712 -0.71776551 22 0 0 0 78.195129
-36.498936 -42.258171 -0.94107085 10 0 0 0 86.030998
-17.517294 -42.123108 -0.75622404 13 0 0 0 80.934196
-10.657856 -42.23061 -0.714755 37 0 0 0 78.591209
-41.702877 -41.663635 -0.99555194 16 0 0 0 87.205528
-24.548878 -40.860504 -0.79591221 25 0 0 0 83.288368
28.326792 -40.527573 -0.7543509 11 0 0 0 64.893394
-15.64438 -40.378864 -0.71517026 40 0 0 0 80.549362
-20.145651 -39.900127 -0.74236083 9 0 0 0 82.114357
-32.333591 -39.342518 -0.85491675 51 0 0 0 85.626221
28.175797 -38.280849 -0.72302437 28 0 0 0 64.50882
27.549387 -35.572968 -0.68182844 15 0 0 0 64.106903
29.314978 -35.993866 -0.7040053 18 0 0 0 63.720753
-42.095161 -34.527946 -0.91580307 12 0 0 0 88.758408
-20.624916 -32.496624 -0.6360209 34 0 0 0 83.678123
-41.249187 -29.044256 -0.84465212 13 0 0 0 89.944847
29.527399 -28.339451 -0.61460823 17 0 0 0 61.754887
29.899067 -27.320892 -0.60767418 17 0 0 0 61.369518
29.593304 -25.740705 -0.58721262 29 0 0 0 60.97163
30.918102 -25.588631 -0.6016376 16 0 0 0 60.589409
30.840193 -24.27634 -0.58757371 23 0 0 0 60.193993
31.034973 -23.221125 -0.57987303 18 0 0 0 59.799007
30.576468 -20.622219 -0.55028892 17 0 0 0 59.02338
30.772713 -19.674976 -0.54484564 34 0 0 0 58.62888
10.602521 -11.253469 -0.58845556 16 0 0 0 62.545231
4.1117649 -10.07706 -0.67287827 83 0 0 0 68.421104
8.8277817 -10.346586 -0.67873371 214.5 0 0 0 63.329681
9.2122345 -10.275473 -0.69052583 241.5 0 0 0 62.931561
3.3763933 -9.5967407 -0.87902498 280 0 0 0 69.197533
4.6383681 -9.945323 -0.67807931 170 0 0 0 67.64093
5.1884637 -9.8360634 -0.68722588 202 0 0 0 66.859009
9.1579971 -9.7257719 -0.83118373 175 0 0 0 62.545231
9.7374592 -9.8445768 -0.86279136 199 0 0 0 62.149261
15.62578 -9.7413883 -0.70794249 129 0 0 0 58.43082
-0.93409532 -9.1208391 -0.79444337 186 0 0 0 76.244911
-0.039382298 -9.0007353 -0.55545372 355 0 0 0 74.675072
0.18200716 -9.0591717 -0.67038989 345.5 0 0 0 74.280067
1.0924149 -9.220026 -0.80193448 137 0 0 0 72.715889
1.9884677 -9.0734825 -0.80099839 281 0 0 0 71.157272
2.2309046 -9.1074753 -0.80859935 292 0 0 0 70.763992
2.7375371 -9.1997147 -0.82809466 277 0 0 0 69.981422
3.5694957 -9.4050407 -0.74403787 68 0 0 0 68.814491
9.5652666 -9.2091999 -0.82587922 117 0 0 0 61.754887
13.417672 -9.0694275 -0.61816943 100 0 0 0 59.02338
-5.7662458 -8.5999413 -0.65050459 169 0 0 0 84.062874
-4.9066567 -8.6225882 -0.74258077 233.5 0 0 0 82.901695
-3.736876 -8.6531544 -0.82084787 266.5 0 0 0 81.127975
-3.305469 -8.5014277 -0.79283845 442 0 0 0 80.549362
-2.1718962 -8.5643263 -0.98361713 352 0 0 0 78.591209
-1.6120936 -8.6085148 -0.80046904 305 0 0 0 77.573196
-1.2651148 -8.8096619 -0.91629481 256.66666 0 0 0 76.895851
-0.89436674 -8.7572432 -0.97819245 261 0 0 0 76.244911
-0.24693102 -8.70823 -0.85947752 353.66666 0 0 0 75.067787
0.32111391 -8.7988415 -0.90427321 342.33334 0 0 0 74.021675
0.70053315 -8.5976562 -0.84867483 251.25 0 0 0 73.307907
1.2615793 -8.7767439 -0.83462542 234.66667 0 0 0 72.328812
1.717392 -8.8718548 -0.77856231 251 0 0 0 71.555634
2.3081582 -8.5095873 -0.97533065 395 0 0 0 70.371193
2.6603103 -8.5500145 -0.9907437 284 0 0 0 69.786537
9.4565182 -8.6690998 -0.79676056 316 0 0 0 61.369518
-7.714344 -8.2894983 -0.71535778 146.5 0 0 0 86.614441
-7.2439742 -8.1723175 -0.95851159 255.5 0 0 0 86.224686
-0.6598419 -8.4854755 -0.83938408 296.5 0 0 0 75.848976
1.3051488 -8.3657198 -0.93643999 309 0 0 0 72.135269
1.7383569 -8.4150438 -0.95034122 378 0 0 0 71.356453
2.0763366 -8.4706793 -0.9646315 453 0 0 0 70.763992
2.9380352 -8.3517504 -0.97868377 175 0 0 0 69.197533
3.059099 -8.0622911 -0.95201784 178 0 0 0 68.814491
6.5400028 -8.0675611 -0.89572829 183 0 0 0 63.720753
9.6657143 -8.2280569 -0.78809667 430 0 0 0 60.780518
-7.4044747 -7.7628384 -0.94088697 31 0 0 0 86.810509
-4.30615 -7.791378 -0.99303347 292.5 0 0 0 82.705322
3.2362103 -7.9383163 -0.9459784 183 0 0 0 68.421104
6.8285165 -7.8197985 -0.89541501 187.5 0 0 0 63.130623
10.2264 -7.8714647 -0.80192959 269.5 0 0 0 59.996498
-22.021635 -7.2833757 -0.93120301 92 0 0 0 94.642921
-4.2992692 -7.1436834 -0.7225107 224 0 0 0 83.288368
-1.7306275 -7.1754789 -0.9982416 183.5 0 0 0 78.393173
-1.4695073 -7.2487478 -0.99998087 175 0 0 0 77.804626
-0.21371478 -7.3425465 -0.99144012 163.33333 0 0 0 75.067787
0.23349756 -7.3084459 -0.9860369 169.5 0 0 0 74.086273
0.67182666 -7.2128081 -0.97605777 181.33333 0 0 0 73.110565
1.1886215 -7.0837121 -0.96683449 188 0 0 0 71.942055
6.9124594 -7.3509207 -0.86924356 188 0 0 0 62.545231
7.0540781 -7.1424432 -0.8646118 188 0 0 0 62.149261
10.512881 -7.1124482 -0.78836578 99 0 0 0 59.02338
13.223779 -7.3715267 -0.57644415 181 0 0 0 57.651482
16.313286 -7.3337808 -0.68986565 64 0 0 0 56.279282
47.227863 -7.2277923 -0.754031 23 0 0 0 51.989487
-3.1269522 -6.5667443 -0.62485129 155 0 0 0 81.722549
1.7621658 -6.857492 -0.95198202 200 0 0 0 70.57016
2.3089008 -6.5834031 -0.93668795 207.66667 0 0 0 69.198982
5.1799426 -6.9017239 -0.52459157 212 0 0 0 64.307861
5.5833788 -6.8940854 -0.54018295 272 0 0 0 63.720753
7.1897831 -6.7648582 -0.84979761 218.5 0 0 0 61.562202
10.614413 -6.8077202 -0.7831279 104 0 0 0 58.62888
13.723787 -6.7906189 -0.58465123 177.5 0 0 0 56.867153
16.061756 -6.752317 -0.67184901 59 0 0 0 55.895279
-5.2349086 -6.3661947 -0.91706765 151 0 0 0 85.626221
-4.8130879 -6.4735117 -0.89661986 122 0 0 0 84.850441
-3.2080152 -6.1451492 -0.59395707 384 0 0 0 82.311661
2.7963765 -6.2267246 -0.9156428 288 0 0 0 67.83522
3.0326881 -6.1258268 -0.74651253 132 0 0 0 67.249344
5.1379061 -6.1874356 -0.88450098 200.5 0 0 0 63.525215
7.3597541 -6.2742472 -0.83192593 237 0 0 0 60.780518
8.5573492 -6.105989 -0.64686453 480 0 0 0 59.40744
10.58909 -6.2563481 -0.76330435 119 0 0 0 58.039425
-4.5695 -5.6948376 -0.98892498 246.5 0 0 0 85.430771
-4.2152176 -5.8619561 -0.91806126 135.33333 0 0 0 84.586678
-3.6793957 -5.6314173 -0.57574427 316 0 0 0 83.871033
-2.3245327 -5.5578537 -0.95317549 251.66667 0 0 0 80.935112
-1.2592698 -5.8187532 -0.94085377 179.75 0 0 0 78.002472
-0.75587922 -5.8872399 -0.9371593 120.33334 0 0 0 76.636536
-0.25036651 -5.9239864 -0.93570024 132.25 0 0 0 75.263084
0.2531929 -5.8789916 -0.9276014 127.66666 0 0 0 73.891472
0.75939333 -5.8714247 -0.93313146 124 0 0 0 72.525101
1.2548788 -5.7738833 -0.9305644 158.66667 0 0 0 71.158966
1.5864743 -5.6229239 -0.91928345 149 0 0 0 70.179672
2.451807 -5.6380005 -0.74415183 313 0 0 0 68.02803
2.5944195 -5.5877104 -0.74563354 292 0 0 0 67.64093
5.3589745 -5.8461294 -0.8717804 218.5 0 0 0 62.738396
5.5101256 -5.5838108 -0.86197245 205 0 0 0 62.149261
7.4638777 -5.7560673 -0.8100968 197 0 0 0 59.996498
10.496476 -5.6898341 -0.74053496 150 0 0 0 57.456871
15.92962 -5.7946949 -0.65413761 29 0 0 0 55.11512
-13.397795 -5.1727057 -0.91489065 51 0 0 0 93.849373
-5.1711903 -5.1630187 -0.99007493 318.33334 0 0 0 87.206146
-4.8134575 -5.4320917 -0.98288959 274 0 0 0 86.224686
-4.2782197 -5.4618897 -0.59509712 332.33334 0 0 0 85.237328
-3.1999419 -5.1657791 -0.96250784 244.25 0 0 0 83.482765
-2.7246182 -5.3731093 -0.95345622 287.66666 0 0 0 82.115288
-2.0939193 -5.0073438 -0.99091303 300 0 0 0 80.934196
-1.1732187 -5.1120315 -0.95583886 170.66667 0 0 0 78.196991
-0.66345215 -5.1553521 -0.94638389 81.333336 0 0 0 76.636536
-0.22069021 -5.1663842 -0.94102561 65.75 0 0 0 75.263084
0.28038821 -5.1061664 -0.92971355 61.75 0 0 0 73.697098
0.77517599 -5.043633 -0.92723185 71 0 0 0 72.135513
1.8377452 -5.4740114 -0.90789866 152 0 0 0 69.39122
2.234313 -5.3268585 -0.90826654 221.25 0 0 0 68.226135
2.8569646 -5.2070675 -0.78960037 514 0 0 0 66.562996
3.1805887 -5.0507717 -0.706563 651 0 0 0 65.599136
3.8346436 -5.0752687 -0.79713219 312.66666 0 0 0 64.240875
5.7069931 -5.2439055 -0.85151726 237.66667 0 0 0 61.365345
7.5494733 -5.2525129 -0.78984088 200.5 0 0 0 59.215408
10.622772 -5.2621593 -0.73587424 146.5 0 0 0 56.867153
13.496733 -5.2911363 -0.55376929 148 0 0 0 55.510513
15.998954 -5.3789706 -0.65195221 73 0 0 0 54.723598
-37.472034 -4.6532521 -0.60828876 188 0 0 0 97.755531
-6.3996363 -4.7462039 -0.88535154 220 0 0 0 89.549797
-5.5858994 -4.6576471 -0.86744815 209 0 0 0 88.628014
-5.4180021 -4.9050474 -0.99007285 255 0 0 0 87.983986
-3.8047051 -4.7366514 -0.96265805 241.25 0 0 0 85.435745
-3.4946713 -4.9402966 -0.95815867 204 0 0 0 84.454788
-2.3368902 -4.7568083 -0.96722931 290.5 0 0 0 81.916908
-1.6106369 -4.5428429 -0.67208344 229.85715 0 0 0 80.040527
-1.3320845 -4.6328621 -0.72902131 115.44444 0 0 0 79.066017
-0.89210182 -4.9930873 -0.92260909 151 0 0 0 77.4189
1.2425152 -4.8668666 -0.9118017 88 0 0 0 70.570152
1.7457511 -4.6404114 -0.89947832 89 0 0 0 68.809219
2.6614711 -4.8963923 -0.79417193 190.39999 0 0 0 66.622765
3.1623936 -4.6500039 -0.7676456 203.16667 0 0 0 65.02523
4.1665802 -4.7874794 -0.84870195 262.5 0 0 0 63.131805
5.9120836 -4.7978458 -0.83606625 235.5 0 0 0 60.391701
6.0044508 -4.5166802 -0.82471663 299 0 0 0 59.799007
7.7527614 -4.7162032 -0.77936333 183 0 0 0 58.235912
10.73474 -4.6761351 -0.72745979 156 0 0 0 56.08728
-7.6211591 -4.3210502 -0.97703707 151 0 0 0 91.502861
-6.0285254 -4.1371951 -0.90070218 307 0 0 0 90.13855
-5.7419529 -4.3663163 -0.97679496 513.5 0 0 0 89.354584
-5.2990961 -4.1315379 -0.57516462 465 0 0 0 89.159363
-4.2904625 -4.2805204 -0.96063787 227.8 0 0 0 87.204155
-3.1150064 -4.0780134 -0.93550944 147.5 0 0 0 85.042885
-2.749438 -4.3203778 -0.93378162 152.39999 0 0 0 83.67717
-2.0354586 -4.0093899 -0.92401832 162 0 0 0 82.114357
-1.6945676 -4.3944421 -0.93138355 187.66667 0 0 0 80.477615
-1.3001317 -4.4025054 -0.94405884 81.75 0 0 0 79.175865
-0.72712803 -4.3620892 -0.90759826 63.25 0 0 0 77.222054
-0.24667306 -4.4182544 -0.90800989 31.4 0 0 0 75.45945
0.23963022 -4.4263344 -0.90909964 23.25 0 0 0 73.697098
0.71746224 -4.3451357 -0.90289879 37.200001 0 0 0 71.939865
1.2328861 -4.1962152 -0.89626139 48.200001 0 0 0 69.981155
1.5880854 -4.0787964 -0.89649606 57 0 0 0 68.617798
2.258522 -4.3160906 -0.88315666 126.8 0 0 0 66.857224
2.5947657 -4.0676928 -0.87418556 124.5 0 0 0 65.481186
3.3118572 -4.3193684 -0.85391617 268 0 0 0 64.11216
3.5688486 -4.1077356 -0.85382915 182.5 0 0 0 63.130623
4.4324551 -4.392458 -0.83389437 277.5 0 0 0 61.952072
4.7239666 -4.1387639 -0.83991283 252.66667 0 0 0 60.976852
6.1904945 -4.197742 -0.82128793 297.33334 0 0 0 59.019897
7.9689493 -4.2003975 -0.77415395 233.5 0 0 0 57.261852
10.795757 -4.2363019 -0.72091872 170 0 0 0 55.510513
-16.442575 -3.7017257 -0.66513801 39 0 0 0 96.181694
-7.8371749 -3.7129717 -0.96671253 134.33333 0 0 0 92.669403
-6.2493925 -3.8517859 -0.90320027 559 0 0 0 90.926025
-5.8796601 -3.9285617 -0.95668256 266 0 0 0 90.332245
-5.3393288 -3.759285 -0.55796021 634.33331 0 0 0 89.942299
-4.6900978 -3.7493658 -0.95130086 235.5 0 0 0 88.958694
-3.549499 -3.6296883 -0.9253599 141.5 0 0 0 87.008018
-3.3708832 -3.8966124 -0.93971282 173.66667 0 0 0 86.0252
-2.5771685 -3.6413975 -0.91700602 94 0 0 0 84.456032
-2.262794 -3.8574708 -0.91932344 118.5 0 0 0 83.094284
-1.732864 -3.7207546 -0.91889143 55.799999 0 0 0 81.563087
-1.2300681 -3.8225868 -0.91957885 32.666668 0 0 0 79.566963
-0.71134937 -3.9580529 -0.9204067 23 0 0 0 77.416672
-0.22231038 -3.9575996 -0.90630788 21.4 0 0 0 75.45945
0.26040214 -3.9521935 -0.90535986 15.6 0 0 0 73.500854
0.7343592 -3.8685215 -0.8997618 18.200001 0 0 0 71.549484
1.2385439 -3.7152631 -0.89502478 24.333334 0 0 0 69.396233
1.7549953 -3.8601208 -0.89140916 44 0 0 0 67.736588
2.1631944 -3.6929791 -0.87671536 50.200001 0 0 0 66.07164
2.8604522 -3.8325469 -0.86677349 91 0 0 0 64.307465
3.1096725 -3.5834174 -0.85978478 148 0 0 0 63.130623
3.8492117 -3.822726 -0.85176265 181.5 0 0 0 61.954723
4.9300365 -3.8113322 -0.83333004 307.5 0 0 0 59.996498
5.0227442 -3.5952995 -0.82590836 273 0 0 0 59.40744
6.3248858 -3.7440548 -0.80680764 278 0 0 0 58.039425
8.036953 -3.7439857 -0.76229537 257.5 0 0 0 56.473377
10.692401 -3.7486067 -0.7044028 153.5 0 0 0 54.919357
15.095201 -3.865947 -0.60127866 35 0 0 0 53.548393
-15.72331 -3.1372209 -0.63056898 11 0 0 0 96.582916
-11.26604 -3.4233246 -0.74276692 352 0 0 0 95.029755
-8.034277 -3.1059382 -0.95942545 253 0 0 0 93.849373
-7.9829192 -3.3129957 -0.96293485 293 0 0 0 93.458809
-6.1623521 -3.257328 -0.83869267 295.39999 0 0 0 91.966446
-5.75984 -3.2605641 -0.56588078 465 0 0 0 91.50425
-5.265132 -3.2474546 -0.74318135 429.5 0 0 0 90.926025
-4.9212036 -3.2858667 -0.93679428 207.66667 0 0 0 90.335419
-4.0471792 -3.0767322 -0.9269619 160.5 0 0 0 89.354584
-3.7979236 -3.3531871 -0.92380494 143.25 0 0 0 88.178001
-3.1441071 -3.1356661 -0.91299915 87 0 0 0 87.206146
-2.8527589 -3.3766756 -0.90865302 73 0 0 0 85.827728
-2.282141 -3.2259934 -0.90527153 37.714287 0 0 0 84.456589
-1.9311316 -3.4815769 -0.91104048 49 0 0 0 82.705322
2.4378991 -3.4459367 -0.86416876 56.5 0 0 0 64.701111
2.6782324 -3.171041 -0.85020602 72 0 0 0 63.326824
3.3263009 -3.2291069 -0.84032708 109 0 0 0 61.758106
3.9851041 -3.4993188 -0.83196342 163 0 0 0 60.97163
4.1513219 -3.2178538 -0.82438731 194.75 0 0 0 59.997467
5.1205516 -3.2986469 -0.81448787 246 0 0 0 58.628342
6.4102139 -3.2816086 -0.79081297 288.33334 0 0 0 57.063725
8.0607214 -3.2837861 -0.74859256 228.5 0 0 0 55.702896
14.895096 -3.2369885 -0.58848417 71 0 0 0 52.967663
-16.52923 -2.8786857 -0.66114813 88 0 0 0 96.968941
-10.946977 -2.7485235 -0.9892863 269 0 0 0 95.800461
-8.0767488 -2.7859001 -0.95121437 204.5 0 0 0 94.444176
-6.3317509 -2.8105984 -0.93637377 212 0 0 0 93.063118
-5.2114148 -2.7040131 -0.92932642 163 0 0 0 92.085022
-4.221993 -2.7462707 -0.91834402 117 0 0 0 90.53228
-3.5861812 -2.5895352 -0.90955579 73 0 0 0 89.747322
-3.3804176 -2.8395057 -0.90783423 66.5 0 0 0 88.567238
-2.7824423 -2.7756577 -0.90059364 32.42857 0 0 0 87.202705
2.9341898 -2.7848785 -0.82841659 52.25 0 0 0 61.561325
3.2595792 -2.7296319 -0.81686491 54.5 0 0 0 60.589409
3.6172028 -2.6672435 -0.81448555 77.5 0 0 0 59.605953
4.3229709 -2.7171831 -0.80124688 162.5 0 0 0 58.432777
5.2390976 -2.7698865 -0.79265618 235.25 0 0 0 57.259315
6.4518318 -2.7232895 -0.76929015 262 0 0 0 55.895023
8.072094 -2.8340044 -0.73609799 202 0 0 0 54.919357
9.0150633 -2.7935276 -0.58170354 99 0 0 0 54.331806
10.306406 -2.7778692 -0.66315639 129 0 0 0 53.749317
14.67747 -2.6257722 -0.57586575 86 0 0 0 52.382351
-21.303766 -2.1134832 -0.85201043 164 0 0 0 98.144753
-15.699895 -2.3394861 -0.62312537 46 0 0 0 97.357719
-10.99115 -2.334178 -0.98442757 124.5 0 0 0 96.382309
-8.1803293 -2.2731314 -0.94482732 204.33333 0 0 0 95.415161
-6.5663261 -2.0856557 -0.93061203 240 0 0 0 94.836334
-6.4504781 -2.4022954 -0.92987543 191 0 0 0 94.047401
-5.3380866 -2.2135777 -0.91387606 195.66667 0 0 0 93.455391
-4.5274601 -2.0762918 -0.9075622 101.5 0 0 0 92.865273
-4.4446297 -2.3769312 -0.9189474 116.66666 0 0 0 91.889183
-3.7504795 -2.2484608 -0.89935362 59.400002 0 0 0 91.11483
-3.1436493 -2.3294721 -0.89623833 31.200001 0 0 0 89.548935
3.2112918 -2.2418003 -0.8028633 41.400002 0 0 0 59.175606
3.7534108 -2.234868 -0.79167932 66.25 0 0 0 58.041153
4.4311509 -2.3474059 -0.78692621 166 0 0 0 57.261852
4.5027742 -2.1085649 -0.78070807 140 0 0 0 56.473377
5.3187251 -2.2494259 -0.77271366 207 0 0 0 55.895023
6.4655585 -2.1826515 -0.74995738 200.33333 0 0 0 54.723511
8.0276613 -2.2757456 -0.71828365 212.33333 0 0 0 53.943481
10.387453 -2.2606592 -0.66132259 157.5 0 0 0 52.967663
14.480017 -2.2248282 -0.56586212 85 0 0 0 51.989487
-15.846141 -1.9656247 -0.6266284 127 0 0 0 97.755531
-10.95603 -1.7708731 -0.97139907 118.5 0 0 0 97.16333
-8.1440315 -1.7330427 -0.92539585 197 0 0 0 96.382309
-6.6121359 -1.7487557 -0.92340213 212.5 0 0 0 95.607864
-5.4414768 -1.7273912 -0.90242898 189 0 0 0 94.833344
-4.6101456 -1.7170751 -0.89620256 106.25 0 0 0 94.049133
-4.0196261 -1.6096618 -0.88988078 53.5 0 0 0 93.654091
-3.9272165 -1.8584625 -0.89309978 51 0 0 0 92.669403
3.9018955 -1.7725723 -0.77779043 47 0 0 0 56.283875
4.5568767 -1.7366924 -0.76642442 87.5 0 0 0 55.311127
5.3474879 -1.7366279 -0.75288248 136 0 0 0 54.53019
6.4283457 -1.7370367 -0.73188746 189 0 0 0 53.749317
7.9740868 -1.7381859 -0.70280594 215.5 0 0 0 52.967663
10.256144 -1.7087903 -0.64708138 137.5 0 0 0 52.185921
14.395806 -1.8509907 -0.56095594 99 0 0 0 51.60231
-10.801373 -1.2066535 -0.95003837 139 0 0 0 97.950142
-8.07444 -1.3082799 -0.90814239 209 0 0 0 97.16333
-6.5683937 -1.3135548 -0.90348053 214.66667 0 0 0 96.57785
-5.4531684 -1.2284518 -0.8824749 135.33333 0 0 0 96.188354
-4.6161213 -1.2220972 -0.86875826 78.25 0 0 0 95.606796
-4.0460129 -1.2316501 -0.86899918 40.25 0 0 0 95.026024
-3.9877748 -1.212268 -0.85516828 23 0 0 0 95.029755
3.9689064 -1.3479751 -0.76113373 32 0 0 0 54.723511
4.0193653 -1.0928373 -0.75693995 24.5 0 0 0 53.749317
4.5787992 -1.2445533 -0.7462883 46 0 0 0 53.74741
5.3325615 -1.2349471 -0.73324299 101.66666 0 0 0 53.16124
6.3895593 -1.311092 -0.71729261 163 0 0 0 52.772556
7.9015174 -1.2191657 -0.68894458 202 0 0 0 51.991383
10.184659 -1.1848764 -0.63862389 165.5 0 0 0 51.406815
14.20232 -1.2967525 -0.55158579 83.5 0 0 0 51.016556
-10.643828 -0.79336494 -0.93186265 143 0 0 0 98.538475
-8.0276718 -0.99912614 -0.89742023 174 0 0 0 97.755531
-7.9709425 -0.69582415 -0.88704211 207 0 0 0 98.341614
-6.5044365 -0.97113061 -0.88597906 156 0 0 0 97.357719
-6.4532037 -0.72230744 -0.87423813 207.5 0 0 0 97.950142
-5.4237213 -0.74097449 -0.86339569 130.75 0 0 0 97.556732
-4.6331558 -0.75084043 -0.85321027 56.75 0 0 0 97.166275
-4.0847673 -0.71251202 -0.85115755 25.200001 0 0 0 96.96936
3.9735217 -0.8205862 -0.73733461 13 0 0 0 52.776127
4.0258493 -0.70321637 -0.7438243 17.5 0 0 0 52.283337
4.5648913 -0.76719522 -0.72863495 40.75 0 0 0 52.187569
5.3208938 -0.75538474 -0.72069067 98.5 0 0 0 51.796368
6.3469715 -0.81838423 -0.70424348 161.33333 0 0 0 51.60104
7.8403568 -0.71855962 -0.67887557 208.5 0 0 0 51.016556
10.162048 -0.67779613 -0.63508475 174 0 0 0 50.625618
13.995166 -0.75817269 -0.54238993 111 0 0 0 50.429447
-6.3748684 -0.32006967 -0.85856104 162.33333 0 0 0 98.928986
-5.3901477 -0.26860443 -0.85030192 100 0 0 0 98.928986
-4.6183472 -0.23106763 -0.84009695 47.400002 0 0 0 98.927315
-4.0764418 -0.20337716 -0.83724862 22 0 0 0 98.927315
3.9844062 -0.21935588 -0.72717887 18.333334 0 0 0 50.428349
4.0387554 -0.22191647 -0.73709714 27 0 0 0 50.428535
4.5758104 -0.25290474 -0.72266948 69.400002 0 0 0 50.428425
5.2994652 -0.2231489 -0.71219856 136.25 0 0 0 50.2327
6.2825465 -0.26387715 -0.69278181 134.5 0 0 0 50.2327
7.7242579 -0.23079924 -0.66679376 218.66667 0 0 0 50.036335
9.9397459 -0.049472447 -0.6201371 183 0 0 0 49.644287
10.047816 -0.29761013 -0.62705588 177 0 0 0 50.035278
13.682955 -0.23708272 -0.52973771 87 0 0 0 49.839783
3.9387231 0.32219318 -0.7210924 20.25 0 0 0 48.276138
4.3205066 0.26989534 -0.71619081 40.666668 0 0 0 48.60022
4.5253062 0.14396086 -0.71424294 69 0 0 0 49.053848
5.1609182 0.29336071 -0.69450909 99.5 0 0 0 48.665352
6.1499724 0.27428618 -0.67860633 141 0 0 0 48.86182
7.4821815 0.33198398 -0.64622146 251 0 0 0 48.860752
7.6041241 0.14946042 -0.65636665 214 0 0 0 49.246941
9.7686691 0.31208938 -0.60993421 193.5 0 0 0 49.053848
13.376852 0.26317447 -0.51799238 126 0 0 0 49.246941
-6.2067962 0.95557821 -0.8144452 98 0 0 0 1.96093
-5.3071446 0.88097292 -0.81685555 77 0 0 0 2.1573451
-4.6109729 0.76180542 -0.8170085 35 0 0 0 2.1580551
-4.0856695 0.72521651 -0.81024313 16.799999 0 0 0 2.3533421
-3.9687657 0.99936855 -0.80598074 27 0 0 0 3.5262899
3.8404522 0.65457588 -0.71128583 16 0 0 0 46.907291
4.3532028 0.73908997 -0.69776821 36.799999 0 0 0 46.906685
4.9331193 0.90198439 -0.6741488 79 0 0 0 46.711445
5.0696392 0.66935295 -0.68743718 76 0 0 0 47.494537
5.9131675 0.85485601 -0.65901917 160.33333 0 0 0 47.298038
6.0064378 0.56750661 -0.66491467 149 0 0 0 48.075951
7.3459358 0.68980008 -0.63700825 227 0 0 0 48.081268
9.4850054 0.89052176 -0.59470934 189 0 0 0 48.075951
9.6001101 0.66305637 -0.60062021 227 0 0 0 48.477768
13.108952 0.74147248 -0.50858176 120 0 0 0 48.669258
-7.535038 1.3503557 -0.81764764 165 0 0 0 2.35376
-6.1258621 1.2465711 -0.81112528 143 0 0 0 2.7449734
-5.1267681 1.2345991 -0.8006115 94.25 0 0 0 3.3300323
-4.4117942 1.2266364 -0.80079204 40 0 0 0 3.9152398
-3.907726 1.1337216 -0.80151224 19 0 0 0 4.1094451
4.1180429 1.2402775 -0.67997324 42.799999 0 0 0 44.951393
4.8002834 1.2521479 -0.66751212 90.5 0 0 0 45.535763
5.7345119 1.2697266 -0.64821982 158 0 0 0 46.123074
7.1145997 1.2045326 -0.62342066 242.66667 0 0 0 46.907291
9.2891245 1.2194824 -0.58509886 197.5 0 0 0 47.494537
-9.6713142 1.8641046 -0.82622933 143.5 0 0 0 2.550215
-7.3572001 1.6875762 -0.8062014 178.66667 0 0 0 3.1358166
-5.8881664 1.7247669 -0.79623181 172.25 0 0 0 4.1104279
-4.9554362 1.6446356 -0.79309374 103.33334 0 0 0 4.693953
-4.0525246 1.9022148 -0.78376609 44 0 0 0 6.6391301
-3.973541 1.982444 -0.77743316 51 0 0 0 7.0317798
3.8307571 1.7553064 -0.66658384 63.166668 0 0 0 42.800076
4.4676423 1.91275 -0.65416539 150 0 0 0 43.19318
4.6121907 1.6431727 -0.65897775 121.66666 0 0 0 44.170246
5.4103584 1.8503374 -0.63124013 209 0 0 0 44.367695
5.5657539 1.6001651 -0.63927287 193.5 0 0 0 45.145844
6.8685832 1.6950558 -0.61157823 232.66667 0 0 0 45.732014
8.9092159 1.8484608 -0.56858337 220 0 0 0 46.319649
9.0842199 1.5370518 -0.57546949 203 0 0 0 46.905041
-9.385952 2.2853947 -0.81000102 166 0 0 0 3.33039
-7.1140642 2.0908892 -0.79169035 203 0 0 0 4.1094451
-6.9788666 2.3290565 -0.78555614 210 0 0 0 4.6965299
-4.5988836 2.167341 -0.77271062 66.666664 0 0 0 6.6403332
-4.4178181 2.4163027 -0.76580143 86 0 0 0 7.6236048
-3.7355444 2.2713757 -0.76687688 41.166668 0 0 0 8.4003496
3.3878767 2.4013147 -0.65627223 27 0 0 0 39.871571
3.5951817 2.1642904 -0.66350788 45 0 0 0 41.040562
4.2367349 2.267231 -0.64718014 126.2 0 0 0 41.822926
5.2068167 2.2254186 -0.62553668 204.25 0 0 0 43.19191
6.4208684 2.4593594 -0.59464985 243 0 0 0 43.775352
6.6068306 2.1615136 -0.60119683 253.66667 0 0 0 44.560802
8.6454201 2.243926 -0.55829883 240 0 0 0 45.537296
-14.207268 2.7493701 -0.88014656 89 0 0 0 2.550215
-9.1037922 2.6893318 -0.7957601 203.5 0 0 0 4.1094451
-8.8885937 2.9812613 -0.7857812 218 0 0 0 4.6965299
-5.1560297 2.7474582 -0.75899196 107.4 0 0 0 7.42381
-4.1761169 2.6913245 -0.75646949 94.5 0 0 0 8.788723
-3.9078321 2.9384944 -0.74487817 115.5 0 0 0 9.9576797
-3.3987331 2.609 -0.75225598 38 0 0 0 10.15364
-2.9374056 2.946734 -0.7319386 61.5 0 0 0 12.302975
2.9584658 2.9189806 -0.65631127 62 0 0 0 37.322269
3.1555457 2.6789744 -0.65399998 35 0 0 0 38.501278
3.7914112 2.8268437 -0.63660538 79.800003 0 0 0 39.4795
4.0548768 2.5768194 -0.64680129 110 0 0 0 40.64579
4.8325791 2.8185546 -0.61821282 166.75 0 0 0 41.236065
5.0135975 2.521739 -0.61978918 126 0 0 0 42.210247
6.2320733 2.7473383 -0.58924091 264 0 0 0 42.997425
8.3373327 2.7227211 -0.54853076 249.33333 0 0 0 44.560802
-13.654751 3.1641927 -0.85157675 105 0 0 0 3.13449
-13.225792 3.4048741 -0.82898384 100 0 0 0 3.5262899
-6.2621937 3.2512379 -0.75410569 220.5 0 0 0 7.2295299
-4.7430315 3.2314625 -0.74651599 211.25 0 0 0 9.1797371
-4.4651537 3.454726 -0.73444772 185 0 0 0 10.15037
-3.7660139 3.0514662 -0.73871088 83 0 0 0 10.54556
-3.2829645 3.3908341 -0.72080225 115 0 0 0 12.495736
-2.6708546 3.0969074 -0.72053665 43.75 0 0 0 13.471432
-2.3067861 3.3078172 -0.71262914 46 0 0 0 15.139488
2.3375149 3.3787434 -0.64769781 52 0 0 0 34.386192
2.7229881 3.1214447 -0.65389776 65.5 0 0 0 36.15147
3.3605952 3.309046 -0.63432205 118.5 0 0 0 37.326946
3.5549057 3.0892341 -0.63328499 97 0 0 0 38.302719
4.4007068 3.3605101 -0.61149359 184 0 0 0 39.286476
4.5682106 3.1420743 -0.61235219 177 0 0 0 40.065029
5.8401012 3.3001401 -0.58043957 254 0 0 0 41.432819
6.0228081 3.0204673 -0.5827859 251 0 0 0 42.210247
7.9006844 3.3609948 -0.53716516 248.5 0 0 0 43.19318
8.0696878 3.0851171 -0.54029262 219 0 0 0 43.775352
-17.14039 3.9795799 -0.65181077 104 0 0 0 3.13449
-12.840396 3.6399763 -0.80951393 98 0 0 0 3.9126799
-12.433425 3.8526425 -0.7888453 115 0 0 0 4.30621
-8.1074696 3.8630698 -0.75269753 230 0 0 0 6.6391301
-5.780724 3.7505586 -0.73706234 263 0 0 0 8.788723
-4.316041 3.5966997 -0.73145902 183.5 0 0 0 10.741961
-3.8149679 3.955976 -0.71675104 218 0 0 0 12.50009
-3.0819373 3.5068934 -0.71345127 104 0 0 0 13.27942
-2.7839215 3.6722646 -0.70574468 122.2 0 0 0 14.453951
-2.2579489 3.8756168 -0.68858951 81.800003 0 0 0 16.405485
-1.945174 3.9814417 -0.68106616 83 0 0 0 17.578569
1.2932082 3.9101634 -0.64564371 51.5 0 0 0 29.882824
1.7609134 3.7072899 -0.64543599 37.833332 0 0 0 31.840406
2.2881823 3.7763686 -0.6403048 79.5 0 0 0 33.401924
2.7790713 3.7989221 -0.63240373 122.4 0 0 0 34.77845
3.1004839 3.5449834 -0.63292605 139 0 0 0 36.149525
3.8644173 3.8903351 -0.60515314 221.66667 0 0 0 37.129395
4.1617222 3.6078167 -0.60808164 222.33333 0 0 0 38.305603
5.4059258 3.9068551 -0.57717407 294 0 0 0 39.67841
5.6039839 3.6418455 -0.57832384 296.5 0 0 0 40.451839
7.6446853 3.8250504 -0.53526664 205 0 0 0 42.21291
-20.868582 4.3180642 -0.79716086 18 0 0 0 2.74667
-16.673523 4.3010778 -0.63738298 200 0 0 0 3.5262899
-12.107012 4.0759158 -0.77378488 133 0 0 0 4.6965299
-7.789741 4.1848221 -0.74145538 237 0 0 0 7.4263301
-7.4716997 4.4945822 -0.73120922 226 0 0 0 8.2009296
-5.2509327 4.1792946 -0.71849877 251.25 0 0 0 10.349819
-4.9434638 4.4507008 -0.71270806 167 0 0 0 11.32148
-3.631031 4.0487967 -0.70965195 236 0 0 0 13.080339
-3.2803626 4.2400079 -0.70072079 273.5 0 0 0 14.257387
-2.863374 4.4328671 -0.69091457 200 0 0 0 15.627339
-1.6806593 4.0451751 -0.67445409 60.75 0 0 0 18.560835
-1.2588458 4.1252136 -0.66577554 56 0 0 0 20.12533
-0.78500509 4.1687469 -0.65680164 29.799999 0 0 0 21.874599
-0.26556534 4.1778998 -0.65024215 39.200001 0 0 0 23.829563
0.24703629 4.1357145 -0.64545912 25.200001 0 0 0 25.783503
0.75520062 4.0745583 -0.64767706 46.200001 0 0 0 27.735926
1.2366667 4.2243872 -0.63535619 52 0 0 0 29.291836
1.7515882 4.3418021 -0.62631953 65.800003 0 0 0 30.862371
2.2317238 4.1336317 -0.62975013 77.25 0 0 0 32.620739
3.3676784 4.3562512 -0.60737151 219.66667 0 0 0 35.170918
3.6210732 4.1281266 -0.60582131 262 0 0 0 36.149525
4.9056726 4.4546728 -0.57307863 312 0 0 0 37.919601
5.1363578 4.2194867 -0.57518268 270 0 0 0 38.695171
7.3335457 4.2551413 -0.5309757 268.5 0 0 0 41.237946
-16.25322 4.6170235 -0.62508291 116 0 0 0 3.9126799
-15.808487 4.9090538 -0.61201459 157 0 0 0 4.30621
-7.216146 4.705411 -0.72265494 233.5 0 0 0 8.7890301
-6.9676795 4.9140396 -0.71543705 258 0 0 0 9.3759003
-4.5473275 4.7359514 -0.70443815 283 0 0 0 12.50009
-4.2556 4.8844848 -0.69568133 298 0 0 0 13.275424
-2.6107724 4.5083413 -0.68249607 206 0 0 0 16.41057
-2.2983751 4.5876961 -0.67321128 146.5 0 0 0 17.380789
-1.806679 4.7006769 -0.66216248 123.5 0 0 0 18.953335
-1.2498009 4.7503848 -0.64749545 79.800003 0 0 0 20.707794
-0.70794654 4.7841463 -0.63905954 62.75 0 0 0 22.460352
-0.23363727 4.7786193 -0.63367933 84 0 0 0 24.025553
0.23461446 4.7210121 -0.62733996 60 0 0 0 25.588509
0.75835246 4.6726594 -0.63018852 47.799999 0 0 0 27.344223
1.2122344 4.5632615 -0.62977231 72.666664 0 0 0 28.90658
2.4444151 4.9359174 -0.605874 185 0 0 0 32.03233
2.7441912 4.7721052 -0.60635746 180.25 0 0 0 33.01313
3.0954137 4.5620809 -0.60771883 179.5 0 0 0 34.189747
4.411756 4.8861108 -0.56909484 345 0 0 0 36.34708
4.6591053 4.672255 -0.57065171 305.66666 0 0 0 37.129395
6.8031216 4.9042168 -0.5252223 250 0 0 0 39.67841
7.0937438 4.5986509 -0.52956283 292 0 0 0 40.451839
-15.388658 5.1921253 -0.60017127 91 0 0 0 4.6965299
-10.639869 5.087678 -0.71323603 106 0 0 0 6.6391301
-10.30862 5.3981833 -0.70394653 163.5 0 0 0 7.2305498
-6.7185836 5.1137466 -0.70884705 250 0 0 0 9.9576797
-6.4686379 5.3062692 -0.70270813 280 0 0 0 10.54556
-3.7589712 5.1354618 -0.68466663 365.5 0 0 0 14.65104
-3.2334282 5.3123145 -0.66985518 273.33334 0 0 0 16.017464
-2.7952168 5.4514332 -0.66089129 271.33334 0 0 0 17.184538
-2.4836826 5.4867425 -0.64992636 189 0 0 0 17.969549
-0.86489463 5.4663968 -0.59959143 129 0 0 0 22.263519
-0.2545473 5.4735956 -0.5953173 82.5 0 0 0 24.024994
0.48743618 5.4607577 -0.59775639 135 0 0 0 26.1693
0.72409123 5.2257752 -0.57466084 47.333332 0 0 0 26.954367
1.1721761 5.1495848 -0.57661062 379.75 0 0 0 28.320072
1.7527602 5.2238669 -0.60462433 155.75 0 0 0 29.882824
2.1891396 5.032259 -0.60308528 159.66667 0 0 0 31.253807
3.8636978 5.3770485 -0.57221806 255 0 0 0 34.583855
4.1777439 5.1146598 -0.57099009 299 0 0 0 35.561481
6.3877382 5.3666348 -0.52238011 283.5 0 0 0 38.498604
6.5874095 5.1304393 -0.52277756 268 0 0 0 39.088299
-9.8810558 5.8031044 -0.69355798 193 0 0 0 8.0094099
-5.5439796 5.8033571 -0.67492378 243 0 0 0 12.50009
-5.389606 5.9237432 -0.67392057 359 0 0 0 12.88126
-2.1916382 5.5445771 -0.64423871 194 0 0 0 18.757929
-1.7406845 5.5612273 -0.63040811 197 0 0 0 19.929283
-1.2315757 5.5567951 -0.61672258 136 0 0 0 21.29277
-0.73784125 5.7948546 -0.54670614 342.79999 0 0 0 22.731695
-0.33200309 5.6538873 -0.56802207 278 0 0 0 23.832178
0.21974082 5.5133119 -0.60121036 138 0 0 0 25.394913
2.865634 5.9335117 -0.56792033 254 0 0 0 31.83877
3.2302647 5.7508101 -0.56919897 245.33333 0 0 0 32.816875
3.601614 5.5743146 -0.57332158 245 0 0 0 33.796989
5.7839518 5.9273291 -0.51837313 272.5 0 0 0 36.935448
6.0851588 5.6482096 -0.51968277 269.5 0 0 0 37.718441
-13.506545 6.4740114 -0.55283177 33 0 0 0 6.6391301
-9.5669031 6.0983047 -0.68694168 156 0 0 0 8.5892496
-9.213377 6.3554401 -0.67799354 189.5 0 0 0 9.1823549
-5.1085825 6.0423136 -0.66618943 301 0 0 0 13.472506
-4.7301807 6.1797581 -0.65563625 230 0 0 0 14.259225
-4.2375817 6.2905097 -0.6393894 154 0 0 0 15.238093
-3.7339642 6.344224 -0.62065589 156 0 0 0 16.21191
-3.2766683 6.430779 -0.60915643 291 0 0 0 17.184538
-2.7783897 6.3830853 -0.58737147 782 0 0 0 18.167946
-2.2921822 6.278276 -0.56377572 737 0 0 0 19.149
-1.7541245 6.1665668 -0.54073352 620.33331 0 0 0 20.320589
-1.2549151 6.0648422 -0.52246958 528.66669 0 0 0 21.48587
2.3501537 6.1788859 -0.56881309 347 0 0 0 30.47473
2.5784864 6.0898933 -0.56955296 256 0 0 0 31.058105
5.3319554 6.3426361 -0.51861066 231.5 0 0 0 35.75758
5.5572534 6.1342998 -0.51803237 264 0 0 0 36.34708
-13.104215 6.6774287 -0.54268003 108 0 0 0 7.0317798
-12.586943 6.80338 -0.52743417 72 0 0 0 7.4293199
-12.086229 6.9166379 -0.51284492 133 0 0 0 7.8178902
-8.7212696 6.6636324 -0.66511488 188 0 0 0 9.9576797
-8.3828983 6.90413 -0.65845478 178 0 0 0 10.54556
-5.7411518 6.9801483 -0.54531395 772 0 0 0 13.66559
-5.2546687 6.8792396 -0.52147126 931.5 0 0 0 14.259225
-4.8062878 6.7904863 -0.50036871 934 0 0 0 14.84551
4.7990341 6.828331 -0.52237219 277 0 0 0 34.386593
5.0834785 6.523509 -0.51742518 212 0 0 0 35.169281
-11.75721 7.1132293 -0.50606263 215 0 0 0 8.2009296
-11.46629 7.323935 -0.50122321 330 0 0 0 8.5892496
-6.079639 7.0384679 -0.56176639 771 0 0 0 13.27942
3.8459845 7.4441862 -0.52349615 256 0 0 0 32.232307
4.3048773 7.2045922 -0.52501315 238.33333 0 0 0 33.206753
-6.9244232 7.6451163 -0.62674785 147 0 0 0 12.88126
3.5389066 7.5210133 -0.5186196 214 0 0 0 31.64521
-59.554028 9.3502607 -0.85295451 296 0 0 0 1.96093
-51.876057 9.4475393 -0.74240345 24 0 0 0 2.35376
9.6289616 -11.27775 -0.20030069 192 0 0 0 63.329681
5.2665725 -10.284136 -0.29119077 283.75 0 0 0 67.054176
7.9706068 -10.32861 -0.49140665 363 0 0 0 64.106903
21.320892 -9.5735493 -0.339939 27 0 0 0 56.279282
-0.039122023 -9.1346598 -0.22881082 397 0 0 0 74.675072
0.18501551 -9.1733208 -0.22985387 469 0 0 0 74.280067
3.7219152 -9.4521599 -0.25245452 663.5 0 0 0 68.617798
9.5408506 -9.185729 -0.49885544 134 0 0 0 61.754887
27.594065 -9.259263 -0.43683273 47 0 0 0 54.723598
9.4680157 -8.6795168 -0.48270822 327 0 0 0 61.369518
9.6592083 -8.2223721 -0.47632205 475.5 0 0 0 60.780518
13.439852 -8.1510868 -0.21428075 22 0 0 0 58.232761
-13.914165 -7.8848825 -0.24210009 176 0 0 0 91.502861
-7.4169579 -7.7770729 -0.2834782 10.5 0 0 0 86.810509
10.236971 -7.8792343 -0.48579991 277 0 0 0 59.996498
13.234859 -7.5897698 -0.2071646 26 0 0 0 57.846088
18.332718 -7.7000084 -0.28471264 144 0 0 0 55.895279
-3.8071852 -7.0839953 -0.2999559 537 0 0 0 82.508957
13.200674 -7.1458454 -0.20382556 90 0 0 0 57.456871
-3.9426496 -6.7345743 -0.29012913 74 0 0 0 83.095032
13.794838 -6.8219233 -0.21079662 63 0 0 0 56.867153
-30.457407 -6.0810351 -0.49632585 25 0 0 0 96.582916
-24.829254 -6.2364469 -0.4039737 56 0 0 0 95.800461
-4.7947059 -6.4438257 -0.496328 333 0 0 0 84.850441
-4.2309904 -6.1414323 -0.27592993 259.25 0 0 0 84.261559
8.5418119 -6.0936294 -0.25958127 749.5 0 0 0 59.40744
-4.6587381 -5.9511647 -0.28013575 148 0 0 0 85.235329
2.9024687 -5.8709726 -0.38998276 73 0 0 0 67.249344
2.2920716 -5.2830682 -0.48137534 84.333336 0 0 0 68.030022
2.959758 -5.3185759 -0.21028252 381.66666 0 0 0 66.465843
3.1701829 -5.0917587 -0.13349074 649.5 0 0 0 65.677773
3.7319713 -5.3845425 -0.38970435 99 0 0 0 64.893394
13.414001 -5.2558084 -0.19709824 678 0 0 0 55.510513
13.885039 -5.0501542 -0.20366275 320 0 0 0 55.11512
26.106298 -5.3216639 -0.40254363 22 0 0 0 52.776127
-1.5717231 -4.5663095 -0.2640979 215.66667 0 0 0 79.891312
-1.3622825 -4.6214008 -0.2236231 153.875 0 0 0 79.174873
2.4530408 -4.97154 -0.46176693 78 0 0 0 67.249344
2.7441781 -4.7726655 -0.43001032 78 0 0 0 66.229477
3.1731808 -4.8299656 -0.29157862 91 0 0 0 65.285255
3.5144138 -4.5799885 -0.48218077 96 0 0 0 64.106903
25.487017 -4.5472574 -0.39127886 30 0 0 0 52.382351
-6.6699405 -4.454855 -0.29933152 20 0 0 0 90.332245
-5.7123585 -4.1275282 -0.43097574 94.5 0 0 0 89.747322
2.9228866 -4.4556756 -0.44233373 63 0 0 0 65.281715
3.1489515 -4.4340658 -0.45220619 117.5 0 0 0 64.701111
-6.8330984 -3.8712697 -0.29206559 66 0 0 0 91.502861
-6.3166089 -3.892272 -0.18339989 834.5 0 0 0 90.926025
-5.8584309 -3.7088807 -0.42334858 157.66667 0 0 0 90.728096
-11.53136 -3.1998067 -0.16973516 204 0 0 0 95.415276
-11.311886 -3.438426 -0.31173918 484 0 0 0 95.029755
-6.110405 -3.4619579 -0.42905369 151 0 0 0 91.502861
24.499746 -3.1401227 -0.37381852 18 0 0 0 51.60231
-16.655809 -2.9038265 -0.25317505 143 0 0 0 96.968941
8.9945221 -2.7850475 -0.11773889 104 0 0 0 54.331806
9.2235508 -2.7311888 -0.35731137 97.5 0 0 0 54.141022
9.5272884 -2.6942213 -0.12605679 343 0 0 0 53.950241
-21.33852 -2.1208446 -0.32914659 149 0 0 0 98.144753
23.862587 -2.4648869 -0.36308727 29 0 0 0 51.211319
23.438765 -1.840888 -0.35615447 26 0 0 0 50.821793
22.933111 -1.235599 -0.34807983 23 0 0 0 50.429447
22.310286 -0.65321279 -0.33825043 28 0 0 0 50.035278
21.854086 -0.10290966 -0.3313947 32 0 0 0 49.644287
21.306648 0.4231115 -0.32318854 28 0 0 0 49.246941
20.777893 0.92367846 -0.31544316 27 0 0 0 48.860752
12.702019 1.348227 -0.494991 116.5 0 0 0 47.883015
20.402328 1.4099833 -0.31043419 48 0 0 0 48.477768
12.459917 1.7908338 -0.48819792 118 0 0 0 47.298992
20.012648 1.8781594 -0.30535373 24 0 0 0 48.075951
12.19473 2.2145858 -0.48105294 132.5 0 0 0 46.711445
11.804294 2.7500987 -0.47072488 125 0 0 0 45.925682
11.454851 3.425411 -0.46501794 168 0 0 0 44.947006
11.566751 3.1506121 -0.46590194 150 0 0 0 45.344681
18.86846 3.1869032 -0.29167673 28 0 0 0 46.905041
11.112487 3.7751698 -0.45649731 125 0 0 0 44.367695
18.172831 3.9971368 -0.28425992 40 0 0 0 46.121449
18.516165 3.5977476 -0.28783613 54 0 0 0 46.517849
10.72041 4.2426777 -0.44859439 171.5 0 0 0 43.580551
17.85231 4.3895473 -0.28117797 55 0 0 0 45.729912
-17.250986 4.8994961 -0.2303894 121 0 0 0 3.9126799
7.9471297 4.7419152 -0.12736833 109 0 0 0 41.043488
8.3188314 4.9598083 -0.37283617 167 0 0 0 41.043488
8.5828018 4.8346553 -0.25858924 762 0 0 0 41.432407
10.343813 4.6957068 -0.44212434 142 0 0 0 42.803261
17.518816 4.7674146 -0.27795646 39 0 0 0 45.344681
-16.7883 5.2126279 -0.22553509 205 0 0 0 4.30621
0.81979817 5.3943443 -0.26115388 330.66666 0 0 0 27.150719
1.2775607 5.2855077 -0.29408842 448.20001 0 0 0 28.515228
1.7579883 5.445353 -0.27557805 626.75 0 0 0 29.685522
7.8543186 5.2278824 -0.13081375 45 0 0 0 40.257889
9.8935823 5.249979 -0.43605405 146 0 0 0 41.822567
10.064528 5.0266142 -0.43790054 164 0 0 0 42.210247
16.797071 5.4715595 -0.27078825 51 0 0 0 44.565071
17.139355 5.1202021 -0.27400541 48 0 0 0 44.947006
-0.78375798 5.9586158 -0.21247642 567.33331 0 0 0 22.653666
-0.25005859 5.8461704 -0.26437357 670.13336 0 0 0 24.064304
0.23525025 5.7576356 -0.27501377 636.75 0 0 0 25.394913
0.67697698 5.6591606 -0.25301033 490 0 0 0 26.632446
1.2599237 5.5497332 -0.27284819 518.20001 0 0 0 28.281338
16.3603 5.7783957 -0.26592067 52 0 0 0 44.170319
-3.1858108 6.4456944 -0.25572693 1002.5 0 0 0 17.379965
-2.7704237 6.3643837 -0.2463785 958.66669 0 0 0 18.167946
-2.2884643 6.2682166 -0.23651011 942.11108 0 0 0 19.149
-1.7518851 6.1586208 -0.22657616 821.88892 0 0 0 20.320591
-1.2528484 6.0541883 -0.21864498 628.44446 0 0 0 21.485868
8.8637123 6.3752127 -0.42510682 166 0 0 0 39.67841
9.1496639 6.0804353 -0.42775553 168 0 0 0 40.257889
15.691658 6.4270897 -0.26013255 59 0 0 0 43.385754
16.068354 6.1239896 -0.26377985 41 0 0 0 43.775352
-5.7304602 6.9663734 -0.21583702 864.5 0 0 0 13.66559
-5.2486086 6.870625 -0.20604894 917.25 0 0 0 14.259225
-4.6321144 6.7469687 -0.2530126 1049 0 0 0 15.082324
-4.1291428 6.6487498 -0.27980167 973.33331 0 0 0 15.82091
-3.6394894 6.5463195 -0.26708046 1042 0 0 0 16.602125
8.2403545 6.9062033 -0.41825062 205.5 0 0 0 38.498604
8.5475454 6.6414986 -0.4212355 178 0 0 0 39.088299
15.406135 6.7575226 -0.25826707 61 0 0 0 43.000607
-14.006795 7.1387014 -0.20108615 212 0 0 0 7.0317798
-13.65413 7.3828092 -0.19862929 269 0 0 0 7.4293199
-6.0750351 7.032496 -0.2230666 782.5 0 0 0 13.27942
2.8588488 7.2084885 -0.29071581 771.5 0 0 0 30.667625
3.2340565 7.3447762 -0.30234221 742.33331 0 0 0 31.25569
7.834517 7.25354 -0.41513848 193.5 0 0 0 37.718441
14.990049 7.474719 -0.25783473 22 0 0 0 42.210247
15.1955 7.1159 -0.2579374 32 0 0 0 42.605919
-13.29796 7.6140118 -0.19617178 202 0 0 0 7.8178902
-12.63393 7.646203 -0.18824528 176 0 0 0 8.2009296
-12.239688 7.8202386 -0.18508993 263 0 0 0 8.5892496
-11.166315 7.5207796 -0.49611524 307 0 0 0 8.9888096
-10.747572 7.8226194 -0.49025604 333.5 0 0 0 9.5704451
3.5625155 7.5713091 -0.21409915 651 0 0 0 31.64521
7.2247162 7.7577896 -0.41213715 206 0 0 0 36.545361
7.5397124 7.5179329 -0.41399184 181 0 0 0 37.127258
-11.773412 8.1414061 -0.18272057 300 0 0 0 9.1823549
-11.320155 8.4559803 -0.18071859 321 0 0 0 9.7649899
-10.184361 8.199707 -0.48274726 363.5 0 0 0 10.347965
4.073699 8.1158533 -0.34693822 148 0 0 0 32.03233
6.7394691 8.196373 -0.41262046 211.33333 0 0 0 35.561478
-11.026737 8.6629648 -0.1796423 299 0 0 0 10.15037
-10.733793 8.8639059 -0.17865087 360 0 0 0 10.54556
4.4723911 8.8986607 -0.13972773 644 0 0 0 32.03233
4.7038302 8.807169 -0.38512677 219 0 0 0 32.432281
5.0441203 8.9085503 -0.14499101 329 0 0 0 32.816399
5.9901643 8.9535475 -0.41898102 163 0 0 0 33.992062
6.2822428 8.6789131 -0.41672391 188 0 0 0 34.583855
-8.4551458 9.3621111 -0.46832401 462 0 0 0 12.88126
5.3621058 9.4581566 -0.42265353 181 0 0 0 32.816399
5.6844621 9.2165871 -0.4211354 187.5 0 0 0 33.401924
12.751546 9.3937607 -0.24360143 73 0 0 0 39.48465
13.114642 9.171649 -0.24636593 73 0 0 0 39.872169
12.250484 9.7418709 -0.24049263 65.5 0 0 0 38.891396
-9.0405617 10.015702 -0.17561045 354 0 0 0 12.88126
11.479608 10.344293 -0.23705257 67 0 0 0 37.919601
11.800897 10.118528 -0.23866959 78 0 0 0 38.302719
10.457133 10.926726 -0.23165229 48 0 0 0 36.743641
10.785617 10.727937 -0.23310086 66 0 0 0 37.127258
11.126666 10.534677 -0.23490077 76 0 0 0 37.517281
9.8790016 11.396395 -0.23102503 76 0 0 0 35.951969
10.186292 11.182224 -0.23176073 84 0 0 0 36.34708
9.2876453 11.845267 -0.23047541 66 0 0 0 35.169281
9.5891199 11.628421 -0.23085412 65 0 0 0 35.56319
8.3259716 12.405819 -0.22822684 72 0 0 0 33.992062
8.7982311 12.117002 -0.22901301 60.5 0 0 0 34.583855
7.7447648 12.864977 -0.22919999 31 0 0 0 33.201939
8.0312662 12.627356 -0.22849254 36 0 0 0 33.601913
7.1801496 13.373406 -0.23156779 66 0 0 0 32.432281
9.6347313 -56.348389 0.4852984 335 0 0 0 71.943161
-2.5639729 -50.119297 0.41143724 17 0 0 0 75.457565
1.1157645 -49.918789 0.41575047 16 0 0 0 74.280067
-41.926765 -48.559872 0.48057958 10 0 0 0 86.030998
-3.6891971 -48.698814 0.39937934 19 0 0 0 75.848976
-43.716515 -48.19466 0.4868179 6 0 0 0 86.418365
-35.963566 -48.427925 0.45468956 6 0 0 0 84.850441
-4.8331809 -48.121708 0.39389646 19 0 0 0 76.244911
-29.933281 -47.186226 0.42512634 20 0 0 0 83.678123
-22.068081 -46.526718 0.39781657 10 0 0 0 81.722549
-26.301235 -46.328785 0.40811667 8 0 0 0 82.901695
-24.83567 -46.355049 0.40399098 14 0 0 0 82.508957
-20.666136 -46.47641 0.39420956 14 0 0 0 81.321754
-6.9205737 -46.074825 0.37713039 30 0 0 0 77.02285
-17.771809 -45.896202 0.38437542 24 0 0 0 80.549362
-16.399889 -45.64072 0.38024735 19 0 0 0 80.148956
-10.291181 -45.476837 0.37235767 21 0 0 0 78.195129
-9.1132517 -45.408916 0.3715789 28 0 0 0 77.804626
-5.6313739 -44.956985 0.36947525 23 0 0 0 76.641846
-29.01383 -43.351486 0.39879301 14 0 0 0 84.062874
-17.290672 -41.596523 0.35401919 8 0 0 0 80.934196
-10.568054 -41.901943 0.34663463 31 0 0 0 78.591209
-7.2657452 -41.428841 0.34232929 19 0 0 0 77.4189
-32.345779 -39.370773 0.38921657 29 0 0 0 85.626221
27.582109 -39.449295 0.44294 27 0 0 0 64.893394
-27.911318 -35.720837 0.35041663 12 0 0 0 85.235329
-37.304413 -35.498814 0.39298141 16 0 0 0 87.602402
-42.065258 -34.515541 0.41398501 12 0 0 0 88.758408
-16.748756 -33.181946 0.29658768 21 0 0 0 82.114357
-19.038549 -31.697054 0.2938399 34 0 0 0 83.288368
29.339272 -26.800415 0.37582317 29 0 0 0 61.369518
-51.730865 -22.959166 0.43711883 18 0 0 0 93.057991
-52.167221 -21.639448 0.43736464 16 0 0 0 93.458809
-53.451561 -20.65262 0.44436696 12 0 0 0 93.849373
28.988092 -13.865448 0.30641359 523 0 0 0 56.667473
9.5794544 -11.787974 0.16514209 121 0 0 0 63.720753
9.7079391 -11.365917 0.16327339 200 0 0 0 63.329681
4.9638224 -10.635125 0.42647287 108 0 0 0 67.64093
5.162056 -10.3866 0.27791274 400 0 0 0 67.249344
-0.038333952 -9.3730602 0.22456823 398.5 0 0 0 74.675072
3.5925322 -9.4568682 0.11887452 3 0 0 0 68.814491
34.671074 -8.8477383 0.32547399 107 0 0 0 53.548393
-7.6918941 -7.8695402 0.38657603 18.5 0 0 0 87.008018
-7.3581877 -7.9094152 0.24549793 16.5 0 0 0 86.614441
13.343188 -7.2194328 0.1649138 475 0 0 0 57.456871
13.745524 -7.0061035 0.16651702 77 0 0 0 57.066833
35.015709 -7.1268954 0.32207534 69 0 0 0 52.776127
47.053368 -7.1915569 0.41293985 996 0 0 0 51.989487
8.4757004 -6.0452433 0.38561589 928 0 0 0 59.40744
8.5056229 -6.0643773 0.12549229 712 0 0 0 59.40744
13.403066 -5.6318102 0.15730821 183 0 0 0 55.895279
2.9434195 -5.2873287 0.16156715 99.5 0 0 0 66.465843
3.1653235 -5.0831904 0.23486063 933.22223 0 0 0 65.677773
13.436806 -5.2616949 0.15583774 653 0 0 0 55.510513
41.68298 -5.3290129 0.36701223 30 0 0 0 51.60231
-37.735622 -4.6929326 0.31626028 28 0 0 0 97.755531
-1.5167584 -4.5291367 0.2466611 328.25 0 0 0 79.762489
-1.3498311 -4.5812535 0.24671987 189.125 0 0 0 79.174881
13.722297 -4.7976713 0.1558414 264.5 0 0 0 54.919357
-6.3220763 -4.0055718 0.088422246 647 0 0 0 90.729164
-6.5284572 -3.7007821 0.27408913 925.33331 0 0 0 91.502861
-6.3729386 -3.8216169 0.27235565 1017.3333 0 0 0 91.122887
38.02253 -3.9163506 0.3354806 1468 0 0 0 51.211319
-11.530592 -3.2007828 0.27192286 507 0 0 0 95.415276
-11.485274 -3.4944785 0.12247691 164 0 0 0 95.029755
43.24271 -3.3836563 0.37396789 45 0 0 0 50.821793
-16.90975 -2.7380271 0.16168624 44 0 0 0 97.16333
9.2463646 -2.8606026 0.11525486 56 0 0 0 54.331806
9.6978979 -2.827481 0.28741512 499.66666 0 0 0 54.077427
10.671653 -2.7341616 0.40116179 232 0 0 0 53.548393
-21.469011 -2.1377468 0.19571826 103 0 0 0 98.144753
43.809216 -1.2718861 0.37377042 18 0 0 0 50.035278
44.971634 -0.20196268 0.38069177 24 0 0 0 49.644287
45.424908 2.0261335 0.38071191 9 0 0 0 48.860752
7.8024697 4.9219637 0.21402021 2671 0 0 0 40.64579
8.2330742 4.9122887 0.22328588 577.5 0 0 0 41.043488
8.6062193 4.8509173 0.10430617 523 0 0 0 41.432407
0.74147362 5.3261333 0.27361697 1069 0 0 0 26.957689
1.2527779 5.4545164 0.075376056 319 0 0 0 28.315948
1.7502474 5.4271359 0.075546332 581.66669 0 0 0 29.685522
7.6395669 5.0863233 0.32919803 340 0 0 0 40.257889
8.9500113 5.041326 0.36457846 61 0 0 0 41.432407
-0.63646406 5.9621301 0.080073461 175 0 0 0 23.04561
-0.26591522 5.8427076 0.078556947 514.75 0 0 0 24.025555
0.23329426 5.745996 0.077316917 586.33331 0 0 0 25.394913
0.69558924 5.6473298 0.076516785 484 0 0 0 26.691572
1.1390121 5.5260706 0.24341381 330.79999 0 0 0 27.968643
-1.7542956 6.1675677 0.084844418 9 0 0 0 20.321699
-1.078518 6.416152 0.084479883 140 0 0 0 22.071964
-0.83218414 6.3700943 0.083520733 262 0 0 0 22.651871
2.8532152 7.1998348 0.089441143 761.5 0 0 0 30.667625
3.2303243 7.3415132 0.091094218 704 0 0 0 31.25569
-6.8988371 7.999567 0.12588499 185 0 0 0 13.27942
3.5592632 7.5691366 0.093311183 625 0 0 0 31.64521
-6.6857219 8.1458273 0.12522738 391 0 0 0 13.66559
4.0651116 8.1054258 0.098014109 97 0 0 0 32.03233
-6.8276954 8.7527742 0.12964767 486 0 0 0 14.05946
5.0494308 8.9191856 0.23381433 417.5 0 0 0 32.816399
-12.110257 9.0492144 0.17110027 170 0 0 0 9.7649899
-11.70256 9.1964836 0.16841811 324 0 0 0 10.15037
-11.389411 9.4080887 0.16684946 310 0 0 0 10.54556
-6.766808 9.1290159 0.13142993 522 0 0 0 14.45899
-16.617659 9.5279541 0.21123914 243 0 0 0 7.8178902
-13.899486 9.8774462 0.18936528 46 0 0 0 9.3759003
-8.1071301 9.9095392 0.46263745 194 0 0 0 13.66559
-6.6574903 9.7141438 0.1342203 560.5 0 0 0 15.042854
-9.9001646 10.448328 0.16055736 48 0 0 0 12.50009
-6.5500326 10.354565 0.1374664 511 0 0 0 15.62857
-5.2560463 10.438718 0.27579051 714.5 0 0 0 17.18136
-4.7380018 10.328904 0.26841599 680.25 0 0 0 17.774059
-4.2427235 10.220783 0.26146692 646.5 0 0 0 18.366341
-3.8452263 10.320953 0.25971827 639 0 0 0 18.953724
-21.153791 10.807661 0.25563663 217 0 0 0 7.0317798
-9.5913191 10.630072 0.15929152 285 0 0 0 12.88126
-7.6516967 10.898097 0.47833735 352 0 0 0 14.84551
-7.2237225 10.839324 0.46809489 462 0 0 0 15.2402
-6.8111849 10.77902 0.45837942 357 0 0 0 15.62857
-6.3821106 10.662069 0.29268211 596 0 0 0 16.01325
-5.8067031 10.552784 0.28397158 661.75 0 0 0 16.602125
-17.655882 11.309394 0.22674111 123 0 0 0 8.5892496
-8.1621275 11.045631 0.49289417 390 0 0 0 14.45899
25.604033 11.218384 0.23188767 19 0 0 0 43.000607
-21.842493 11.843781 0.26506647 175 0 0 0 7.4293199
-17.257917 11.657881 0.22470072 151 0 0 0 8.9888096
1.9928867 11.508164 0.41142771 23 0 0 0 27.34194
24.93762 11.664993 0.22821271 19 0 0 0 42.605919
24.477213 12.191255 0.22626173 18 0 0 0 42.210247
-23.466501 14.257135 0.2876544 100 0 0 0 8.2009296
-2.8692801 14.491202 0.14870384 114 0 0 0 21.481859
-3.269592 14.627906 0.15098818 356 0 0 0 21.095341
21.731745 15.980478 0.22072557 15 0 0 0 39.48465
21.296719 16.481653 0.22021413 25 0 0 0 39.088299
18.025953 18.78809 0.21318239 8 0 0 0 36.743641
-6.3461761 19.388918 0.19669591 66 0 0 0 19.539551
11.786748 19.520536 0.19170317 18 0 0 0 33.201939
12.826572 20.103369 0.19857778 41 0 0 0 33.601913
13.741988 20.410448 0.20353539 42 0 0 0 33.992062
