# .PCD v0.7 - Point Cloud Data file format
VERSION 0.7
FIELDS x y z intensity normal_x normal_y normal_z curvature
SIZE 4 4 4 4 4 4 4 4
TYPE F F F F F F F F
COUNT 1 1 1 1 1 1 1 1
WIDTH 968
HEIGHT 1
VIEWPOINT 0 0 0 1 0 0 0
POINTS 968
DATA ascii
-16.10038 -8.110527 3.7210541 35 0 0 0 92.180885
-15.655787 -8.3743038 3.6654439 28 0 0 0 91.801796
-8.4368296 -8.038311 3.5634727 21 0 0 0 87.513557
-7.9879775 -8.3923521 3.8294609 22 0 0 0 86.734352
-7.1504283 -8.2959127 3.8895776 44 0 0 0 85.942451
-6.9485826 -8.4730902 3.8915639 55 0 0 0 85.549377
5.0560284 -8.0114174 3.5956612 314 0 0 0 65.60672
5.8077712 -8.2693319 3.7089586 412 0 0 0 64.82164
7.0150876 -8.1559591 3.5511293 532 0 0 0 63.254089
8.3407898 -8.1540203 3.7025034 46.5 0 0 0 61.882698
11.381585 -8.023859 3.8985124 199 0 0 0 59.351898
13.427277 -8.0505638 3.988528 76 0 0 0 58.169952
-8.5681982 -7.771718 3.5375736 10 0 0 0 87.893311
-8.357708 -7.7061696 3.8499775 36 0 0 0 87.766724
-7.536727 -7.5382991 3.5254581 9 0 0 0 87.123322
-7.4690189 -7.8519888 3.8489721 84 0 0 0 86.734352
-6.5926518 -7.6478233 3.8350551 27 0 0 0 85.942451
7.2969203 -7.8112416 3.6158562 359.33334 0 0 0 62.602631
7.7405286 -7.7546873 3.8855405 58 0 0 0 62.076672
8.3888216 -7.6203241 3.7397537 90 0 0 0 61.300018
8.9928961 -7.7699585 3.6254184 76 0 0 0 60.911552
-16.107574 -7.1461053 3.6373241 19 0 0 0 92.970757
-15.7737 -7.0013003 3.9849858 50 0 0 0 92.970757
7.5959182 -7.2464337 3.7247977 47 0 0 0 61.688728
-18.022913 -6.9589629 3.984036 14 0 0 0 93.755791
-9.5601606 -6.7379127 3.8651938 83 0 0 0 89.859566
7.7319584 -6.8509626 3.6666269 72.5 0 0 0 61.105785
8.312993 -6.8386216 3.5545595 539 0 0 0 60.513641
9.7354221 -6.5155592 3.8654411 33 0 0 0 58.95512
-17.665911 -6.3274417 3.8701742 12 0 0 0 94.145363
-6.7136283 -6.3970389 3.5243983 89 0 0 0 87.513557
7.8957291 -6.3315563 3.7177265 110 0 0 0 60.318825
-11.66179 -5.8792729 3.9890709 42 0 0 0 92.180885
-10.387665 -5.5580602 3.8926456 37 0 0 0 91.801796
-8.9646587 -5.6811714 3.5098829 103 0 0 0 90.635429
-8.0087271 -5.6479244 3.7229047 41 0 0 0 89.859566
8.3084307 -5.8612895 3.6104262 34 0 0 0 59.351898
8.7070341 -5.5212889 3.660861 68 0 0 0 58.56078
-18.58078 -5.1483822 3.7374201 35 0 0 0 95.311668
-13.410986 -5.1807222 3.6772625 37 0 0 0 93.755791
-11.30839 -5.354784 3.5154188 48 0 0 0 92.56974
-10.708182 -5.0705605 3.9143271 49 0 0 0 92.56974
-8.2976875 -5.4052534 3.6400704 50.5 0 0 0 90.439651
8.9619741 -5.082428 3.9121206 194 0 0 0 57.786209
9.3859835 -5.0210147 3.7793455 88 0 0 0 57.385639
-13.670425 -4.5235991 3.6824851 30 0 0 0 94.541351
-10.695428 -4.5908618 3.5582185 199.5 0 0 0 93.166397
-8.3068523 -4.9868298 3.6808548 19 0 0 0 91.028656
9.137104 -4.888401 3.9349961 183 0 0 0 57.385639
-29.597733 -4.3988991 3.9294951 12 0 0 0 97.266273
-11.175936 -4.0071435 3.6283369 244 0 0 0 94.145363
-10.462535 -4.0458059 3.9819517 16 0 0 0 93.755791
8.942028 -4.2328858 3.7597797 14 0 0 0 56.6124
-12.151308 -3.6949513 3.8788767 130 0 0 0 94.93573
-28.280239 -3.4958603 3.7429516 15 0 0 0 97.651192
-16.285622 -3.2475848 3.8328528 57 0 0 0 96.483963
-12.522749 -3.4721966 3.6485693 134 0 0 0 95.311668
-11.213531 -3.2616856 3.716284 67 0 0 0 95.123703
-17.115038 -2.5439136 3.5682399 19 0 0 0 97.266273
-12.30794 -2.7702248 3.5425401 235 0 0 0 96.088188
-11.642468 -2.9245884 3.6674831 111 0 0 0 95.697723
-11.328497 -2.5518763 3.5486064 144 0 0 0 96.088188
-10.413567 -2.6178434 3.8121798 83 0 0 0 95.697723
-9.7582493 -2.836077 3.7368679 52.5 0 0 0 95.123703
-14.050521 -2.0910091 3.9840312 128 0 0 0 97.266273
-12.402856 -2.4756527 3.8619335 111 0 0 0 96.483963
-12.842806 -1.5924106 3.9501626 69 0 0 0 97.651192
-12.427242 -1.8517087 3.8363266 306 0 0 0 97.266273
-11.786157 -1.7541103 3.93454 271 0 0 0 97.266273
-12.64461 -1.2512844 3.5665567 78 0 0 0 98.041458
-12.033284 -0.89522082 3.6849148 57 0 0 0 98.436333
-10.284132 -0.63847995 3.9109511 112.5 0 0 0 98.62841
-9.7787762 -0.12501799 3.7132697 73 0 0 0 99.406006
-11.124022 0.26371944 3.9491026 43 0 0 0 0
-10.088762 1.4758931 3.571547 23 0 0 0 1.9521
-10.546798 1.5444554 3.9920442 37 0 0 0 1.9521
-36.549831 6.3019114 3.9160142 10 0 0 0 2.3463199
-19.727901 8.6809816 3.8615384 215 0 0 0 6.2423301
-19.882576 9.3360767 3.9342229 167 0 0 0 6.63414
-20.338108 10.163766 3.5112967 160 0 0 0 7.0209799
-5.7665162 10.259563 3.5551221 248.5 0 0 0 16.572784
-5.0771155 10.488322 3.5214 329 0 0 0 17.54553
-7.2941461 10.739348 3.6005764 65 0 0 0 15.20742
-6.9844861 10.840385 3.892194 12 0 0 0 15.59643
-4.9493113 10.902904 3.6186242 183 0 0 0 17.93795
-20.771181 11.024511 3.6301279 146 0 0 0 7.4123502
-21.28046 11.972781 3.7677295 125 0 0 0 7.7993999
-10.1844 11.662254 3.5296249 110 0 0 0 13.25405
-4.6757746 11.824751 3.5320888 235 0 0 0 18.72229
-4.5053272 12.271692 3.631408 143 0 0 0 19.11471
-21.81468 12.988455 3.9166174 113 0 0 0 8.1906204
-4.1727695 13.376665 3.5458062 190 0 0 0 19.889811
-22.94055 15.229594 3.5660298 116 0 0 0 8.96556
-3.5497441 15.291606 3.587661 159 0 0 0 21.05868
-23.641092 16.545616 3.7350545 80 0 0 0 9.3518095
-2.2535348 17.3508 3.57165 178 0 0 0 22.62641
-24.297295 17.91007 3.9051976 52 0 0 0 9.7516499
-1.8563238 17.695814 3.6324885 175 0 0 0 23.01441
-66.212074 18.253397 3.8437858 13 0 0 0 3.8983901
-1.4452752 18.056053 3.6983278 96 0 0 0 23.40663
0.8853417 20.341719 3.6576896 129 0 0 0 25.351379
1.4263054 20.883873 3.7604175 70 0 0 0 25.753611
-42.984436 21.544264 3.8740971 18 0 0 0 7.0209799
5.7291794 23.332516 3.7237751 69 0 0 0 28.47761
6.3671756 23.424597 3.7628467 129 0 0 0 28.871531
7.0280247 23.5485 3.8098109 152 0 0 0 29.2591
7.7006526 23.659552 3.8577008 121 0 0 0 29.64827
13.433148 23.91927 3.5770802 98 0 0 0 32.772758
14.095946 23.713018 3.5975993 64 0 0 0 33.168209
14.808096 23.56992 3.630512 27 0 0 0 33.554928
19.330597 23.702335 3.9890227 26 0 0 0 35.514366
11.99532 24.062014 3.5049813 88 0 0 0 31.99684
12.781441 24.131002 3.560029 113 0 0 0 32.391239
26.850441 24.447218 3.8385642 28 0 0 0 37.86935
26.107292 24.972437 3.8186305 50 0 0 0 37.478321
25.583744 25.705454 3.8325713 46 0 0 0 37.078552
25.357218 26.761539 3.8946424 30 0 0 0 36.690281
-23.936127 -29.177265 4.0369525 6 0 0 0 85.549377
31.166855 -26.869576 4.3346086 20 0 0 0 60.911552
-27.085268 -25.797213 4.0009727 9 0 0 0 87.513557
-28.687029 -24.75539 4.0521083 8 0 0 0 88.284561
137.20226 -23.71237 4.3214335 7 0 0 0 52.322311
138.04672 -20.382137 4.3323936 18 0 0 0 51.92271
19.988657 -17.239117 4.0971513 34 0 0 0 60.911552
18.696074 -15.342428 4.3562741 33 0 0 0 60.513641
1.6578232 -13.517614 4.4883518 24 0 0 0 72.651596
3.4486239 -13.798863 4.3326263 19 0 0 0 70.701645
1.9754504 -13.383892 4.4585752 16 0 0 0 72.259712
3.3238018 -12.658852 4.3132906 124 0 0 0 70.503845
3.5135274 -12.731937 4.0253749 98 0 0 0 70.306038
0.28898945 -12.012983 4.2594213 80 0 0 0 74.207809
0.58671004 -12.067657 4.2821913 42 0 0 0 73.823311
20.30122 -12.163199 4.2631841 80 0 0 0 58.169952
25.565201 -12.077928 4.3860388 18 0 0 0 56.6124
-3.6308463 -11.953742 4.1248083 28 0 0 0 79.286873
-2.3336377 -11.719792 4.2384644 31 0 0 0 77.729233
-1.1469884 -11.602413 4.4202876 33 0 0 0 76.165001
-0.58039421 -11.705613 4.1558542 53 0 0 0 75.392151
-0.15071853 -11.809803 4.1877289 29.5 0 0 0 74.795166
5.6552453 -11.980969 4.0360966 31 0 0 0 67.567024
-9.0612497 -11.049699 4.3633633 30 0 0 0 85.549377
-8.0211287 -11.396118 4.2558026 24 0 0 0 84.375298
-0.0069702906 -11.05337 4.1912732 42 0 0 0 74.597527
5.8100529 -11.230315 4.1667156 35.5 0 0 0 66.979401
11.303104 -11.313548 4.0726461 64 0 0 0 62.076672
-9.5855522 -10.584987 4.3604536 28 0 0 0 86.339699
-9.3681231 -10.869122 4.3813696 23 0 0 0 85.942451
-8.0072851 -10.802935 4.1075358 41 0 0 0 84.76004
-2.4666984 -10.972495 4.266046 60 0 0 0 78.113274
4.7405148 -10.719078 4.1520691 122 0 0 0 67.953323
11.499477 -10.958277 4.0454907 47 0 0 0 61.688728
24.656282 -10.916868 4.1850553 27 0 0 0 56.220619
-6.7924027 -10.445574 4.4212685 41.5 0 0 0 83.784607
4.7989569 -10.171535 4.2612634 130 0 0 0 67.567024
6.2407789 -10.439477 4.0091295 34 0 0 0 65.998741
9.2827396 -10.254099 4.2120662 54 0 0 0 62.865513
12.242055 -10.054285 4.0347767 248 0 0 0 60.513641
21.938816 -10.36769 4.3711929 16 0 0 0 56.6124
-8.6204758 -9.9972506 4.3591886 41 0 0 0 85.942451
-8.1915979 -9.9843836 4.2653379 15 0 0 0 85.549377
4.4161458 -9.9903603 4.1395316 113 0 0 0 67.953323
5.7190046 -9.8359928 4.3110313 64.5 0 0 0 66.196976
-8.1604805 -9.0063543 4.0156097 41 0 0 0 86.339699
-6.4981546 -9.232378 4.0085049 70 0 0 0 84.375298
4.9824438 -9.3473797 4.0155511 39 0 0 0 66.781448
6.2010818 -9.3003378 4.2359862 229 0 0 0 65.220169
11.538859 -9.0099068 4.4565516 150 0 0 0 60.124008
13.982266 -9.3449783 4.2811532 25 0 0 0 58.95512
-8.1205873 -8.9688082 4.2939916 22 0 0 0 86.339699
-6.8203673 -8.7459059 4.2098203 51 0 0 0 85.149284
6.4347124 -8.6954956 4.100853 244 0 0 0 64.439156
11.36989 -8.8820677 4.0373626 175 0 0 0 60.124008
11.685142 -8.6705675 4.4298139 21 0 0 0 59.740368
21.37155 -8.8436947 4.1690869 16 0 0 0 55.827969
-15.913092 -8.2664585 4.1405277 34 0 0 0 91.991341
-8.2639055 -8.2727404 4.1509171 25 0 0 0 87.123322
-7.6291113 -8.2205658 4.257122 43.5 0 0 0 86.537025
11.353909 -8.0011425 4.230752 174 0 0 0 59.351898
-19.173731 -7.9494352 4.2782955 25 0 0 0 93.36203
-16.490694 -7.8095012 4.2118049 46 0 0 0 92.56974
-8.3358955 -7.7510977 4.1819534 16.5 0 0 0 87.70343
7.2686558 -7.6502819 4.0024524 257 0 0 0 62.471191
7.5067406 -7.5214429 4.0303864 565 0 0 0 62.076672
10.583779 -7.8591595 4.3439732 81 0 0 0 59.740368
11.491318 -7.6823502 4.2106905 130 0 0 0 58.95512
7.6790266 -7.3249111 4.0252938 260 0 0 0 61.688728
11.740601 -7.2379293 4.2021265 216 0 0 0 58.365364
20.913338 -7.4736314 4.0054693 21 0 0 0 55.054729
-16.19977 -6.7196417 4.4792824 28 0 0 0 93.36203
11.78606 -6.6811767 4.4644403 85 0 0 0 57.786209
38.921349 -6.7251997 4.1651921 24 0 0 0 52.322311
9.5891285 -6.413034 4.0905681 47 0 0 0 58.95512
-19.139366 -5.812613 4.1224647 57 0 0 0 94.93573
-17.394154 -5.755888 4.2273698 12 0 0 0 94.541351
-16.535915 -5.925952 4.0545864 19 0 0 0 94.145363
-11.445055 -5.0821147 4.288115 31.5 0 0 0 92.970757
-10.67107 -5.0575809 4.1907549 32 0 0 0 92.56974
-11.700857 -4.5200577 4.1418991 96 0 0 0 93.755791
37.884296 -4.6433721 4.0272164 29 0 0 0 51.536758
-27.17313 -4.0385852 4.2900734 17 0 0 0 97.266273
-11.727417 -4.2026305 4.1135793 46 0 0 0 94.145363
-10.663559 -4.4272776 4.0978599 47 0 0 0 93.36203
-19.33502 -3.8520947 4.0619335 19 0 0 0 96.483963
-12.018476 -3.9816334 4.49016 72 0 0 0 94.541351
-11.918694 -3.9439442 4.1450505 132 0 0 0 94.541351
-30.43347 -3.005461 4.0136218 11 0 0 0 98.041458
-27.319622 -3.3771226 4.2980385 12 0 0 0 97.651192
-12.181922 -3.218698 4.1598577 183 0 0 0 95.5047
-15.819039 -2.7526445 4.1007786 27 0 0 0 96.867599
-13.329647 -2.6581964 4.4840741 248 0 0 0 96.483963
-12.048071 -2.7139468 4.2280684 341 0 0 0 96.088188
-27.824244 -2.059489 4.3543053 17 0 0 0 98.436333
-13.312819 -2.3166146 4.4578767 78 0 0 0 96.867599
-11.883787 -2.3742163 4.2982354 95 0 0 0 96.483963
-17.922916 -1.7733636 4.1525507 28 0 0 0 98.041458
-12.009512 -1.7916164 4.3062172 41 0 0 0 97.266273
-17.707907 -1.3140094 4.0940714 94 0 0 0 98.436333
-13.13904 -1.3013414 4.1912441 45 0 0 0 98.041458
-11.555363 -1.147593 4.4034934 20 0 0 0 98.041458
-11.263757 -1.2567868 4.1585784 144.5 0 0 0 97.846329
-12.344405 -0.81658632 4.1845055 65.666664 0 0 0 98.564384
-11.436205 -0.57089281 4.0618534 59 0 0 0 98.820488
-12.441163 -0.15974326 4.2587452 168 0 0 0 99.406006
-10.685 0.25329667 4.0561023 38 0 0 0 0
-19.59668 8.6245098 4.3596029 282 0 0 0 6.2423301
-19.099817 8.9679575 4.2958455 296 0 0 0 6.63414
-18.708317 9.3477783 4.2572041 231 0 0 0 7.0209799
-18.429857 9.7780113 4.2462559 184 0 0 0 7.4123502
-20.340378 10.166619 4.0715137 163 0 0 0 7.0209799
-18.198654 10.232578 4.2486572 268 0 0 0 7.7993999
-18.075693 10.75364 4.2799697 270 0 0 0 8.1906204
-20.764563 11.022744 4.2078862 142 0 0 0 7.4123502
-18.015688 11.323581 4.3293848 241 0 0 0 8.58216
-21.24934 11.957002 4.3628173 120 0 0 0 7.7993999
-18.075359 11.988399 4.4121904 189 0 0 0 8.96556
-21.23917 12.645826 4.4226184 96 0 0 0 8.1906204
-21.007099 13.213966 4.4394917 87 0 0 0 8.58216
-20.776199 13.78925 4.4598918 97 0 0 0 8.96556
-22.349596 14.061087 4.0718117 92 0 0 0 8.58216
-20.571451 14.390594 4.4894462 78 0 0 0 9.3518095
-19.043413 14.022638 4.2295537 156 0 0 0 9.7516499
-22.974342 15.254174 4.2509146 93 0 0 0 8.96556
-19.649969 15.228528 4.4446874 131 0 0 0 10.1337
-3.8978522 15.100334 4.3313375 7 0 0 0 20.67235
-23.640659 16.547432 4.4463487 71 0 0 0 9.3518095
50.330822 20.927565 4.4187765 25 0 0 0 43.34515
25.768091 28.566589 4.0616889 18 0 0 0 36.304432
-19.821028 -51.426403 4.5341372 11 0 0 0 80.469208
-21.020514 -50.787403 4.5231099 9 0 0 0 80.851967
-22.195358 -50.108719 4.5109158 27 0 0 0 81.249641
-15.082696 -42.183121 4.7788644 15 0 0 0 80.074005
-23.135286 -29.667986 4.9494276 12 0 0 0 85.149284
-24.720924 -28.680347 4.981091 9 0 0 0 85.942451
-23.558409 -28.727768 4.8880467 9 0 0 0 85.549377
-35.353844 -27.602856 4.7895751 7 0 0 0 89.063728
-33.674534 -27.648195 4.6540046 11 0 0 0 88.678909
-24.731188 -27.307083 4.847425 12 0 0 0 86.339699
-25.15806 -26.443985 4.8026109 19 0 0 0 86.734352
-34.964046 -25.942646 4.6495509 6 0 0 0 89.453438
39.674892 -17.56241 4.5670176 16 0 0 0 56.220619
34.588623 -16.333117 4.9720092 22 0 0 0 56.6124
-5.2546682 -15.277973 4.728682 22 0 0 0 79.876076
-4.6967998 -15.492497 4.9364185 31 0 0 0 79.286873
26.39575 -14.938489 4.7010274 57 0 0 0 57.786209
33.689289 -14.908658 4.7904778 17 0 0 0 56.220619
-5.0510578 -14.115056 4.9446702 18 0 0 0 80.074005
34.04987 -14.078557 4.7914681 13 0 0 0 55.827969
1.3547834 -13.843265 4.5837626 47 0 0 0 73.034088
2.2002416 -13.705956 4.7425108 30.5 0 0 0 72.063477
25.911148 -13.836068 4.5544095 21 0 0 0 57.385639
1.6529037 -13.436203 4.7934489 24 0 0 0 72.651596
2.6249373 -13.222737 4.7725754 73 0 0 0 71.481125
3.3202002 -13.276114 4.8437772 46 0 0 0 70.701645
26.517874 -13.333239 4.6019239 49 0 0 0 56.99604
-4.131649 -12.513456 4.9950156 27 0 0 0 79.678146
-2.2323709 -12.863161 4.9472461 48 0 0 0 77.339958
18.437059 -12.983557 4.6194563 46 0 0 0 59.351898
-8.2259569 -12.319545 4.5219064 31 0 0 0 83.976547
-3.2088323 -12.170412 4.7717733 60.5 0 0 0 78.704849
0.30106965 -12.45299 4.7193246 65 0 0 0 74.207809
0.59453106 -12.212309 4.6325331 35 0 0 0 73.823311
-7.7823739 -11.650046 4.624567 30 0 0 0 83.976547
5.5282845 -11.706447 4.5825109 42 0 0 0 67.567024
6.2413979 -11.69212 4.6904836 57 0 0 0 66.781448
6.7340784 -11.910845 4.5055537 17 0 0 0 66.395203
-3.4829924 -11.481019 4.5498939 30 0 0 0 79.286873
19.042805 -11.41062 4.5483727 32 0 0 0 58.169952
20.138189 -11.402813 4.740015 46 0 0 0 57.786209
26.955294 -11.149172 4.5243082 10 0 0 0 55.827969
-16.601585 -10.524067 4.5362649 15 0 0 0 90.635429
-7.3132505 -10.393597 4.8198943 15 0 0 0 84.375298
-6.7808213 -10.156245 4.632421 30 0 0 0 83.976547
20.688763 -10.407119 4.7439814 112 0 0 0 56.99604
27.262611 -10.499463 4.5314775 32 0 0 0 55.444248
28.234829 -10.083965 4.6497355 13 0 0 0 55.054729
-7.085196 -9.5611944 4.5150466 16 0 0 0 84.76004
11.563281 -9.031765 4.8298745 118 0 0 0 60.124008
21.168728 -9.3752193 4.7432146 34 0 0 0 56.220619
42.220379 -9.4509668 4.5576496 33 0 0 0 53.092499
7.9827771 -8.8203249 4.5066204 62 0 0 0 62.865513
9.6731739 -8.7738113 4.9440122 57 0 0 0 61.300018
14.80695 -8.8744354 4.8230209 50 0 0 0 58.169952
17.851593 -8.9791451 4.5888472 41 0 0 0 56.99604
21.560287 -8.9212961 4.7803688 36 0 0 0 55.827969
43.821503 -8.6844349 4.7052441 26 0 0 0 52.705048
-15.882226 -8.251729 4.571907 30.5 0 0 0 91.991341
11.386856 -8.0269156 4.5885377 46 0 0 0 59.351898
14.758645 -8.3598585 4.7400699 22 0 0 0 57.786209
18.278324 -8.0940723 4.5912633 23 0 0 0 56.220619
20.847301 -8.0328617 4.5793209 28 0 0 0 55.444248
-18.621677 -7.7243819 4.6495361 11 0 0 0 93.36203
-17.241333 -7.6529408 4.8157611 34 0 0 0 92.970757
-15.197056 -7.6589069 4.7706847 50 0 0 0 92.180885
17.430765 -7.7195215 4.8492327 58 0 0 0 56.220619
-18.315254 -7.0755734 4.5287423 16 0 0 0 93.755791
9.8788166 -7.3320494 4.6608386 29 0 0 0 59.740368
-16.349279 -6.7817225 4.9598217 35 0 0 0 93.36203
11.796972 -6.6816468 4.8006396 54 0 0 0 57.786209
-12.079054 -6.0924911 4.796978 44 0 0 0 92.180885
12.047732 -6.0616612 4.7765884 34 0 0 0 56.99604
-18.680744 -5.6769056 4.5023227 11 0 0 0 94.93573
61.410778 -5.9968615 4.986598 13 0 0 0 51.148121
-26.523741 -5.2841392 4.894629 16 0 0 0 96.483963
-20.672035 -5.1888399 4.9110241 31 0 0 0 95.697723
-11.618473 -5.1616459 4.8206286 19 0 0 0 92.970757
-11.493692 -5.4476728 4.8230138 10 0 0 0 92.56974
-10.9774 -4.5576506 4.5085821 25 0 0 0 93.36203
37.536671 -4.5939307 4.9215984 19 0 0 0 51.536758
-12.502503 -4.4853811 4.709455 56 0 0 0 94.145363
-11.646915 -4.1784062 4.6921263 31 0 0 0 94.145363
-12.02454 -3.9836621 4.8025522 71 0 0 0 94.541351
-11.771 -3.5815835 4.6654358 90 0 0 0 94.93573
37.168633 -3.6244156 4.8612032 22 0 0 0 51.148121
-12.377744 -3.4366686 4.5549984 186 0 0 0 95.311668
-11.739524 -2.7969785 4.57654 219.5 0 0 0 95.89296
-13.449963 -2.3453031 4.8383017 90 0 0 0 96.867599
-17.807581 -1.7619461 4.5652246 71 0 0 0 98.041458
-12.671523 -1.8903409 4.8556051 67 0 0 0 97.266273
-17.669155 -1.3111242 4.5200315 39 0 0 0 98.436333
-19.579199 8.6143179 4.8758574 198 0 0 0 6.2423301
-19.099884 8.965517 4.8088913 255 0 0 0 6.63414
-18.713654 9.3479576 4.7670383 257 0 0 0 7.0209799
-18.41737 9.7687902 4.7502894 277 0 0 0 7.4123502
-18.212664 10.237886 4.7599521 248 0 0 0 7.7993999
-18.051277 10.736317 4.7849479 278 0 0 0 8.1906204
-17.999763 11.310698 4.8425865 245 0 0 0 8.58216
-18.113249 12.010737 4.9500875 176 0 0 0 8.96556
-18.408754 12.870933 4.5683198 155 0 0 0 9.3518095
-18.988029 13.983328 4.7947702 102 0 0 0 9.7516499
-3.8896484 15.058035 4.7006373 12 0 0 0 20.67235
-20.31781 16.562075 4.6850281 71 0 0 0 10.52317
-24.337643 17.942165 4.6572185 70 0 0 0 9.7516499
-29.574549 22.958979 4.8372307 50 0 0 0 10.1337
27.887394 24.171759 4.8094835 10 0 0 0 38.262459
51.357292 24.377552 4.6070051 11 0 0 0 42.553299
26.919704 24.518772 4.7454438 14 0 0 0 37.86935
26.169449 25.040541 4.7199779 12 0 0 0 37.478321
25.602587 25.733397 4.7297082 40 0 0 0 37.078552
51.972202 26.252111 4.7176504 7 0 0 0 42.16293
25.28054 26.690298 4.7887368 33 0 0 0 36.690281
5.1472526 30.370058 4.7603793 108 0 0 0 27.317419
5.9845581 30.703428 4.8349915 100 0 0 0 27.70414
21.401283 30.570179 4.8554955 27 0 0 0 34.342926
6.8876905 31.221054 4.9421268 42 0 0 0 28.087811
-10.810036 -39.120071 5.3276052 7 0 0 0 78.901917
-27.78018 -26.469252 5.046895 6 0 0 0 87.513557
-28.388996 -25.750113 5.0409503 14 0 0 0 87.893311
19.059179 -15.638991 5.0470142 31 0 0 0 60.513641
-4.7817907 -14.491333 5.4062457 30 0 0 0 79.678146
2.4635534 -14.21413 5.2813654 40.5 0 0 0 71.867249
25.742632 -13.745751 5.2480664 13 0 0 0 57.385639
1.2920148 -13.159989 5.0070267 22 0 0 0 73.034088
1.6288979 -13.240753 5.0508761 29 0 0 0 72.651596
19.132036 -13.466176 5.3644261 23 0 0 0 59.351898
-5.7378159 -12.956883 5.3701353 10 0 0 0 81.249641
4.9771986 -12.916775 5.2368159 26 0 0 0 68.736359
19.169752 -12.800649 5.2858701 31 0 0 0 58.95512
25.54364 -12.843851 5.142786 25 0 0 0 56.99604
-7.2090135 -11.395452 5.1122575 14 0 0 0 83.592674
19.964714 -10.661209 5.1915073 23 0 0 0 57.385639
-16.55468 -10.494471 5.004549 28 0 0 0 90.635429
-8.4507294 -10.308785 5.0543723 47 0 0 0 85.549377
19.809769 -9.3589697 5.0275311 37 0 0 0 56.6124
11.599339 -8.6033115 5.1092954 37 0 0 0 59.740368
17.748962 -8.9273481 5.0511775 25 0 0 0 56.99604
21.710361 -8.9784946 5.3887501 16 0 0 0 55.827969
22.139261 -8.5247173 5.4414778 7 0 0 0 55.444248
-15.882956 -8.499711 5.0484781 33 0 0 0 91.801796
-15.447249 -8.2700253 5.3419561 11 0 0 0 91.801796
17.728239 -8.3774652 5.473887 31 0 0 0 56.6124
14.624671 -7.8125467 5.0432911 33 0 0 0 57.385639
17.445612 -7.7258029 5.3280168 25 0 0 0 56.220619
21.146166 -7.5519357 5.1529875 13 0 0 0 55.054729
-15.673914 -7.426156 5.2876182 34 0 0 0 92.56974
38.689228 -6.6779017 5.1070023 12 0 0 0 52.322311
-16.68792 -6.4485931 5.2325439 39 0 0 0 93.755791
-19.974884 -5.5384555 5.2863646 35 0 0 0 95.311668
11.8955 -5.9851713 5.0437694 34 0 0 0 56.99604
-12.499454 -4.8336954 5.0796337 38 0 0 0 93.755791
-13.660805 -2.7291782 5.2775288 52 0 0 0 96.483963
-13.49287 -2.3527813 5.189044 106 0 0 0 96.867599
-15.78266 -1.9539853 5.2402639 22 0 0 0 97.651192
38.410984 -1.847046 5.0055594 16 0 0 0 50.36866
-19.598362 8.6244087 5.4032526 238 0 0 0 6.2423301
-19.102751 8.9684515 5.3246942 266 0 0 0 6.63414
-18.744232 9.3648911 5.286262 240 0 0 0 7.0209799
-18.430788 9.7775059 5.2630234 269 0 0 0 7.4123502
-18.213854 10.240109 5.270349 296 0 0 0 7.7993999
-18.069368 10.748696 5.3030696 203 0 0 0 8.1906204
-18.006529 11.316537 5.3637366 209 0 0 0 8.58216
-18.061224 11.977607 5.4651837 193 0 0 0 8.96556
47.604824 11.985937 5.1761413 23 0 0 0 45.677639
-18.442192 12.891317 5.1240568 128 0 0 0 9.3518095
-19.044762 14.021959 5.3846388 104 0 0 0 9.7516499
-19.641485 15.223719 5.0515442 114 0 0 0 10.1337
48.894234 16.22254 5.4305215 14 0 0 0 44.50378
-20.340332 16.582438 5.3333039 85 0 0 0 10.52317
-43.030209 21.570837 5.0445108 23 0 0 0 7.0209799
-3.9169917 25.592875 5.2696662 96 0 0 0 22.23514
-1.4341259 26.741869 5.4538879 49 0 0 0 23.793421
0.56412005 27.90608 5.0003695 79 0 0 0 24.96348
2.7338035 28.988712 5.2185421 69 0 0 0 26.136181
25.771772 28.58079 5.0103798 16 0 0 0 36.304432
3.5161669 29.49481 5.324193 90 0 0 0 26.52562
4.3148451 29.910477 5.4174638 96 0 0 0 26.92017
26.451372 30.820396 5.284677 15 0 0 0 35.902111
11.820215 33.38699 5.4764352 42 0 0 0 30.03406
22.322828 33.605888 5.2451935 27 0 0 0 33.946381
-35.5835 -27.79274 5.9313431 12 0 0 0 89.063728
-25.983707 -27.31303 5.8919835 6 0 0 0 86.734352
-35.858311 -26.616518 5.8663011 7 0 0 0 89.453438
19.324762 -15.850068 5.7280841 22 0 0 0 60.513641
2.1600666 -14.573409 5.5743222 45 0 0 0 72.259712
12.940935 -11.167295 5.619421 21 0 0 0 60.911552
20.224174 -11.445877 5.9000969 42 0 0 0 57.786209
40.918873 -11.288257 5.5160728 6 0 0 0 53.881821
19.811922 -10.579437 5.7041688 22 0 0 0 57.385639
18.215662 -9.7288179 5.7619224 28 0 0 0 57.385639
11.347131 -9.3134136 5.5525565 34 0 0 0 60.513641
17.967594 -9.0366764 5.6130996 45 0 0 0 56.99604
20.044456 -9.4692297 5.6315227 18 0 0 0 56.6124
21.300222 -8.8089666 5.8544559 10 0 0 0 55.827969
21.968569 -7.8446517 5.9251609 22 0 0 0 55.054729
-16.42371 -6.812706 5.8590441 20 0 0 0 93.36203
-17.182255 -5.6891699 5.5150399 17 0 0 0 94.541351
37.478626 -4.5866017 5.8495069 27 0 0 0 51.536758
37.840958 -3.689676 5.8903537 17 0 0 0 51.148121
37.956955 -2.7613549 5.8965602 19 0 0 0 50.753719
36.594963 -0.85896003 5.6742039 13 0 0 0 49.973358
38.583145 0.042831983 5.9790816 29 0 0 0 49.581192
-20.199442 8.3073416 5.5121875 19 0 0 0 5.8494701
-19.101963 8.9696779 5.8456321 200 0 0 0 6.63414
-18.731348 9.359993 5.7997646 242 0 0 0 7.0209799
-18.431288 9.7793436 5.7784853 221 0 0 0 7.4123502
-18.207455 10.238058 5.7844405 207 0 0 0 7.7993999
-18.035061 10.729723 5.8114128 254 0 0 0 8.1906204
-18.431931 12.885736 5.6706381 122 0 0 0 9.3518095
-19.665434 15.238704 5.6633143 75 0 0 0 10.1337
-20.343554 16.581074 5.9731817 66 0 0 0 10.52317
50.38493 20.950142 5.7502589 18 0 0 0 43.34515
-29.531973 22.928534 5.7528949 49 0 0 0 10.1337
26.835194 24.442112 5.630003 27 0 0 0 37.86935
26.093767 24.968437 5.6012239 72 0 0 0 37.478321
-5.0980248 25.001598 5.8152609 95 0 0 0 21.454519
-4.5099363 25.272175 5.8514814 56 0 0 0 21.841789
-3.9209075 25.591564 5.9021358 38 0 0 0 22.23514
-3.315589 25.871017 5.9468541 45 0 0 0 22.62641
25.550858 25.681665 5.6177454 40 0 0 0 37.078552
25.272587 26.682032 5.697679 40 0 0 0 36.690281
-0.79352051 27.408224 5.5844979 15 0 0 0 24.186541
-0.12070902 27.714855 5.6455016 19 0 0 0 24.580589
0.56655991 27.997959 5.7051306 48 0 0 0 24.96348
1.2764063 28.443991 5.801343 21 0 0 0 25.351379
2.0018547 28.779882 5.8789773 16 0 0 0 25.753611
25.753445 28.560638 5.9594769 20 0 0 0 36.304432
2.7355335 29.004435 5.9377394 51 0 0 0 26.136181
5.1392393 30.322853 5.5141244 108 0 0 0 27.317419
6.0023298 30.792639 5.6253638 87 0 0 0 27.70414
21.387928 30.551292 5.7761545 23 0 0 0 34.342926
6.8975687 31.264816 5.7414398 82 0 0 0 28.087811
7.6850147 31.171637 5.7582932 55 0 0 0 28.47761
17.645838 31.372478 5.5725036 53 0 0 0 32.772758
18.550346 31.161058 5.6150312 39 0 0 0 33.168209
15.964545 31.966436 5.5299964 31 0 0 0 31.99684
16.792982 31.6535 5.546556 119 0 0 0 32.391239
15.103536 32.199753 5.5035553 80 0 0 0 31.60047
14.538499 35.409615 5.9179921 19 0 0 0 30.82461
15.403461 35.03989 5.9188218 15 0 0 0 31.2101
13.621779 35.646397 5.8987708 9 0 0 0 30.43133
-40.50985 -67.639671 6.4799809 8 0 0 0 83.204926
19.022116 -12.70131 6.3762536 40 0 0 0 58.95512
-15.330444 -8.2110958 6.1585379 19 0 0 0 91.801796
35.355366 -6.1027074 6.4484348 11 0 0 0 52.322311
47.658195 12.00831 6.3920236 14 0 0 0 45.677639
-10.224593 16.856579 6.4291568 79 0 0 0 15.99042
-9.695509 16.902012 6.3549476 56 0 0 0 16.38246
-11.812672 17.486946 6.3600664 40 0 0 0 15.20742
-9.3018608 17.17741 6.3714218 56 0 0 0 16.763109
-8.8713102 17.385914 6.3668995 68 0 0 0 17.16094
-12.489111 17.54981 6.4911861 60 0 0 0 14.82238
-8.287796 17.835197 6.4166136 116 0 0 0 17.741741
-21.210762 18.175434 6.3560767 62 0 0 0 10.9153
-14.271988 18.124094 6.3855495 65 0 0 0 14.03068
-13.693421 18.291969 6.3252134 24 0 0 0 14.42851
-10.917929 18.003038 6.3464947 39 0 0 0 15.99042
-7.7199788 18.349522 6.4955292 89 0 0 0 18.336121
-16.361071 18.814249 6.2834969 48 0 0 0 13.25405
-13.215217 18.584278 6.3128314 37 0 0 0 14.82238
-15.913966 19.231255 6.2907524 26 0 0 0 13.64357
-8.201787 19.4991 6.3796148 33 0 0 0 18.336121
-18.983824 19.795444 6.2400198 25 0 0 0 12.46872
-15.421528 19.593334 6.2838964 30 0 0 0 14.03068
-7.7452488 19.755159 6.4001026 39 0 0 0 18.72229
-7.2573738 19.934732 6.3996196 36 0 0 0 19.11471
-18.480339 20.239525 6.2353697 25 0 0 0 12.86552
-6.7676921 20.109549 6.4014702 39 0 0 0 19.504219
-6.3055243 20.376795 6.4361777 33 0 0 0 19.889811
-5.7803764 20.439642 6.4104772 63 0 0 0 20.291611
-7.3534088 21.887665 6.3981514 32 0 0 0 19.504219
-6.8327632 22.120602 6.4161515 31 0 0 0 19.889811
-6.3062973 22.345778 6.435554 37 0 0 0 20.291611
-5.2120943 22.667116 6.4485774 40 0 0 0 21.05868
-4.6507282 22.768513 6.444119 36 0 0 0 21.454519
-4.0826635 22.828506 6.4319553 33 0 0 0 21.841789
-3.5350142 23.012608 6.4584398 24 0 0 0 22.23514
-2.9701326 23.098412 6.4612565 43 0 0 0 22.62641
-2.4073954 23.213528 6.4760795 73 0 0 0 23.01441
-6.7774591 24.040508 6.3022618 39 0 0 0 20.291611
-6.1936212 24.229826 6.3110452 8 0 0 0 20.67235
-5.6194243 24.471191 6.3369412 31 0 0 0 21.05868
51.487305 24.439287 6.0042686 17 0 0 0 42.553299
-5.0813031 24.920502 6.4196963 48 0 0 0 21.454519
-4.492919 25.177401 6.4564037 34 0 0 0 21.841789
-3.8744171 25.283186 6.4583015 28 0 0 0 22.23514
-3.257189 25.404598 6.4680309 36 0 0 0 22.62641
-2.6316595 25.464619 6.4660821 28 0 0 0 23.01441
-2.010926 25.587597 6.4839258 28 0 0 0 23.40663
-2.707432 26.222446 6.0112972 37 0 0 0 23.01441
52.06596 26.299519 6.1442871 13 0 0 0 42.16293
-2.0797935 26.504021 6.0631814 50 0 0 0 23.40663
-1.4365773 26.704237 6.1000443 41 0 0 0 23.793421
-0.79210997 27.178307 6.202693 43 0 0 0 24.186541
-0.12502873 27.497118 6.2737408 38 0 0 0 24.580589
0.55887562 27.867638 6.3603005 46 0 0 0 24.96348
1.2605782 28.213144 6.4451461 47 0 0 0 25.351379
3.5137675 29.473787 6.0503831 51 0 0 0 26.52562
4.3045616 29.83968 6.1462078 32 0 0 0 26.92017
5.1304531 30.271166 6.2599678 36 0 0 0 27.317419
5.9964681 30.762463 6.3908401 50 0 0 0 27.70414
26.459101 30.829491 6.2924933 16 0 0 0 35.902111
17.701963 31.471872 6.4843845 31 0 0 0 32.772758
15.958805 31.955069 6.4126239 33 0 0 0 31.99684
16.808529 31.68273 6.4399104 31 0 0 0 32.391239
8.8366194 32.380665 6.0195842 22 0 0 0 28.871531
15.107616 32.208458 6.3860316 49 0 0 0 31.60047
9.8420391 32.856598 6.1515956 28 0 0 0 29.2591
14.422099 32.820271 6.4337244 59 0 0 0 31.2101
10.914255 33.418221 6.3054061 5 0 0 0 29.64827
11.830978 33.417091 6.3590178 69 0 0 0 30.03406
12.749643 33.378998 6.4103813 48 0 0 0 30.43133
13.593874 33.122917 6.424521 57 0 0 0 30.82461
21.113974 33.549324 6.1350141 30 0 0 0 33.554928
22.306942 33.582188 6.2399001 51 0 0 0 33.946381
-36.298603 -51.574055 6.7234373 14 0 0 0 84.375298
19.862185 -12.566985 6.5510955 36 0 0 0 58.56078
41.767879 -10.424932 6.6604919 10 0 0 0 53.491249
-18.677116 -9.413517 6.8878098 17 0 0 0 92.180885
20.936226 -9.2624445 6.9478359 12 0 0 0 56.220619
18.02207 -8.515317 6.548439 43 0 0 0 56.6124
21.105228 -8.723588 6.9312325 21 0 0 0 55.827969
21.362364 -8.2211161 6.9475398 25 0 0 0 55.444248
37.382542 -0.87727982 6.7220945 7 0 0 0 49.973358
48.226795 13.419769 6.5100403 16 0 0 0 45.289181
48.48489 14.784208 6.5916462 15 0 0 0 44.901279
-10.211861 16.82354 6.8981652 85 0 0 0 15.99042
-9.5539017 16.640331 6.7264943 127 0 0 0 16.38246
-9.1973286 16.969395 6.7668862 87 0 0 0 16.763109
-11.668624 17.279791 6.7977209 72 0 0 0 15.20742
-10.975595 17.13978 6.6361618 16 0 0 0 15.59643
-8.8361797 17.302721 6.8119454 97 0 0 0 17.16094
-13.349703 17.824274 6.7101893 67 0 0 0 14.42851
-8.2840738 17.812864 6.8892994 113 0 0 0 17.741741
49.486645 17.789793 6.8373337 23 0 0 0 44.114807
-15.235304 18.407185 6.6134286 53 0 0 0 13.64357
-14.268094 18.114273 6.9473901 48 0 0 0 14.03068
-7.7274156 18.350979 6.9832811 91 0 0 0 18.336121
-16.293163 18.737438 6.8719959 44 0 0 0 13.25405
-7.3283048 18.688566 6.5506477 91 0 0 0 18.72229
-18.685028 19.483984 6.8022389 60 0 0 0 12.46872
-17.463322 19.120865 6.525517 41 0 0 0 12.86552
-6.7389655 19.246162 6.6560011 84 0 0 0 19.309464
-6.1320405 19.821102 6.7728677 83 0 0 0 19.889811
-5.709291 20.199287 6.8529186 75 0 0 0 20.291611
-5.2739153 20.577772 6.9360652 78 0 0 0 20.67235
-4.8371825 20.989403 6.5022368 103 0 0 0 21.05868
-24.804403 21.276352 6.6368265 38 0 0 0 10.9153
-4.3815422 21.404303 6.5961475 100 0 0 0 21.454519
-3.913635 21.839502 6.6992993 96 0 0 0 21.841789
-3.4278917 22.271065 6.8045216 94 0 0 0 22.23514
-2.9290299 22.73831 6.9238973 77 0 0 0 22.62641
-1.8713932 23.725355 6.6046524 75 0 0 0 23.40663
-1.3093808 24.17935 6.7207437 73 0 0 0 23.793421
-0.72918367 24.73929 6.8699222 65 0 0 0 24.186541
26.150845 25.022974 6.5102758 7 0 0 0 37.478321
-1.3903863 25.789379 6.5254464 23 0 0 0 23.793421
-0.75473279 25.727842 6.5045786 25 0 0 0 24.186541
-0.12304973 25.832064 6.5293493 27 0 0 0 24.580589
0.51261657 25.889721 6.5463185 66 0 0 0 24.96348
25.565937 25.696875 6.5192561 36 0 0 0 37.078552
1.1785005 26.501287 6.7067838 56 0 0 0 25.351379
25.275686 26.685394 6.6091199 32 0 0 0 36.690281
1.8802516 27.170826 6.8863735 56 0 0 0 25.753611
1.9863625 28.633177 6.5511084 51 0 0 0 25.753611
2.7002537 28.692688 6.5791173 14 0 0 0 26.136181
3.4135966 28.695631 6.5983124 34 0 0 0 26.52562
4.1304817 28.692387 6.6202035 45 0 0 0 26.92017
4.881299 28.85667 6.6848826 76 0 0 0 27.317419
25.715578 28.518888 6.9022293 18 0 0 0 36.304432
5.6489301 29.032812 6.7568808 67 0 0 0 27.70414
6.4279571 29.187473 6.8285661 63 0 0 0 28.087811
7.219748 29.327948 6.901701 72 0 0 0 28.47761
8.0396805 29.509954 6.9897108 55 0 0 0 28.871531
14.000724 29.862352 6.7351098 26 0 0 0 31.60047
14.913549 29.87359 6.8189898 79 0 0 0 31.99684
15.860207 29.904507 6.913619 104 0 0 0 32.391239
11.834303 30.99929 6.772325 10 0 0 0 30.43133
21.38933 30.553406 6.7004485 26 0 0 0 34.342926
6.8708487 31.14489 6.5041485 41 0 0 0 28.087811
7.6917782 31.198431 6.5537539 60 0 0 0 28.47761
10.248508 31.396444 6.7386317 15 0 0 0 29.64827
11.050158 31.228228 6.7598424 13 0 0 0 30.03406
12.882192 31.400112 6.9274044 6 0 0 0 30.82461
18.565369 31.186281 6.5185132 51 0 0 0 33.168209
8.6416817 31.673426 6.6966085 15 0 0 0 28.871531
9.4549761 31.576099 6.7241769 21 0 0 0 29.2591
-37.599205 -27.909546 7.3082771 5 0 0 0 89.453438
-35.829952 -27.985821 7.0972404 7 0 0 0 89.063728
19.74781 -10.544133 7.3480988 19 0 0 0 57.385639
20.756618 -9.1871862 7.4513793 35 0 0 0 56.220619
33.604874 -6.654952 7.0024209 17 0 0 0 52.705048
35.800591 -5.276897 7.3955078 12 0 0 0 51.92271
-21.160938 11.233847 7.2205768 118 0 0 0 7.4123502
-21.401377 12.042363 7.4003491 75 0 0 0 7.7993999
-22.507481 14.16527 7.3627167 104 0 0 0 8.58216
-10.216304 16.832401 7.3818603 52 0 0 0 15.99042
-9.5836334 16.694143 7.2175112 86 0 0 0 16.38246
-9.2045383 16.984314 7.243926 84 0 0 0 16.763109
-11.698184 17.312445 7.3218932 53 0 0 0 15.20742
-10.949061 17.086262 7.1121516 13 0 0 0 15.59643
-8.837944 17.307713 7.2879152 98 0 0 0 17.16094
-13.353243 17.83716 7.2627311 66 0 0 0 14.42851
-12.466939 17.526442 7.0113258 74 0 0 0 14.82238
-8.2883978 17.823515 7.3730316 89 0 0 0 17.741741
-21.149544 18.124706 7.0190663 51 0 0 0 10.9153
-15.225989 18.391035 7.1930223 37 0 0 0 13.64357
-7.7194929 18.333502 7.4621191 82 0 0 0 18.336121
-16.288918 18.727716 7.4770346 66 0 0 0 13.25405
-7.3353295 18.689005 7.0421076 109 0 0 0 18.72229
-17.446543 19.104259 7.1596689 41 0 0 0 12.86552
-6.7404528 19.230255 7.1492605 87.5 0 0 0 19.309464
-18.705046 19.50695 7.4785767 52 0 0 0 12.46872
-6.130136 19.791851 7.2700176 80 0 0 0 19.889811
-5.7127771 20.186403 7.3620496 74 0 0 0 20.291611
-5.2819705 20.581423 7.4573855 73 0 0 0 20.67235
-4.8312387 20.982164 7.0310206 76 0 0 0 21.05868
50.403233 20.968172 7.0965042 17 0 0 0 43.34515
-4.375689 21.396639 7.1325336 75 0 0 0 21.454519
-3.9044149 21.811531 7.2374754 89 0 0 0 21.841789
-3.4230297 22.267723 7.3594942 74 0 0 0 22.23514
-2.919287 22.695286 7.4756713 68 0 0 0 22.62641
-2.4100685 23.202837 7.0459037 81 0 0 0 23.01441
-1.8717701 23.679234 7.1751661 73 0 0 0 23.40663
-1.3081528 24.076948 7.2845831 9 0 0 0 23.793421
-0.72682452 24.49073 7.4029889 38 0 0 0 24.186541
51.403316 24.410595 7.3956976 13 0 0 0 42.553299
26.072641 24.948467 7.3798013 37 0 0 0 37.478321
-0.12222636 25.285004 7.0191541 72 0 0 0 24.580589
0.51198012 25.85214 7.1785359 58 0 0 0 24.96348
25.537193 25.668165 7.4037862 33 0 0 0 37.078552
1.1765501 26.455988 7.3526354 71 0 0 0 25.351379
2.6137846 27.803144 7.0613408 63 0 0 0 26.136181
3.3872757 28.478947 7.2524924 70 0 0 0 26.52562
23.083719 28.284851 7.4616394 36 0 0 0 35.514366
4.1238966 28.646666 7.3199687 68 0 0 0 26.92017
4.8766003 28.828686 7.3960304 66 0 0 0 27.317419
5.6405516 28.989914 7.4718561 65 0 0 0 27.70414
21.28874 28.876478 7.3311291 23 0 0 0 34.728439
22.182266 28.588272 7.3948975 34 0 0 0 35.12254
19.527246 29.413599 7.2133307 40 0 0 0 33.946381
20.396301 29.140623 7.2679625 53 0 0 0 34.342926
8.8610401 29.62998 7.0684171 46 0 0 0 29.2591
9.6727104 29.665232 7.1322875 116 0 0 0 29.64827
10.497019 29.693968 7.1999326 82 0 0 0 30.03406
11.33908 29.727264 7.27426 68 0 0 0 30.43133
12.189082 29.736961 7.3485904 31 0 0 0 30.82461
13.049121 29.728935 7.4244676 52 0 0 0 31.2101
16.841864 29.950253 7.018383 85 0 0 0 32.772758
17.836756 29.96809 7.1237755 51 0 0 0 33.168209
18.673983 29.688139 7.1650701 53 0 0 0 33.554928
20.71277 -9.1588535 7.9904876 6 0 0 0 56.220619
37.304836 -4.5648975 7.6795893 12 0 0 0 51.536758
-21.168766 11.24454 7.8139176 120 0 0 0 7.4123502
47.705463 12.020308 7.6170402 10 0 0 0 45.677639
-21.940718 13.064898 7.6954761 66 0 0 0 8.1906204
48.098373 13.384194 7.7295904 11 0 0 0 45.289181
48.442303 14.771346 7.8404474 14 0 0 0 44.901279
-23.101391 15.343346 7.6770501 96 0 0 0 8.96556
-11.668542 17.269695 7.8120165 51 0 0 0 15.20742
-10.944098 17.079933 7.6041026 49 0 0 0 15.59643
-13.347975 17.818699 7.8003182 46 0 0 0 14.42851
-12.495722 17.555834 7.5505152 38 0 0 0 14.82238
-24.590176 18.1315 7.6997552 40 0 0 0 9.7516499
-15.228114 18.401896 7.7842951 34 0 0 0 13.64357
-14.239696 18.086113 7.5024252 63 0 0 0 14.03068
-7.3314409 18.680588 7.5287757 76 0 0 0 18.72229
-21.217543 19.10751 7.9012494 22 0 0 0 11.31077
-17.431133 19.082457 7.785327 56 0 0 0 12.86552
-6.7442927 19.243359 7.651988 69.5 0 0 0 19.309464
-19.909344 19.775116 7.7648306 19 0 0 0 12.08036
-6.1300998 19.79351 7.7766662 62 0 0 0 19.889811
-5.7111688 20.182472 7.8729529 60 0 0 0 20.291611
-5.279047 20.571751 7.9727464 63 0 0 0 20.67235
-4.8400941 20.989399 7.560698 70 0 0 0 21.05868
-4.3844094 21.403652 7.6696844 62 0 0 0 21.454519
-3.9121952 21.813591 7.7806773 60 0 0 0 21.841789
-3.434406 22.293346 7.9201345 73 0 0 0 22.23514
-2.4029341 23.175684 7.6129351 38 0 0 0 23.01441
-1.8703384 23.72002 7.7750201 85 0 0 0 23.40663
-1.3105463 24.214853 7.9250684 72 0 0 0 23.793421
27.904516 24.186802 7.552042 22 0 0 0 38.262459
-0.12613136 25.081772 7.5790749 21 0 0 0 24.580589
0.50865442 25.892292 7.8257976 55 0 0 0 24.96348
51.916351 26.235556 7.5590248 8 0 0 0 42.16293
25.262962 26.672106 7.5106139 35 0 0 0 36.690281
1.8769246 27.122202 7.5489411 54 0 0 0 25.753611
2.6131337 27.794516 7.7521892 68 0 0 0 26.136181
24.021294 27.9981 7.5401149 32 0 0 0 35.902111
24.931671 27.652409 7.6104331 30 0 0 0 36.304432
3.3855963 28.463818 7.9603133 54 0 0 0 26.52562
6.4272194 29.183783 7.5612626 63 0 0 0 28.087811
7.2250433 29.348892 7.6486173 55 0 0 0 28.47761
8.0443897 29.526827 7.7450333 60 0 0 0 28.871531
8.8740072 29.672747 7.8390131 55 0 0 0 29.2591
9.6698551 29.656446 7.8961282 88 0 0 0 29.64827
10.489474 29.672747 7.9676585 93 0 0 0 30.03406
13.985552 29.843727 7.5374007 71 0 0 0 31.60047
14.911796 29.883152 7.6383796 78 0 0 0 31.99684
15.835951 29.871645 7.7333732 74 0 0 0 32.391239
16.823603 29.930216 7.8538656 89 0 0 0 32.772758
17.831596 29.97143 7.9779406 42 0 0 0 33.168209
-35.475899 -27.709749 8.1416807 10 0 0 0 89.063728
78.242157 1.9931123 8.2219772 8 0 0 0 49.196873
-21.152531 11.228226 8.3906851 124 0 0 0 7.4123502
-21.423433 12.061584 8.013979 79 0 0 0 7.7993999
-21.922022 13.060765 8.3181057 71 0 0 0 8.1906204
-22.472902 14.139894 8.0007515 101 0 0 0 8.58216
-23.052597 15.307027 8.3377018 72 0 0 0 8.96556
-23.786785 16.654673 8.0374603 47 0 0 0 9.3518095
-12.503088 17.567841 8.0813503 52 0 0 0 14.82238
49.413483 17.763639 8.1280003 15 0 0 0 44.114807
-24.522476 18.083593 8.4327612 47 0 0 0 9.7516499
-14.255188 18.094604 8.069994 36 0 0 0 14.03068
-16.2377 18.6768 8.064991 37 0 0 0 13.25405
-18.625179 19.418322 8.10464 31 0 0 0 12.46872
-4.8317666 20.954565 8.0736408 51 0 0 0 21.05868
50.336967 20.940754 8.4376688 18 0 0 0 43.34515
-4.3819962 21.393785 8.1998405 57 0 0 0 21.454519
-3.9081688 21.792923 8.3144941 60 0 0 0 21.841789
-2.9333501 22.746639 8.0540152 58 0 0 0 22.62641
-2.4125919 23.194187 8.1899147 57 0 0 0 23.01441
-1.8708392 23.620241 8.3225651 57 0 0 0 23.40663
27.927811 24.215553 8.4651747 23 0 0 0 38.262459
-0.72821617 24.723791 8.084156 56 0 0 0 24.186541
26.068056 24.95289 8.2639208 29 0 0 0 37.478321
-0.12167891 25.268843 8.2597084 54 0 0 0 24.580589
0.51121366 25.798716 8.4352865 63 0 0 0 24.96348
25.541706 25.68174 8.293828 19 0 0 0 37.078552
1.1731051 26.475849 8.0091887 68 0 0 0 25.351379
25.208172 26.623846 8.394104 30 0 0 0 36.690281
1.8758459 27.169996 8.2312956 54 0 0 0 25.753611
2.6028836 27.73749 8.4208431 39 0 0 0 26.136181
23.090874 28.303764 8.3603601 16 0 0 0 35.514366
24.032045 28.020578 8.4493294 31 0 0 0 35.902111
4.1242533 28.648081 8.0389795 62 0 0 0 26.92017
4.8732185 28.808331 8.1163568 69 0 0 0 27.317419
21.272032 28.864542 8.2054672 46 0 0 0 34.728439
22.169647 28.582464 8.2784796 30 0 0 0 35.12254
5.6456432 29.01512 8.2124004 63 0 0 0 27.70414
6.422349 29.161591 8.2971573 46 0 0 0 28.087811
7.2165375 29.314482 8.3895454 50 0 0 0 28.47761
8.0287771 29.469942 8.4888906 47 0 0 0 28.871531
19.519339 29.412956 8.0769577 36 0 0 0 33.946381
20.394291 29.148672 8.1404476 36 0 0 0 34.342926
11.317134 29.670153 8.0401964 24 0 0 0 30.43133
12.137283 29.611511 8.103694 26 0 0 0 30.82461
18.663124 29.682516 8.0216789 49 0 0 0 33.554928
-20.0305 -52.01059 8.6882524 6 0 0 0 80.469208
-25.34399 -42.331776 8.9213133 9 0 0 0 83.204926
37.184795 -4.5434041 8.5727196 10 0 0 0 51.536758
-22.892307 10.756338 8.8639631 58 0 0 0 6.63414
-24.278097 11.419075 8.7481699 52 0 0 0 6.63414
-22.961332 11.482615 8.9960718 56 0 0 0 7.0209799
-21.006403 11.151999 8.9123716 88 0 0 0 7.4123502
-20.50075 11.533402 8.8139839 99 0 0 0 7.7993999
47.531708 11.976698 8.8040094 12 0 0 0 45.677639
-24.512129 12.270677 8.9372358 38 0 0 0 7.0209799
-21.450562 12.068946 8.6231232 69 0 0 0 7.7993999
-20.165041 12.002455 8.7934179 61 0 0 0 8.1906204
-19.866068 12.49166 8.7931471 49 0 0 0 8.58216
-19.576965 12.98799 8.8027334 92 0 0 0 8.96556
-21.851685 13.010219 8.910347 67 0 0 0 8.1906204
48.115467 13.389049 8.9698048 20 0 0 0 45.289181
-21.610437 13.592979 8.944356 57 0 0 0 8.58216
-19.469137 13.613948 8.9011688 107 0 0 0 9.3518095
-22.533339 14.185557 8.6790495 56 0 0 0 8.58216
-21.294758 14.132434 8.9535799 56 0 0 0 8.96556
-21.036537 14.714531 8.9932699 65 0 0 0 9.3518095
-22.694834 15.075992 8.8803396 78 0 0 0 8.96556
-19.892593 15.413818 8.8151989 50 0 0 0 10.1337
-22.31497 15.623204 8.8780508 60 0 0 0 9.3518095
-23.811144 16.667757 8.7567987 61 0 0 0 9.3518095
-3.5102384 22.802982 8.6645279 61 0 0 0 22.23514
51.360764 24.390533 8.7979221 19 0 0 0 42.553299
-1.3438255 24.713097 8.6934948 40 0 0 0 23.793421
1.1790057 26.497622 8.67132 8 0 0 0 25.351379
24.924103 27.653839 8.5216551 21 0 0 0 36.304432
3.4385381 28.937319 8.808238 45 0 0 0 26.52562
4.1867814 29.106939 8.8898239 14 0 0 0 26.92017
8.8761196 29.679583 8.6103764 51 0 0 0 29.2591
9.9018784 30.361338 8.8764391 35 0 0 0 29.64827
16.147158 30.455544 8.730689 51 0 0 0 32.391239
17.009743 30.25976 8.7927418 9 0 0 0 32.772758
18.876472 30.020386 8.9838572 26 0 0 0 33.554928
13.513234 30.779188 8.5112305 43 0 0 0 31.2101
14.493548 30.921003 8.6470966 41 0 0 0 31.60047
15.323597 30.703642 8.6901188 63 0 0 0 31.99684
-21.70121 10.851069 9.0929995 69 0 0 0 7.0209799
-19.451262 14.323162 9.0505342 81 0 0 0 9.7516499
48.441444 14.771191 9.0951204 19 0 0 0 44.901279
-20.718428 15.259856 9.0138321 60 0 0 0 9.7516499
-19.774187 15.323355 9.3729143 53 0 0 0 10.1337
-20.479961 16.69059 9.2543688 64 0 0 0 10.52317
49.341679 17.737972 9.4153652 19 0 0 0 44.114807
-24.58452 18.125177 9.2015238 42 0 0 0 9.7516499
-29.705154 23.066147 9.4752254 16 0 0 0 10.1337
-28.978683 23.661058 9.4246721 29 0 0 0 10.52317
25.538403 25.678526 9.1828785 16 0 0 0 37.078552
52.062786 26.30957 9.0250263 10 0 0 0 42.16293
25.203262 26.618776 9.2934036 14 0 0 0 36.690281
20.607792 29.452669 9.1082249 23 0 0 0 34.342926
19.777809 29.800846 9.0618114 34 0 0 0 33.946381
10.798008 30.538036 9.0038385 26 0 0 0 30.03406
-22.961588 10.790952 9.5094328 37 0 0 0 6.63414
-20.518435 16.724028 9.9177799 44 0 0 0 10.52317
-24.659664 18.189707 9.9862366 37 0 0 0 9.7516499
-21.344965 18.288326 9.845561 46 0 0 0 10.9153
-18.006094 20.712076 9.6130333 14 0 0 0 13.25405
50.270893 20.913422 9.7756224 18 0 0 0 43.34515
-17.471405 21.119339 9.6008692 13 0 0 0 13.64357
25.657963 28.465504 9.7125759 17 0 0 0 36.304432
15.187846 32.393345 9.9464102 21 0 0 0 31.60047
-31.263056 -70.64135 10.120904 17 0 0 0 81.249641
-38.707088 -68.418526 10.302806 4 0 0 0 82.81311
78.137238 2.0043731 10.134406 9 0 0 0 49.196873
47.641472 12.004418 10.034243 14 0 0 0 45.677639
-21.95834 19.770721 10.34944 45 0 0 0 11.31077
-18.995907 19.806166 10.281906 23 0 0 0 12.46872
-21.308607 20.150488 10.272225 40 0 0 0 11.69754
-18.506062 20.265547 10.282292 21 0 0 0 12.86552
-26.629984 20.666643 10.153871 36 0 0 0 10.1337
-20.712923 20.569731 10.224475 13 0 0 0 12.08036
-17.963409 20.664644 10.258851 11 0 0 0 13.25405
-26.130424 21.323715 10.158793 17 0 0 0 10.52317
-20.199993 21.066883 10.222717 23 0 0 0 12.46872
-17.44556 21.08987 10.255095 19 0 0 0 13.64357
-25.606581 21.961843 10.160601 21 0 0 0 10.9153
-22.759951 21.542957 10.211097 14 0 0 0 11.69754
-19.685829 21.563141 10.226636 22 0 0 0 12.86552
-16.948734 21.541986 10.270313 12 0 0 0 14.03068
-16.400461 21.929035 10.260687 16 0 0 0 14.42851
-22.226505 22.094112 10.211148 14 0 0 0 12.08036
-25.091915 22.609604 10.172553 17 0 0 0 11.31077
-21.750475 22.706409 10.244698 18 0 0 0 12.46872
-28.217426 23.039734 10.079349 7 0 0 0 10.52317
-24.336641 23.032217 10.091451 36 0 0 0 11.69754
-21.152859 23.193123 10.227528 16 0 0 0 12.86552
-27.813709 23.868919 10.140272 21 0 0 0 10.9153
-23.876623 23.731934 10.13835 13 0 0 0 12.08036
27.909994 24.200315 10.286505 12 0 0 0 38.262459
27.025513 24.623995 10.18077 5 0 0 0 37.86935
26.134447 25.016424 10.07372 19 0 0 0 37.478321
25.529882 25.670082 10.080147 18 0 0 0 37.078552
25.21036 26.626352 10.207802 14 0 0 0 36.690281
-3.5376601 27.600384 10.446652 16 0 0 0 22.62641
-2.8720369 27.803841 10.495237 18 0 0 0 23.01441
22.275267 30.220722 10.445265 10 0 0 0 34.728439
20.548819 30.957727 10.336011 26 0 0 0 33.946381
21.354782 30.516018 10.361821 25 0 0 0 34.342926
3.0177104 31.942558 10.486076 18 0 0 0 26.136181
18.781231 31.560106 10.214177 6 0 0 0 33.168209
16.128559 32.30743 10.03978 12 0 0 0 31.99684
5.6678634 33.45155 10.253202 18 0 0 0 27.317419
19.227924 -129.07997 10.599322 11 0 0 0 72.259712
49.346016 17.739637 10.707573 18 0 0 0 44.114807
-21.384636 18.32453 10.551377 40 0 0 0 10.9153
-25.686068 19.940521 10.596674 37 0 0 0 10.1337
-19.961304 19.821297 10.539435 28 0 0 0 12.08036
-21.252699 20.099438 10.959499 44 0 0 0 11.69754
-25.70376 20.983904 10.812414 67 0 0 0 10.52317
-24.828249 21.301241 10.659589 27 0 0 0 10.9153
-24.193798 21.806715 10.612767 51 0 0 0 11.31077
25.507936 25.657127 10.963948 18 0 0 0 37.078552
-2.197072 27.972507 10.536858 18 0 0 0 23.40663
-1.5101141 28.018126 10.538511 20 0 0 0 23.793421
-0.8247934 28.148916 10.578451 23 0 0 0 24.186541
-0.13413353 28.450184 10.688594 25 0 0 0 24.580589
25.661921 28.469992 10.667084 18 0 0 0 36.304432
0.57119352 28.748398 10.804013 22 0 0 0 24.96348
22.236916 28.679516 10.992514 12 0 0 0 35.12254
1.2952108 29.114061 10.95142 30 0 0 0 25.351379
21.375698 29.01557 10.915622 12 0 0 0 34.728439
-0.8705591 29.906401 10.50501 30 0 0 0 24.186541
-0.13644829 29.975555 10.526557 18 0 0 0 24.580589
0.60037172 30.017248 10.544801 16 0 0 0 24.96348
1.3435134 30.130365 10.59449 16 0 0 0 25.351379
2.0822287 30.080984 10.593676 20 0 0 0 25.753611
2.8294108 30.116863 10.629196 24 0 0 0 26.136181
3.6038976 30.332743 10.734855 31 0 0 0 26.52562
19.13393 30.439953 10.886423 7 0 0 0 33.554928
19.9424 30.05937 10.923507 13 0 0 0 33.946381
4.4242034 30.756405 10.921243 32 0 0 0 26.92017
18.29287 30.755482 10.834036 10 0 0 0 33.168209
17.561419 31.249098 10.851194 14 0 0 0 32.772758
16.742537 31.585901 10.820736 9 0 0 0 32.391239
3.8343215 32.130936 10.57713 25 0 0 0 26.52562
4.6534615 32.23999 10.649028 12 0 0 0 26.92017
5.4577003 32.196899 10.677589 19 0 0 0 27.317419
6.2571406 32.105751 10.696848 17 0 0 0 27.70414
7.0907059 32.152428 10.768679 36 0 0 0 28.087811
14.261375 32.487511 10.735597 10 0 0 0 31.2101
15.098306 32.218075 10.767246 15 0 0 0 31.60047
15.972301 32.010101 10.826901 24 0 0 0 31.99684
8.0273275 32.565914 10.97086 26 0 0 0 28.47761
12.691334 33.261871 10.76924 24 0 0 0 30.43133
13.550802 33.051315 10.806971 24 0 0 0 30.82461
10.163895 33.9631 10.719829 16 0 0 0 29.2591
11.03434 33.822002 10.758992 24 0 0 0 29.64827
11.880879 33.593651 10.777378 37 0 0 0 30.03406
7.5572085 34.269066 10.60727 9 0 0 0 28.087811
8.4482193 34.279877 10.672952 12 0 0 0 28.47761
9.3207121 34.181641 10.711827 13 0 0 0 28.871531
47.540447 11.987938 11.21469 7 0 0 0 45.677639
48.0947 13.392539 11.419051 14 0 0 0 45.289181
-21.908218 19.727478 11.04562 45 0 0 0 11.31077
50.27668 20.915932 11.117723 15 0 0 0 43.34515
26.871504 24.492752 11.019835 5 0 0 0 37.86935
27.823286 24.133934 11.163067 15 0 0 0 38.262459
25.145071 26.566998 11.083869 11 0 0 0 36.690281
24.000122 27.993687 11.170506 14 0 0 0 35.902111
24.877361 27.612146 11.259788 19 0 0 0 36.304432
23.121763 28.351912 11.082384 25 0 0 0 35.514366
2.0412424 29.511702 11.117857 33 0 0 0 25.753611
2.8084011 29.898411 11.287451 31 0 0 0 26.136181
17.795134 29.910816 11.399906 37 0 0 0 33.168209
18.630217 29.630823 11.465425 38 0 0 0 33.554928
3.6031809 30.325392 11.479923 30 0 0 0 26.52562
16.146568 30.454664 11.288383 52 0 0 0 32.391239
16.969799 30.189322 11.34243 38 0 0 0 32.772758
