# .PCD v0.7 - Point Cloud Data file format
VERSION 0.7
FIELDS x y z intensity normal_x normal_y normal_z curvature
SIZE 4 4 4 4 4 4 4 4
TYPE F F F F F F F F
COUNT 1 1 1 1 1 1 1 1
WIDTH 891
HEIGHT 1
VIEWPOINT 0 0 0 1 0 0 0
POINTS 891
DATA ascii
-1.0092767 -31.943295 -1.2583044 54 0 0 0 75.005539
-0.21637766 -29.994226 -1.1799661 36 0 0 0 74.610657
0.49748474 -28.943726 -1.1387171 47 0 0 0 74.223839
1.8272963 -27.640898 -1.0905222 84 0 0 0 73.441902
-27.793736 -25.025305 -1.4919407 42 0 0 0 87.900848
11.949709 -24.290995 -1.0931935 20 0 0 0 67.186546
12.469623 -23.856722 -1.089083 21 0 0 0 66.788651
16.346052 -19.336632 -1.0389304 74 0 0 0 63.260433
16.691303 -18.792521 -1.0326436 78 0 0 0 62.866402
19.350079 -16.220081 -1.0454243 18 0 0 0 60.526279
2.5794809 -15.705098 -1.0042804 386 0 0 0 71.868851
3.2294121 -15.970201 -1.0303326 79 0 0 0 71.289825
3.7715716 -15.674579 -1.0203446 53 0 0 0 70.697632
4.460813 -15.227365 -1.0054401 27 0 0 0 69.919708
19.2924 -15.384303 -1.0219737 17 0 0 0 60.125038
-15.395733 -60.063927 -0.94144118 26 0 0 0 78.523872
-3.2546365 -58.715504 -0.90540284 26 0 0 0 75.401428
-20.380163 -52.053143 -0.84354925 6 0 0 0 80.474998
-19.034748 -52.350082 -0.8390159 9 0 0 0 80.085854
-24.881008 -51.973831 -0.87558264 6 0 0 0 81.652489
-21.481819 -51.14806 -0.83836067 7 0 0 0 80.861954
-15.628262 -50.542831 -0.79561937 14 0 0 0 79.299194
-31.999836 -50.07132 -0.91387326 13 0 0 0 83.598923
-14.157648 -50.092201 -0.78341943 9 0 0 0 78.908791
-16.797565 -49.963314 -0.7915138 7 0 0 0 79.697243
-11.318468 -49.09679 -0.75960267 24 0 0 0 78.136047
-32.68985 -48.496708 -0.9010216 14 0 0 0 83.994568
-9.8758125 -48.1875 -0.7420662 24 0 0 0 77.740326
-6.8265738 -44.176014 -0.67372853 28 0 0 0 76.958412
7.3291969 -44.159313 -0.69781584 17 0 0 0 71.868851
-7.8793325 -43.856857 -0.67014986 25 0 0 0 77.346672
-29.918903 -42.123516 -0.79368013 11 0 0 0 84.379059
-5.4987097 -42.421024 -0.64453906 21 0 0 0 76.57547
-34.35638 -41.552525 -0.8360135 11 0 0 0 85.558807
-30.589731 -40.912205 -0.78623939 6 0 0 0 84.772659
-34.874306 -40.139717 -0.82612818 15 0 0 0 85.955849
-31.587639 -40.162064 -0.78842288 19 0 0 0 85.170738
-35.476093 -38.871483 -0.81937325 12 0 0 0 86.348701
-19.708282 -38.699055 -0.65243149 11 0 0 0 82.038338
-36.113754 -37.678139 -0.81438184 8 0 0 0 86.736801
-36.743385 -36.506023 -0.81010336 11 0 0 0 87.138062
-3.8306224 -36.494492 -0.5491069 46 0 0 0 76.172874
-2.9237485 -36.403038 -0.54758638 72 0 0 0 75.784172
18.921379 -36.139736 -0.67046076 30 0 0 0 66.788651
-37.599056 -35.573055 -0.81161445 15 0 0 0 87.520409
-38.213474 -34.423923 -0.80831629 15 0 0 0 87.900848
-39.081024 -33.512344 -0.81129122 15 0 0 0 88.297249
7.20783 -33.306831 -0.52616841 25 0 0 0 71.097717
38.948471 -31.00519 -0.87776333 18 0 0 0 60.125038
-41.990284 -30.972429 -0.82927185 17 0 0 0 89.478813
11.340679 -30.150282 -0.50870138 30 0 0 0 68.743034
-36.764244 -29.997324 -0.74688458 12 0 0 0 88.687965
-37.422096 -29.040262 -0.7475338 10 0 0 0 89.084648
34.11063 -28.549738 -0.77881384 57 0 0 0 60.526279
-47.568268 -28.369741 -0.89159763 7 0 0 0 91.045601
-48.889015 -27.560467 -0.90618944 8 0 0 0 91.434525
23.380758 -27.623264 -0.6140632 42 0 0 0 63.260433
21.062439 -26.160297 -0.56526953 29 0 0 0 63.659248
19.835497 -25.91131 -0.5461297 36 0 0 0 64.047821
-46.443924 -23.267408 -0.84008533 13 0 0 0 92.192711
4.18472 -19.428261 -0.77811414 53 0 0 0 71.097717
3.3999617 -17.91547 -0.71012652 103 0 0 0 71.481934
4.2910414 -17.809431 -0.71545225 117 0 0 0 70.697632
2.7720335 -16.857809 -0.66221774 225 0 0 0 71.868851
1.8457999 -16.120537 -0.62557894 289 0 0 0 72.655342
2.2456644 -16.117168 -0.6282813 201 0 0 0 72.266685
1.4178911 -15.795598 -0.6098845 222 0 0 0 73.049759
2.1654315 -15.553962 -0.98964977 188 0 0 0 72.266685
0.6291995 -15.481436 -0.59362066 97 0 0 0 73.831123
1.360999 -15.182009 -0.9580307 77 0 0 0 73.049759
1.7492137 -15.296922 -0.96881014 191 0 0 0 72.655342
8.28687 -14.979991 -0.68141246 198 0 0 0 66.392448
8.6097145 -14.702811 -0.67938149 338 0 0 0 66.000702
-1.3333354 -14.172737 -0.88773584 168 0 0 0 75.978523
-0.82479793 -14.392237 -0.90022963 57 0 0 0 75.401428
6.6159058 -14.360445 -0.62273437 148 0 0 0 67.568176
6.3003101 -13.680963 -0.96075588 70 0 0 0 67.568176
6.6329985 -13.522539 -0.96203846 69 0 0 0 67.186546
3.5057063 -13.168316 -0.52394158 76 0 0 0 70.308609
6.9130077 -13.263241 -0.95638633 68 0 0 0 66.788651
7.2226739 -13.067256 -0.95591855 64 0 0 0 66.392448
-4.5676308 -12.501077 -0.82380664 136 0 0 0 80.085854
-4.2919769 -12.700345 -0.82989585 340 0 0 0 79.697243
0.83920622 -12.973468 -0.81120586 299 0 0 0 73.441902
3.4171352 -12.841059 -0.83552831 275 0 0 0 70.308609
7.4606447 -12.75139 -0.94673306 84 0 0 0 66.000702
-0.25944924 -12.40324 -0.77053082 306 0 0 0 74.808098
0.34109229 -12.31922 -0.76630282 227 0 0 0 74.027481
3.9613817 -12.413586 -0.82049936 312 0 0 0 69.52404
4.2405977 -12.246939 -0.81710911 370 0 0 0 69.13932
4.5277615 -12.110499 -0.8162756 293 0 0 0 68.743034
5.2323418 -12.146122 -0.83816785 71 0 0 0 67.966255
7.8071508 -12.288826 -0.93430436 63.5 0 0 0 65.418488
11.445212 -12.284692 -0.67952412 82 0 0 0 62.48143
-6.0831394 -11.908172 -0.82957655 77 0 0 0 82.038338
-5.7562551 -11.980759 -0.82401085 280 0 0 0 81.652489
8.248147 -11.67923 -0.91916049 85 0 0 0 64.631958
11.527479 -11.781747 -0.66742921 529 0 0 0 62.093739
18.99654 -11.669342 -0.92295581 16 0 0 0 58.176609
-7.0606298 -11.018193 -0.81271911 113 0 0 0 83.598923
-1.2155812 -11.354062 -0.98688984 80 0 0 0 76.172874
-0.79407167 -11.312437 -0.98062098 123 0 0 0 75.592804
-0.24092358 -11.363495 -0.98394489 48.5 0 0 0 74.808098
0.31023028 -11.268944 -0.97667879 92.5 0 0 0 74.027481
0.71246302 -11.095478 -0.963521 116 0 0 0 73.441902
8.5156565 -11.163737 -0.90349311 87 0 0 0 64.047821
-8.2999239 -10.531544 -0.83559734 68 0 0 0 85.170738
-7.882812 -10.519829 -0.81795239 283 0 0 0 84.772659
-7.3608036 -10.892456 -0.81707203 96 0 0 0 83.994568
-3.7943387 -10.780428 -0.98455155 113 0 0 0 79.891548
-3.3739715 -10.836462 -0.83665836 149.5 0 0 0 79.299194
-1.6696913 -10.644036 -0.79515797 365 0 0 0 76.958412
-1.4438262 -10.947384 -0.8162964 204.5 0 0 0 76.57547
0.97491765 -10.985584 -0.95604026 85 0 0 0 73.049759
1.3699296 -10.893892 -0.95258421 86 0 0 0 72.461014
1.7603052 -10.788549 -0.949058 100 0 0 0 71.868851
2.1409168 -10.653637 -0.94424331 142 0 0 0 71.289825
2.5186098 -10.520266 -0.94070524 130 0 0 0 70.697632
8.8179283 -10.721328 -0.89440012 82.5 0 0 0 63.459839
16.833555 -10.9207 -0.82693088 49 0 0 0 58.565121
-4.7334456 -10.159891 -0.96584296 223.5 0 0 0 81.454437
-2.6031156 -10.057451 -0.76389027 564.5 0 0 0 78.523872
-2.2862625 -10.387561 -0.78358305 692 0 0 0 77.938187
-1.9046096 -10.464872 -0.78420085 498 0 0 0 77.346672
2.8757048 -10.328136 -0.93304014 120 0 0 0 70.114159
3.225352 -10.131008 -0.92618835 170 0 0 0 69.52404
9.0918856 -10.261315 -0.88421977 75 0 0 0 62.866402
-9.6994848 -9.6217718 -0.85476023 165 0 0 0 87.138062
-9.3190098 -9.7064772 -0.84072816 307 0 0 0 86.736801
-5.8369236 -9.6122618 -0.97058243 61 0 0 0 83.219131
-4.1709194 -9.8784714 -0.7894184 755.5 0 0 0 80.861954
-3.9335999 -9.9894209 -0.79013884 698.5 0 0 0 80.474998
-2.8357253 -9.9488029 -0.76024544 521.5 0 0 0 78.908791
3.4503133 -9.9869242 -0.92125922 145 0 0 0 69.13932
3.7957988 -9.8068018 -0.9183116 131 0 0 0 68.547409
4.1132793 -9.5696077 -0.91070294 150 0 0 0 67.966255
9.3270988 -9.7795925 -0.87246358 87 0 0 0 62.287582
-10.262505 -9.2317343 -0.86509448 114 0 0 0 87.900848
-9.9682846 -9.4171162 -0.85862011 314 0 0 0 87.520409
-6.2806072 -9.2904139 -0.96869344 64.333336 0 0 0 83.990852
4.3170791 -9.4036074 -0.90543145 207 0 0 0 67.568176
4.6088934 -9.1408672 -0.89690757 172.5 0 0 0 66.987595
9.5623226 -9.3154354 -0.86256605 97 0 0 0 61.693993
-8.1095276 -8.8680782 -0.74636567 394 0 0 0 86.348701
-6.7749796 -8.8119478 -0.9606837 140.5 0 0 0 84.971695
-1.7690531 -8.5196981 -0.95643383 170.33333 0 0 0 77.74102
-1.2484838 -8.6275511 -0.95899868 187.5 0 0 0 76.766937
-0.71593326 -8.6252489 -0.95294029 131 0 0 0 75.786163
-0.18781033 -8.5858812 -0.94620174 176.5 0 0 0 74.808098
4.9003248 -8.8913431 -0.89052278 165 0 0 0 66.392448
5.164948 -8.609724 -0.8816973 184.5 0 0 0 65.808273
9.82621 -8.6767015 -0.84782183 70 0 0 0 60.910568
-7.1221542 -8.1785412 -0.80354828 304.75 0 0 0 85.954803
-6.9973502 -8.4424553 -0.947743 130 0 0 0 85.558807
-4.1549377 -8.119173 -0.77922809 294 0 0 0 82.038338
-2.6507354 -8.1519175 -0.94025648 150.5 0 0 0 79.498215
-2.2740932 -8.3585844 -0.95109558 171.5 0 0 0 78.716331
0.22689891 -8.4560261 -0.9323411 149.5 0 0 0 74.027481
0.7320196 -8.3184719 -0.92121655 191.33333 0 0 0 73.049004
1.2249327 -8.1728525 -0.91242421 184.5 0 0 0 72.067764
1.5134586 -8.0698919 -0.90698177 198 0 0 0 71.481934
5.4013109 -8.2973967 -0.87017798 206 0 0 0 65.22113
5.5834007 -8.1346064 -0.86788923 212 0 0 0 64.825394
9.9622755 -8.3716412 -0.8420136 50 0 0 0 60.526279
10.064332 -8.0452919 -0.83402687 86 0 0 0 60.125038
-9.1974545 -7.6810966 -0.74685901 388 0 0 0 88.492607
-7.6632233 -7.5985179 -0.93384641 128 0 0 0 87.138062
-7.4895258 -7.7975645 -0.93520695 177 0 0 0 86.736801
-4.3457084 -7.776134 -0.65080059 671.75 0 0 0 82.627434
-3.6789742 -7.6473451 -0.9312892 363 0 0 0 81.649071
-3.2258899 -7.9017434 -0.93623275 222.5 0 0 0 80.668472
-2.9277565 -7.995894 -0.93365413 212 0 0 0 80.085854
1.7924194 -7.9426136 -0.90000868 181 0 0 0 70.897675
2.2511322 -7.7423706 -0.89242387 172.66667 0 0 0 69.91745
2.6006813 -7.5480728 -0.8846032 208 0 0 0 69.13932
5.8301582 -7.8598375 -0.86179614 212.5 0 0 0 64.243172
6.1056328 -7.6284552 -0.86148375 164 0 0 0 63.659248
10.136568 -7.7037282 -0.8241545 61 0 0 0 59.736809
-9.6532698 -7.4807796 -0.7625854 343 0 0 0 89.084648
-7.8671732 -7.2504711 -0.92617071 162.5 0 0 0 87.710632
-4.5367622 -7.0733638 -0.92279696 259 0 0 0 83.598923
-4.1745224 -7.2647324 -0.91968042 340 0 0 0 82.824669
2.8589087 -7.4052601 -0.88067061 184 0 0 0 68.547409
3.2719917 -7.1443648 -0.8735705 188.33333 0 0 0 67.573662
6.3790107 -7.3958936 -0.86226201 156.5 0 0 0 63.063416
6.6291437 -7.137691 -0.86087686 137 0 0 0 62.48143
10.153641 -7.331769 -0.81055671 47 0 0 0 59.353352
-16.219681 -6.6828313 -0.6901536 77 0 0 0 93.372368
-7.9714108 -6.6579647 -0.89885819 238 0 0 0 88.492607
-5.0979466 -6.6285391 -0.91916668 238 0 0 0 84.971695
-4.7810898 -6.886447 -0.92101395 309.5 0 0 0 84.186813
-2.130338 -6.530736 -0.91593504 203 0 0 0 79.498215
-1.733375 -6.6656852 -0.91915816 169.66667 0 0 0 78.522896
-1.2459266 -6.7940464 -0.92278552 183 0 0 0 77.348473
-0.74131674 -6.8152256 -0.91653901 156.33333 0 0 0 76.177513
-0.23905371 -6.765368 -0.9056797 184.33333 0 0 0 75.005875
0.25414136 -6.7183309 -0.90040439 161.33333 0 0 0 73.832283
0.73597592 -6.6085401 -0.89141315 167.66667 0 0 0 72.657265
1.0482445 -6.5077581 -0.88407707 159 0 0 0 71.868851
3.7482214 -6.8150563 -0.86663246 215.33333 0 0 0 66.393929
4.0430341 -6.5675793 -0.86034489 261 0 0 0 65.615845
6.8136511 -6.8166227 -0.852431 204 0 0 0 61.893867
10.127364 -6.9422917 -0.79437518 74 0 0 0 58.959591
-16.831928 -6.4588971 -0.71097511 88 0 0 0 93.770569
-11.413004 -6.2453909 -0.81835139 272.5 0 0 0 91.622162
-7.9612317 -6.1677794 -0.87098753 286 0 0 0 89.084648
-5.5906734 -6.1121087 -0.91114885 278 0 0 0 86.348701
-5.3801622 -6.3320456 -0.9136939 269.5 0 0 0 85.757324
-3.1881943 -6.0386357 -0.91097105 313 0 0 0 82.233963
-2.7397022 -6.257134 -0.91109115 262.75 0 0 0 81.061455
-2.3552997 -6.4150414 -0.9108749 252 0 0 0 80.085854
1.2780302 -6.4276495 -0.87951779 201.5 0 0 0 71.289825
1.7265474 -6.2547684 -0.87222463 182.75 0 0 0 70.112503
2.1585743 -6.0506091 -0.86485922 146.5 0 0 0 68.941177
4.2909822 -6.4286427 -0.86344671 274 0 0 0 65.023262
4.5610456 -6.1584816 -0.85719508 239 0 0 0 64.243172
6.9170651 -6.4294376 -0.83540952 176 0 0 0 61.300678
7.0275955 -6.2182522 -0.83044755 238 0 0 0 60.910568
10.289379 -6.1636076 -0.77606082 59 0 0 0 57.980408
-17.598185 -5.783886 -0.73286957 94 0 0 0 94.56144
-16.650106 -5.9266901 -0.69689459 5 0 0 0 94.171921
-13.474178 -5.5512185 -0.92364341 97 0 0 0 93.372368
-11.724811 -5.6306534 -0.71292418 372.66666 0 0 0 92.459511
-8.5384951 -5.6671944 -0.63517141 615 0 0 0 90.264442
-8.3840332 -5.8642178 -0.63365346 598 0 0 0 89.872063
-7.9540501 -5.7588067 -0.7676391 281.66666 0 0 0 89.609894
-5.8397374 -5.7914619 -0.90525037 248.33333 0 0 0 87.131752
-3.7673786 -5.7115502 -0.91390777 313.5 0 0 0 83.79792
-3.4174113 -5.9374871 -0.91424817 308 0 0 0 82.825279
-1.2343836 -5.5423861 -0.88794196 109 0 0 0 77.936729
-0.75571299 -5.6066079 -0.88538146 109.66666 0 0 0 76.568916
-0.27385557 -5.6071324 -0.87960237 104 0 0 0 75.200447
0.27046561 -5.563149 -0.87388968 110 0 0 0 73.63665
0.87864012 -5.5027456 -0.87587464 96 0 0 0 71.868851
2.3767784 -5.9620748 -0.8650794 170 0 0 0 68.351776
2.7184741 -5.767499 -0.86125249 161.25 0 0 0 67.377411
3.0473902 -5.5572777 -0.85730052 171 0 0 0 66.392448
4.8636971 -5.7904658 -0.84710759 257.33334 0 0 0 63.262024
7.1684346 -5.743938 -0.81337315 211.66667 0 0 0 60.129375
10.40533 -5.7237458 -0.76839417 104 0 0 0 57.395882
-17.979635 -5.4262533 -0.74415934 112 0 0 0 94.947083
-13.434844 -5.1549053 -0.91212022 87 0 0 0 93.770569
-12.194947 -5.3758254 -0.67770243 196 0 0 0 92.979904
-9.0716629 -5.4030924 -0.65642917 301 0 0 0 91.045601
-8.2134485 -5.2597585 -0.76232499 192 0 0 0 90.523415
-6.2553291 -5.2242584 -0.89802033 280.75 0 0 0 88.492676
-4.5966444 -5.0202785 -0.91018289 294 0 0 0 86.348701
-4.2928438 -5.3027945 -0.91210675 307 0 0 0 85.364517
-2.5878594 -5.0375772 -0.88463515 212 0 0 0 82.038338
-2.2690735 -5.1675582 -0.88151956 207.75 0 0 0 81.061462
-1.7649388 -5.3913765 -0.88619381 135.75 0 0 0 79.497772
0.77943009 -5.4546218 -0.86578709 123.33334 0 0 0 72.134651
1.2513677 -5.312345 -0.858612 121.66666 0 0 0 70.701317
1.6929607 -5.1648073 -0.85693038 118.25 0 0 0 69.331528
3.2869809 -5.3558288 -0.8512097 234.66667 0 0 0 65.612556
3.5728559 -5.0944214 -0.84400707 260 0 0 0 64.631958
5.1700587 -5.3092213 -0.83121532 291 0 0 0 62.089722
7.3186216 -5.1607084 -0.79290748 180.5 0 0 0 59.156471
10.44305 -5.2547293 -0.75628728 97.5 0 0 0 56.803555
-13.456655 -4.7896318 -0.90564752 104 0 0 0 94.171921
-8.5287209 -4.530858 -0.83648378 178 0 0 0 91.809807
-8.431119 -4.8827448 -0.84369516 234.5 0 0 0 91.240067
-6.6810279 -4.6752486 -0.89958233 255.33333 0 0 0 89.871773
-4.8103547 -4.7660394 -0.90599936 303.66666 0 0 0 87.131752
-3.2258487 -4.6321936 -0.88274986 204 0 0 0 84.186302
-2.8209915 -4.8910708 -0.88228917 205.66667 0 0 0 82.824669
-1.6784407 -4.5480666 -0.87291694 97.666664 0 0 0 80.086029
-1.2823155 -4.6616879 -0.87112236 58.5 0 0 0 78.716972
-0.76571262 -4.7728209 -0.87232131 57 0 0 0 76.958755
-0.23867714 -4.8017211 -0.86860013 52.25 0 0 0 75.200447
0.22754084 -4.7602611 -0.8621403 44 0 0 0 73.636658
0.74003506 -4.6685143 -0.85682029 49.400002 0 0 0 71.8741
1.1838206 -4.5447812 -0.85248178 59 0 0 0 70.308647
1.9824629 -4.9950929 -0.84821844 93 0 0 0 68.351776
2.2834179 -4.8639598 -0.85004592 124.25 0 0 0 67.377411
2.6656067 -4.6077805 -0.84388423 174.33333 0 0 0 66.002998
3.8094847 -4.781302 -0.83021528 256.66666 0 0 0 63.655834
4.0157018 -4.5611844 -0.82604396 330 0 0 0 62.866402
5.4173484 -4.9201746 -0.82163739 160 0 0 0 61.105621
5.513567 -4.6491623 -0.80989897 176 0 0 0 60.526279
7.4467049 -4.7215691 -0.78080249 159 0 0 0 58.370865
10.426478 -4.773735 -0.74143022 83 0 0 0 56.21748
10.558805 -4.5241985 -0.74291271 124 0 0 0 55.819832
-20.386654 -4.0340643 -0.83002448 33 0 0 0 96.496498
-19.456566 -4.3466558 -0.79413956 60 0 0 0 96.10627
-13.538003 -4.0854712 -0.89723164 173 0 0 0 94.947083
-12.988134 -4.268321 -0.86572403 71 0 0 0 94.56144
-8.7876091 -4.2635431 -0.84708333 229.5 0 0 0 92.392807
-6.9060764 -4.2302871 -0.89392793 213.5 0 0 0 90.849258
-5.1351829 -4.2863064 -0.89559543 267 0 0 0 88.492676
-3.7108166 -4.2499743 -0.8833825 209.39999 0 0 0 85.954178
-2.628691 -4.0812507 -0.87490278 139 0 0 0 83.60421
-2.2722073 -4.2894421 -0.87459064 132.25 0 0 0 82.236427
-1.9471686 -4.428565 -0.87100387 140.5 0 0 0 81.059174
-1.2238252 -4.0452309 -0.85935831 27.5 0 0 0 79.107269
-0.77496159 -4.1556478 -0.86088628 24.4 0 0 0 77.351387
-0.26517835 -4.2151747 -0.86161292 23.6 0 0 0 75.394936
0.24631551 -4.1926904 -0.85838974 19.200001 0 0 0 73.440392
0.74636805 -4.0903997 -0.85147953 25.4 0 0 0 71.482567
1.3121899 -4.2933731 -0.84821224 53.333332 0 0 0 69.657318
1.7542437 -4.2809973 -0.84258842 47.5 0 0 0 68.15731
2.104856 -4.0972881 -0.84078342 67 0 0 0 66.789215
2.8963623 -4.3666124 -0.83154023 166.5 0 0 0 65.023262
3.1217148 -4.1338539 -0.82321757 146 0 0 0 64.048531
4.2215204 -4.2414346 -0.81453109 261.5 0 0 0 61.89246
5.6503296 -4.309936 -0.7984857 121.33334 0 0 0 59.738403
7.4897542 -4.3710899 -0.76772267 115 0 0 0 57.784206
7.5327139 -4.1518235 -0.76142216 139 0 0 0 57.395882
10.612902 -4.2422276 -0.73911583 131 0 0 0 55.435352
-20.332943 -3.5093603 -0.82443482 63 0 0 0 96.88501
-13.008776 -3.5812826 -0.52469444 143 0 0 0 95.329079
-12.875266 -3.5446041 -0.84568208 390 0 0 0 95.329079
-9.1183567 -3.6259904 -0.85238683 168 0 0 0 93.571472
-8.9838772 -3.9594791 -0.85217845 206 0 0 0 92.979904
-7.0649586 -3.6458249 -0.87782699 247 0 0 0 92.001259
-6.9931846 -3.9391601 -0.88603497 197 0 0 0 91.434525
-5.5749092 -3.5062857 -0.88242918 227 0 0 0 90.652908
-5.4236107 -3.7926428 -0.88654333 261.66666 0 0 0 89.871773
-4.1789088 -3.7505326 -0.88010395 208.8 0 0 0 87.908905
-3.1682491 -3.6270149 -0.86853999 92 0 0 0 85.954445
-2.8998034 -3.8535745 -0.86932832 112 0 0 0 84.774155
-2.2279286 -3.6467335 -0.86972046 33.799999 0 0 0 83.213501
-1.7579266 -3.8607457 -0.86271429 61.799999 0 0 0 81.256836
-1.4710058 -3.9754555 -0.86141616 34 0 0 0 80.085854
1.3068304 -3.858973 -0.83650351 31.4 0 0 0 69.135574
1.7654455 -3.6665428 -0.83850449 30.799999 0 0 0 67.180412
2.3778894 -3.8962953 -0.83465433 87.333336 0 0 0 65.612556
2.6107605 -3.6469991 -0.82125896 74.666664 0 0 0 64.437248
3.3813345 -3.8525956 -0.81588936 183.66667 0 0 0 62.869419
3.5769291 -3.6033716 -0.80897063 174 0 0 0 61.893867
4.4475627 -3.8546262 -0.80171812 231 0 0 0 60.718422
4.59723 -3.6045349 -0.79632682 231.5 0 0 0 59.930923
5.8218284 -3.7975566 -0.78120345 129.66667 0 0 0 58.567108
7.5781202 -3.8207264 -0.75124454 126.5 0 0 0 56.803555
10.582298 -3.7853909 -0.72643656 159.5 0 0 0 54.854614
16.60458 -3.504251 -0.69574338 32 0 0 0 52.702591
-21.021982 -3.1012769 -0.8507486 77 0 0 0 97.281136
-12.982546 -3.2350907 -0.6839782 364 0 0 0 95.722481
-9.3335228 -3.1934972 -0.85785645 219 0 0 0 94.366684
-7.160841 -3.2635543 -0.86918283 218.5 0 0 0 92.786407
-5.67342 -3.1938655 -0.8726564 245 0 0 0 91.42997
-4.5730009 -3.1116097 -0.86723435 189.5 0 0 0 90.068253
-4.4320455 -3.3422093 -0.86996853 190 0 0 0 89.281731
-3.6183262 -3.1686449 -0.8685838 111.75 0 0 0 88.101616
-3.3963807 -3.4412327 -0.87250626 110 0 0 0 86.937431
-2.7104111 -3.2581744 -0.86346626 49.42857 0 0 0 85.560371
2.2226202 -3.2828238 -0.81996816 35.714287 0 0 0 64.829811
2.888227 -3.3800397 -0.81581545 91 0 0 0 63.066879
3.1284039 -3.0795457 -0.80669957 81.666664 0 0 0 61.696136
3.8061843 -3.2281749 -0.79663455 140.39999 0 0 0 60.519875
4.7845058 -3.2124867 -0.78629899 254.25 0 0 0 58.763668
5.951993 -3.3804193 -0.76935744 151.5 0 0 0 57.590042
6.0337849 -3.1381938 -0.76450181 177 0 0 0 57.001358
7.6696739 -3.2933319 -0.7388348 126.66666 0 0 0 55.824219
10.585466 -3.2100177 -0.71452183 170 0 0 0 54.07341
16.366459 -3.0368559 -0.68161237 17 0 0 0 52.311314
-21.673111 -2.6578572 -0.8758136 28 0 0 0 97.674683
-13.137993 -2.5995982 -0.84951657 88 0 0 0 96.496498
-12.694181 -2.8357294 -0.82357198 129 0 0 0 96.10627
-9.6387453 -2.6533194 -0.87072241 177 0 0 0 95.329079
-9.4723597 -2.8581367 -0.86100411 207 0 0 0 94.947083
-7.2530122 -2.7852895 -0.85855573 241.33333 0 0 0 93.771614
-5.8423996 -2.7472601 -0.86586386 223 0 0 0 92.588509
-4.7234197 -2.7326035 -0.85606521 146.5 0 0 0 91.235703
-4.006319 -2.5168104 -0.854877 79 0 0 0 90.652908
-3.8486965 -2.7588422 -0.85541362 89.75 0 0 0 89.674995
-3.2147918 -2.7431788 -0.86209297 51.142857 0 0 0 88.30114
2.4904006 -2.9953549 -0.80629295 37 0 0 0 63.260433
2.8041196 -2.700182 -0.80803299 33 0 0 0 61.497337
3.3453445 -2.7025738 -0.7917062 55.599998 0 0 0 60.130413
3.9925961 -2.9069443 -0.7885775 127 0 0 0 59.353352
4.0726695 -2.6695716 -0.77789193 107.33334 0 0 0 58.567108
4.948257 -2.7369816 -0.77174681 215 0 0 0 57.393818
6.0864081 -2.7952509 -0.75293303 183.66667 0 0 0 56.214355
7.7927804 -2.7925196 -0.73266578 88 0 0 0 54.854614
10.549072 -2.7783351 -0.70414621 172 0 0 0 53.485153
15.980493 -2.5615978 -0.66158295 68 0 0 0 51.92662
-21.158335 -2.0711355 -0.85226965 28 0 0 0 98.058151
-13.201027 -2.2783775 -0.85014874 92 0 0 0 96.88501
-9.6523533 -2.2806206 -0.86410737 203 0 0 0 95.914375
-7.3648524 -2.2248638 -0.85070753 246.66667 0 0 0 94.945862
-5.9613242 -2.2876358 -0.85676384 219.33333 0 0 0 93.771614
-4.9051523 -2.2314436 -0.84589505 142 0 0 0 92.784477
-4.1007681 -2.2405908 -0.84474051 53 0 0 0 91.620659
-3.5670779 -2.1794126 -0.85288435 41.75 0 0 0 90.849365
-3.429239 -2.3927262 -0.85229808 41 0 0 0 89.872063
3.5893009 -2.2337892 -0.77940643 56 0 0 0 58.176281
4.2191505 -2.2724366 -0.76613355 88 0 0 0 57.196796
5.075737 -2.261327 -0.75871211 181.5 0 0 0 56.019604
6.1985221 -2.3094027 -0.74367809 126.66666 0 0 0 55.048191
7.8155208 -2.2702281 -0.72003776 139 0 0 0 53.877323
10.469326 -2.3490756 -0.69203144 162 0 0 0 52.900646
15.776413 -2.1333749 -0.64997321 58 0 0 0 51.529152
-13.344146 -1.8018832 -0.85537243 84 0 0 0 97.477905
-9.6606865 -1.7894132 -0.85628021 167 0 0 0 96.69075
-7.4176908 -1.7550054 -0.84308708 218 0 0 0 95.914375
-6.0479741 -1.665562 -0.84208655 242 0 0 0 95.332878
-5.9913478 -1.9691966 -0.84611064 248 0 0 0 94.56144
-5.0758147 -1.6664662 -0.83921772 155.33333 0 0 0 94.56015
-4.9871292 -1.9110061 -0.8382833 174 0 0 0 93.770569
-4.292469 -1.7667633 -0.84008521 66 0 0 0 93.377541
-3.7479033 -1.7594235 -0.84553909 37 0 0 0 92.589539
3.7440543 -1.7315614 -0.76113808 37.400002 0 0 0 56.215954
4.3827066 -1.766844 -0.75619495 92.400002 0 0 0 55.436382
5.1995835 -1.725619 -0.74822009 123 0 0 0 54.464012
6.2923584 -1.8285707 -0.73669052 150.66667 0 0 0 53.877323
7.8268108 -1.7592342 -0.70921993 135.5 0 0 0 52.900646
10.401871 -1.8027892 -0.68019253 161 0 0 0 52.118965
15.525421 -1.7126644 -0.63679814 92 0 0 0 51.148781
-17.900858 -1.3114491 -0.71423846 18 0 0 0 98.448814
-13.446108 -1.3162918 -0.85883629 106 0 0 0 98.058151
-9.6472206 -1.3032303 -0.84867358 177.5 0 0 0 97.477905
-7.4585056 -1.2903073 -0.83770084 189 0 0 0 96.88755
-6.1178365 -1.2116724 -0.83769208 202 0 0 0 96.495918
-5.1656079 -1.2193286 -0.83445168 133.25 0 0 0 95.913582
-4.4232183 -1.2752279 -0.83362162 59.5 0 0 0 95.140015
-3.8865268 -1.2755665 -0.83597744 33.400002 0 0 0 94.556015
3.895303 -1.2450584 -0.75531912 22.799999 0 0 0 54.268238
4.4631605 -1.4243474 -0.749488 49 0 0 0 54.2673
4.5269995 -1.2018415 -0.74969912 37.333332 0 0 0 53.487793
5.2882652 -1.2613055 -0.74246711 94 0 0 0 53.095478
6.2838211 -1.2513976 -0.71992517 157.25 0 0 0 52.509808
7.7555022 -1.2484095 -0.69382256 199 0 0 0 51.922363
10.225028 -1.2576516 -0.66272426 55.5 0 0 0 51.338966
15.162938 -1.2969868 -0.61927897 186 0 0 0 50.752808
-20.679289 -0.50122356 -0.8296808 36 0 0 0 99.239532
-17.838219 -0.86912543 -0.71090531 336 0 0 0 98.843475
-13.465576 -0.82159686 -0.85809189 105.5 0 0 0 98.646149
-9.6368122 -0.82508737 -0.84349644 182.5 0 0 0 98.253479
-7.4605808 -0.73354632 -0.82999855 227.66667 0 0 0 98.060547
-6.1709518 -0.75776511 -0.83564442 171.66667 0 0 0 97.671326
-5.2266116 -0.7052415 -0.82978112 106.75 0 0 0 97.474747
-4.5137172 -0.8928979 -0.83363593 61 0 0 0 96.496498
-4.3712339 -0.73272312 -0.82209551 33.799999 0 0 0 96.966415
-3.9491525 -0.80603302 -0.82418919 21 0 0 0 96.401596
3.9384861 -0.94283193 -0.7476927 7 0 0 0 53.098701
4.0119138 -0.65001196 -0.75089461 22.666666 0 0 0 51.922363
4.5530567 -0.7385034 -0.73847562 44.599998 0 0 0 51.923695
5.2345486 -0.77889824 -0.72223538 82.75 0 0 0 51.728966
6.2281189 -0.68875152 -0.70319825 170 0 0 0 51.143581
7.6945381 -0.75624484 -0.68209803 137 0 0 0 50.950794
10.123407 -0.74282634 -0.65214032 39.5 0 0 0 50.555569
14.82808 -0.72103274 -0.60277271 59.5 0 0 0 50.163136
-13.394087 -0.32478237 -0.85234332 91 0 0 0 99.239532
-9.5725136 -0.34942847 -0.83549833 183 0 0 0 99.041504
-7.4499974 -0.18376164 -0.82549411 200.66667 0 0 0 99.233032
-6.1845546 -0.30275166 -0.83268332 178.33333 0 0 0 98.843941
-5.2307129 -0.25418401 -0.82419437 81 0 0 0 98.843941
-4.5378628 -0.33312151 -0.82517678 45.5 0 0 0 98.450813
-4.3162665 -0.27645445 -0.81542987 27.666666 0 0 0 98.582161
-3.9775009 -0.26671177 -0.81579661 16.5 0 0 0 98.551628
3.9742482 -0.2442698 -0.7355479 22.799999 0 0 0 50.362194
4.5192852 -0.2215651 -0.72370374 60.5 0 0 0 50.16555
5.2113953 -0.25350016 -0.71147931 129 0 0 0 50.165546
6.1599312 -0.22184448 -0.69092178 179.66667 0 0 0 49.969791
7.6007981 -0.27628818 -0.67015439 87.333336 0 0 0 49.969791
9.968504 -0.23885348 -0.6394608 34 0 0 0 49.775528
14.566167 -0.16967489 -0.59006757 30 0 0 0 49.583111
-20.69784 0.0045793308 -0.8306008 31 0 0 0 99.616089
-13.273784 0.0027977526 -0.84436083 117 0 0 0 99.616089
-9.528533 0.0018989911 -0.83116686 151 0 0 0 99.616089
-7.5654182 0.37001061 -0.81861567 238 0 0 0 0
-6.1697769 0.2512216 -0.81533545 127.33334 0 0 0 33.335918
-5.2367306 0.21524167 -0.80830699 60 0 0 0 33.335918
-4.5624161 0.27779621 -0.80095339 19.5 0 0 0 0.19583
-4.2168021 0.16666509 -0.80890775 17 0 0 0 33.335918
-3.9396901 0.0012426628 -0.80569142 12 0 0 0 99.616089
3.9210763 0.2473058 -0.72516823 18.799999 0 0 0 48.410988
4.4216604 0.27736872 -0.70782757 36 0 0 0 48.410992
5.1027093 0.25766823 -0.69564301 84 0 0 0 48.605408
6.0822334 0.23235722 -0.6813876 141.66667 0 0 0 48.800018
7.4339848 0.46459731 -0.65460932 120 0 0 0 48.412102
7.5262661 0.191199 -0.66238451 60.5 0 0 0 48.993977
9.8240967 0.2481776 -0.62912059 67.5 0 0 0 48.993977
14.428589 0.18621312 -0.58369815 35 0 0 0 49.190601
-7.5161095 0.54871935 -0.81403261 81 0 0 0 0.39166
-5.1184053 0.93310344 -0.79306436 60.5 0 0 0 2.1442099
-4.4520988 0.86284286 -0.79444146 24.333334 0 0 0 2.3410466
3.8094642 0.72308725 -0.71490276 22.200001 0 0 0 46.456238
4.301352 0.75863361 -0.69678062 28.25 0 0 0 46.651901
4.9564705 0.76951951 -0.68191481 115.66666 0 0 0 46.978725
5.005754 0.6918056 -0.68698007 90 0 0 0 47.234558
5.9377542 0.81905675 -0.66986233 154.33333 0 0 0 47.237427
6.0231943 0.52948695 -0.67619884 138 0 0 0 48.02158
7.3516922 0.73319888 -0.64876533 119.5 0 0 0 47.827454
9.6375046 0.71931028 -0.61753154 98 0 0 0 48.216843
14.157804 0.70418936 -0.57214189 27 0 0 0 48.604729
-7.3132496 1.337662 -0.80191863 182 0 0 0 2.1442099
-5.9406662 1.2318376 -0.79213631 132 0 0 0 2.5381451
-5.0597515 1.1743526 -0.79179102 98.5 0 0 0 2.93208
-4.9530735 1.401262 -0.78432959 65.5 0 0 0 3.7090349
-4.3025627 1.2674804 -0.78593761 35.400002 0 0 0 3.9039218
4.1528826 1.2230089 -0.68993205 54.599998 0 0 0 44.892544
4.8226738 1.2260269 -0.67561865 107.5 0 0 0 45.479004
5.7998557 1.2445656 -0.66205549 191 0 0 0 46.067413
7.2318244 1.1751609 -0.64260799 101.33334 0 0 0 46.845798
9.4493637 1.294027 -0.60817325 154 0 0 0 47.234558
9.5262375 1.066311 -0.61172646 117 0 0 0 47.633327
13.99331 1.2147144 -0.56585008 55 0 0 0 48.02158
-9.2815113 1.8225545 -0.80433714 186 0 0 0 2.3389699
-7.1376038 1.7536596 -0.79220158 190.66667 0 0 0 3.125
-5.7579279 1.7820553 -0.78681195 149.75 0 0 0 4.0975423
-4.8065276 1.674626 -0.77536577 71.333336 0 0 0 4.6823668
-4.1195683 1.7299041 -0.78389817 34 0 0 0 5.7199302
3.8861463 1.8096409 -0.6815713 83.666664 0 0 0 42.556084
4.0234814 1.5774598 -0.68770444 79.5 0 0 0 43.531273
4.6464825 1.7517875 -0.67350268 161.8 0 0 0 43.72538
5.4959393 1.9147751 -0.64787465 207 0 0 0 44.108486
5.6358376 1.6551809 -0.65469986 195.33333 0 0 0 44.893551
6.9869523 1.8581405 -0.63261163 70 0 0 0 45.280792
7.0854893 1.6058643 -0.63627374 89 0 0 0 45.871895
9.2599335 1.7356329 -0.59986514 105.66666 0 0 0 46.457684
13.753681 1.7061367 -0.55721772 44 0 0 0 47.433945
-12.654134 2.4925919 -0.79866815 116 0 0 0 2.3389699
-9.1021032 2.2471488 -0.79678327 174.33333 0 0 0 3.125
-6.9170613 2.2386 -0.78311723 190.66667 0 0 0 4.2931099
-5.6131177 2.113559 -0.78266597 148 0 0 0 5.0749998
-4.5505543 2.2254624 -0.77228963 61 0 0 0 6.6254802
-4.428277 2.3658242 -0.76540208 73 0 0 0 7.2164249
-3.7711866 2.2420156 -0.77047628 45 0 0 0 7.9965148
3.495553 2.4436891 -0.67628247 48 0 0 0 39.813419
3.6775303 2.1812005 -0.67918748 61.799999 0 0 0 40.992905
4.3675146 2.2317009 -0.66381311 137.75 0 0 0 41.970196
5.3362246 2.2379322 -0.64370906 247.75 0 0 0 43.140984
6.8655524 2.1938097 -0.63020903 149.33333 0 0 0 44.502781
8.9383783 2.3711972 -0.58716643 88 0 0 0 45.280792
9.0484886 2.163166 -0.59122121 141 0 0 0 45.67358
13.412137 2.3379431 -0.54586738 26.5 0 0 0 46.651421
-12.5287 2.7843451 -0.79433036 123 0 0 0 2.73472
-8.8300247 2.7542546 -0.7852037 209 0 0 0 4.0998249
-6.7526345 2.5503347 -0.77710843 186 0 0 0 5.0749998
-5.1986213 2.7857804 -0.77007568 162.5 0 0 0 7.2136126
-4.2131181 2.7266147 -0.76656216 111.6 0 0 0 8.582798
-3.7456553 2.7553768 -0.75986356 90.5 0 0 0 9.56145
-3.3295689 2.759346 -0.76118374 50.799999 0 0 0 10.535032
3.2679374 2.7364991 -0.6758256 53.833332 0 0 0 38.454094
3.9173117 2.8798151 -0.6562584 97.333336 0 0 0 39.428757
4.1549339 2.601094 -0.66253233 114.33334 0 0 0 40.601513
4.9469738 2.9217095 -0.63742924 235 0 0 0 40.993
5.0992036 2.6802428 -0.63980818 255.33333 0 0 0 41.775623
6.4427834 2.9776039 -0.61875606 251 0 0 0 42.553921
6.6073761 2.6654651 -0.62187868 214 0 0 0 43.33667
8.719882 2.7789977 -0.58028215 133.33333 0 0 0 44.502781
13.218891 2.8101177 -0.54087943 69 0 0 0 46.07021
-12.304601 3.2061887 -0.7863366 111 0 0 0 3.3201399
-8.6277256 3.1552134 -0.77951354 203 0 0 0 4.8773398
-6.224246 3.3468568 -0.760589 223.5 0 0 0 7.2164249
-4.8532257 3.2351561 -0.76204014 193.75 0 0 0 8.7794676
-3.7317994 3.2630527 -0.75904316 127.4 0 0 0 10.923648
-3.0921094 3.0351481 -0.76423943 81.5 0 0 0 11.891525
-2.7430232 3.2633476 -0.75402325 70.5 0 0 0 13.459401
-2.3795271 3.459883 -0.74380434 58.5 0 0 0 15.02323
2.4460826 3.4804301 -0.67157286 52 0 0 0 34.340553
2.7420404 3.258256 -0.6737445 84.166664 0 0 0 35.71426
3.2418716 3.2293391 -0.66700101 112 0 0 0 37.089619
3.6459832 3.2036085 -0.65458685 119.5 0 0 0 38.062931
4.7551737 3.2213557 -0.63690889 234.25 0 0 0 40.013039
6.2579761 3.2763824 -0.61529237 259.66666 0 0 0 41.775623
8.4411526 3.2765591 -0.5729425 121.5 0 0 0 43.531273
12.894148 3.2415283 -0.53095591 72 0 0 0 45.477188
-19.258036 3.8045502 -0.76166224 33 0 0 0 2.3389699
-12.045675 3.6111391 -0.77689141 110 0 0 0 3.9072299
-11.873842 3.8750761 -0.7712115 126 0 0 0 4.2924199
-6.066051 3.5500491 -0.75641054 223 0 0 0 7.7961202
-5.8695068 3.825938 -0.7544952 235.33333 0 0 0 8.5833731
-4.6077976 3.5778227 -0.76296473 221.5 0 0 0 9.9505196
-4.3019233 3.8680942 -0.75774348 199.5 0 0 0 11.118088
-3.2672741 3.6341274 -0.7501052 171.8 0 0 0 12.869449
-2.8061609 3.8984308 -0.73879582 152.5 0 0 0 14.635113
-2.2930229 3.7436039 -0.70590943 151.16667 0 0 0 15.872134
-1.834689 3.7075317 -0.69232529 43 0 0 0 17.331013
-1.2518276 3.8819246 -0.72960085 42.833332 0 0 0 19.708263
-0.80586076 3.9229743 -0.71767765 12.333333 0 0 0 21.464869
-0.22208111 3.9645853 -0.71452481 9 0 0 0 23.800764
0.07066641 3.9818218 -0.7182157 4 0 0 0 24.979771
0.74316996 3.8666604 -0.71330601 9 0 0 0 27.705891
1.8402284 3.9150324 -0.68180066 51 0 0 0 31.614023
2.2060854 3.6931655 -0.67916268 60.799999 0 0 0 33.172218
2.9304671 3.9416294 -0.66093647 147 0 0 0 34.735439
3.2049232 3.7016349 -0.65977418 149.8 0 0 0 35.910027
4.3104863 3.7752328 -0.63449025 223 0 0 0 38.062931
4.5415769 3.5054488 -0.63544422 220 0 0 0 39.045647
5.8527932 3.8448229 -0.60870135 299 0 0 0 40.208317
6.0596843 3.5652661 -0.61163282 311 0 0 0 40.993
8.1801043 3.7701809 -0.56908458 146 0 0 0 42.556087
12.385723 3.9380178 -0.51716697 62 0 0 0 44.508419
12.59197 3.6650937 -0.52258635 74 0 0 0 44.891441
-18.993189 4.2336774 -0.75426602 49 0 0 0 2.73472
-11.635056 4.2699561 -0.76485837 143.5 0 0 0 4.8773398
-7.7755675 4.3226929 -0.75402308 222.66667 0 0 0 7.4096565
-5.6006055 4.1519847 -0.75109744 277.5 0 0 0 9.56145
-5.3842602 4.4093647 -0.75040352 247 0 0 0 10.339325
-4.0199256 4.0784473 -0.75043076 262 0 0 0 12.08482
-3.7474787 4.2904968 -0.74781477 289.25 0 0 0 13.065605
-3.4369545 4.4506211 -0.73858994 301 0 0 0 14.05131
-2.2316041 4.1755409 -0.73078907 97 0 0 0 16.776291
-1.7837594 4.288846 -0.71885055 94.199997 0 0 0 18.338898
-1.2356702 4.4247932 -0.71349609 84.599998 0 0 0 20.294067
-0.72809052 4.4259005 -0.69747084 20 0 0 0 22.047661
-0.1273469 4.4897509 -0.70137012 14.5 0 0 0 24.191246
0.20255916 4.4724493 -0.70035774 9.666667 0 0 0 25.371048
0.79087627 4.3415031 -0.69248915 18.25 0 0 0 27.513924
1.247425 4.1661291 -0.68403375 21.200001 0 0 0 29.267536
1.6080356 4.0535021 -0.68677229 78.5 0 0 0 30.636234
2.2711644 4.3805199 -0.66305435 102.5 0 0 0 32.199066
2.6770213 4.110188 -0.65978384 119.5 0 0 0 33.756989
3.829596 4.298038 -0.63680613 271 0 0 0 36.104866
4.0831504 4.0483704 -0.6361565 249 0 0 0 37.089619
5.3371305 4.4275389 -0.60164583 319 0 0 0 38.452377
5.5607147 4.1669874 -0.60322601 275 0 0 0 39.236423
7.8035035 4.3223844 -0.56243187 185.66667 0 0 0 41.384335
11.976974 4.4677892 -0.50729108 64 0 0 0 43.721481
12.182269 4.2059603 -0.51213658 58 0 0 0 44.108486
-18.755726 4.6613955 -0.74846172 28 0 0 0 3.1294401
-7.3624511 4.822577 -0.74599177 233.66667 0 0 0 8.5833731
-5.1665716 4.666213 -0.7515111 242 0 0 0 11.12068
-4.9007483 4.8756647 -0.74678212 287 0 0 0 11.891525
-3.1819754 4.5582132 -0.73086184 261 0 0 0 14.829713
-2.7513723 4.7535152 -0.72344899 239 0 0 0 16.193951
-2.2493472 4.9329114 -0.71613473 212.75 0 0 0 17.750572
-0.74372268 4.529047 -0.71509624 40.5 0 0 0 22.044384
-0.31421629 4.5377412 -0.7100727 9.666667 0 0 0 23.543739
0.92182809 4.9869766 -0.67854428 28.5 0 0 0 27.51548
1.276647 4.8680072 -0.67449528 31 0 0 0 28.680412
1.7379866 4.6890197 -0.67131156 92.25 0 0 0 30.245344
2.0148163 4.5509944 -0.66827017 76 0 0 0 31.219509
3.2298012 4.8049765 -0.63991845 210 0 0 0 33.952675
3.5774465 4.5524611 -0.64001542 230 0 0 0 35.130661
4.8747597 4.9328966 -0.60116506 325.5 0 0 0 36.891457
5.094501 4.6700683 -0.59923315 300 0 0 0 37.673485
7.4028473 4.8492403 -0.55672503 222 0 0 0 40.212021
7.5536118 4.685792 -0.55962175 238 0 0 0 40.59951
11.759765 4.719574 -0.50216442 43 0 0 0 43.341061
-18.546259 5.0905185 -0.74428052 26 0 0 0 3.5108399
-7.0815706 5.1442032 -0.74190599 245 0 0 0 9.3677502
-6.8716421 5.382885 -0.74023986 257 0 0 0 9.9505196
-4.6197891 5.06252 -0.74089861 306 0 0 0 12.676254
-4.2341619 5.2418723 -0.72899032 225.33333 0 0 0 13.65374
-3.8412826 5.3917236 -0.71660227 86.5 0 0 0 14.635216
-1.740799 5.0719919 -0.71027237 176.25 0 0 0 19.3181
-1.222232 5.1403151 -0.70120525 140.25 0 0 0 20.879635
-0.70654917 5.1662254 -0.69324559 63.5 0 0 0 22.436905
-0.19641936 5.1739039 -0.68986017 27.75 0 0 0 23.996908
0.30669078 5.1100745 -0.68338847 19.25 0 0 0 25.566257
0.67903155 5.0494113 -0.68101072 17 0 0 0 26.734974
2.3338981 5.4155912 -0.65081215 153 0 0 0 31.02396
2.7017024 5.1802521 -0.64517063 168.75 0 0 0 32.199066
4.3813744 5.409883 -0.60307395 291 0 0 0 35.322273
4.6288681 5.1715326 -0.60140181 299.5 0 0 0 36.10614
6.9927931 5.3591108 -0.55353963 256 0 0 0 39.045647
7.1974106 5.1045427 -0.55470753 224.5 0 0 0 39.620308
-18.230837 5.7244225 -0.73886353 39 0 0 0 4.0998249
-10.640691 5.6058164 -0.74088049 111 0 0 0 7.0246801
-10.436687 5.8253598 -0.73608714 131 0 0 0 7.4081697
-6.6529975 5.612751 -0.73851639 221 0 0 0 10.53276
-6.3146796 5.8716683 -0.7321288 236.66667 0 0 0 11.313197
-3.5676661 5.5604162 -0.71612227 53.5 0 0 0 15.416639
-3.3597553 5.6810365 -0.7161622 65 0 0 0 16.00119
-2.7339497 5.8499131 -0.7021184 260 0 0 0 17.555544
-2.2720702 5.9568429 -0.69443351 230.33333 0 0 0 18.731239
0.58457702 5.8723593 -0.64741117 24 0 0 0 26.15188
1.246289 5.8483419 -0.65841061 60 0 0 0 27.904335
1.733153 5.6817374 -0.65495914 108.66666 0 0 0 29.263624
2.0730195 5.5471258 -0.65334558 100.5 0 0 0 30.248684
3.8577843 5.8615694 -0.60767913 262 0 0 0 33.757782
4.1153593 5.6282458 -0.60382026 300.5 0 0 0 34.537994
6.3937674 5.9867258 -0.54964328 250 0 0 0 37.47646
6.6881719 5.6701941 -0.55061442 245.33333 0 0 0 38.258423
-17.73959 6.2894039 -0.72674155 39 0 0 0 4.6796799
-10.157124 6.1633177 -0.73164248 156 0 0 0 7.9943447
-9.8521729 6.4795241 -0.72599775 118 0 0 0 8.5809402
-5.773581 6.2076888 -0.72036344 252.33333 0 0 0 12.47911
-5.3121872 6.4543872 -0.71079457 304.5 0 0 0 13.454955
-1.7384053 6.0630455 -0.68857944 222 0 0 0 20.097881
-1.2010646 6.1164079 -0.68129778 78 0 0 0 21.464869
-0.74923342 6.1888504 -0.68257874 55.666668 0 0 0 22.631456
-0.29105827 6.134439 -0.67302674 29.333334 0 0 0 23.800764
0.23293056 6.0821919 -0.66817999 38.25 0 0 0 25.174623
0.82634449 6.0142164 -0.66764873 46 0 0 0 26.734974
2.9092767 6.479332 -0.61471075 190 0 0 0 31.219509
3.219548 6.3188872 -0.61407554 216.33333 0 0 0 32.005516
3.578542 6.0681696 -0.60997444 278 0 0 0 32.975769
5.9418707 6.4509478 -0.55008644 231 0 0 0 36.299633
6.1756029 6.2262669 -0.55021894 231.5 0 0 0 36.891457
-17.560619 6.7103996 -0.7256434 34 0 0 0 5.0749998
-9.6635256 6.6964588 -0.72388864 117 0 0 0 8.9766102
-9.4098978 6.8636284 -0.71691078 147 0 0 0 9.3677502
-5.0346045 6.5917034 -0.70564276 325 0 0 0 14.05131
-4.7627511 6.7292967 -0.70193946 299 0 0 0 14.635216
-4.3934898 6.8932848 -0.69669533 267 0 0 0 15.416639
1.9541935 6.9379363 -0.62325597 120 0 0 0 28.873199
2.2834876 6.806282 -0.62133127 193.33333 0 0 0 29.656992
2.6881878 6.6309342 -0.61940336 258.5 0 0 0 30.636234
5.658844 6.7862687 -0.55438298 246.66667 0 0 0 35.519062
-9.2050667 7.0622692 -0.71418011 149 0 0 0 9.7551498
-8.8660717 7.3281007 -0.70825654 139 0 0 0 10.339325
-3.6495347 7.1789637 -0.68797433 56.5 0 0 0 16.968735
-3.2664127 7.2806959 -0.68246716 61.5 0 0 0 17.750381
-2.7978165 7.4124799 -0.67886108 173 0 0 0 18.731239
-0.14570145 7.4445744 -0.64091808 38 0 0 0 24.19515
0.21865028 7.4453259 -0.6419794 109.33334 0 0 0 24.979027
0.75714272 7.3352828 -0.63624293 55.333332 0 0 0 26.150461
1.275552 7.1596351 -0.62796366 60.333332 0 0 0 27.320938
1.7057199 7.0387383 -0.62597626 74.5 0 0 0 28.29319
5.2052078 7.2712541 -0.56121206 241.33333 0 0 0 34.341831
-8.260478 7.7142243 -0.69628543 161.33333 0 0 0 11.313197
-2.2318246 7.5387979 -0.67501634 202.33333 0 0 0 19.90267
-1.7601712 7.6262679 -0.67264354 226.5 0 0 0 20.881161
-1.2778965 7.6303563 -0.6654073 225.66667 0 0 0 21.852623
-0.70892245 7.6256485 -0.6593551 150.33333 0 0 0 23.020761
-0.33078158 7.530869 -0.64895761 57 0 0 0 23.79715
4.3518243 7.9959078 -0.57150018 134 0 0 0 32.39399
4.710207 7.724999 -0.56802565 179 0 0 0 33.172531
-7.668654 8.0861988 -0.68697125 152.5 0 0 0 12.284744
-7.1872649 8.3552284 -0.67988706 153 0 0 0 13.06286
3.7764895 8.3513641 -0.5756256 94.666664 0 0 0 31.221563
4.169929 8.1312437 -0.57375789 96 0 0 0 32.005791
-16.19244 8.5629883 -0.70558041 60 0 0 0 7.0246801
-15.886568 8.9015865 -0.70124096 65 0 0 0 7.4081697
-6.6923704 8.5896807 -0.67226821 181.5 0 0 0 13.851669
-6.1979179 8.8056774 -0.66543329 180.5 0 0 0 14.635216
-5.8271856 8.9553728 -0.66071534 190 0 0 0 15.21871
2.8811231 8.8643341 -0.58554578 211 0 0 0 29.458836
3.2848887 8.6402874 -0.58065987 184 0 0 0 30.248684
-15.520618 9.1986217 -0.69440997 61 0 0 0 7.7961202
-15.155575 9.4868603 -0.68789876 60 0 0 0 8.1925697
-5.5752215 9.0410652 -0.65719253 193 0 0 0 15.61457
-4.6248693 9.4472704 -0.65277433 134 0 0 0 17.165871
1.3482171 9.3890553 -0.59434509 28.5 0 0 0 26.734974
1.8088279 9.3193312 -0.59549367 10 0 0 0 27.51548
2.2478561 9.1575985 -0.591869 17.5 0 0 0 28.29319
2.5722122 9.0297861 -0.58958751 93 0 0 0 28.873199
-39.935093 9.9492359 -0.63774472 24 0 0 0 3.1294401
-14.87804 9.8243074 -0.68592817 56 0 0 0 8.5809402
-4.2520361 9.5534191 -0.64968944 128 0 0 0 17.750381
-3.7601793 9.6924191 -0.64693785 175.5 0 0 0 18.533718
-3.2492833 9.759985 -0.64096469 102.5 0 0 0 19.317276
-2.7347445 9.7785072 -0.63323903 60.5 0 0 0 20.099871
-2.2393045 9.8333492 -0.62932301 56 0 0 0 20.881161
-1.7422831 9.846096 -0.62425828 113.5 0 0 0 21.6579
-1.2481155 9.8256245 -0.61863774 180 0 0 0 22.434145
-0.7587316 9.7682629 -0.61219609 169 0 0 0 23.218035
-0.27853933 9.7103195 -0.60731006 178 0 0 0 23.996151
0.19430673 9.6145945 -0.60146797 108 0 0 0 24.782555
0.66196889 9.5548592 -0.59953201 63.5 0 0 0 25.566689
1.0105319 9.5038605 -0.59861106 41 0 0 0 26.15188
-14.553759 10.126328 -0.68203586 76 0 0 0 8.9766102
-14.272598 10.45465 -0.68065 65 0 0 0 9.3677502
-14.034518 10.814563 -0.68189341 89 0 0 0 9.7551498
-37.220383 11.223051 -0.59885365 26 0 0 0 3.9072299
-13.648588 11.334106 -0.68346679 93.5 0 0 0 10.339325
-13.161325 11.766339 -0.6805684 102 0 0 0 10.92473
-12.759197 11.977081 -0.67478395 59 0 0 0 11.31663
4.7264905 11.894748 -0.50303775 119 0 0 0 30.444059
-12.278096 12.099216 -0.6645962 68 0 0 0 11.69823
-11.871246 12.28089 -0.65871751 52 0 0 0 12.08482
-11.459504 12.446263 -0.65266931 55 0 0 0 12.48467
-10.934745 12.469949 -0.63961738 47 0 0 0 12.86784
3.9107943 12.432437 -0.51257223 80 0 0 0 29.26207
4.3245754 12.168591 -0.50794488 106 0 0 0 29.854454
-10.244491 12.57609 -0.62565184 54 0 0 0 13.454955
-9.5592709 12.650839 -0.61162716 52 0 0 0 14.05131
-9.1497345 12.740931 -0.60528225 83 0 0 0 14.44268
-8.7453842 12.824483 -0.59922212 89 0 0 0 14.82775
-8.3816576 12.957455 -0.59617585 78 0 0 0 15.21871
2.7103655 12.920308 -0.51840842 60 0 0 0 27.705891
3.1747875 12.777763 -0.51743871 34.5 0 0 0 28.29319
3.6271286 12.600403 -0.5155853 49 0 0 0 28.873199
-8.0285101 13.100033 -0.59409148 61 0 0 0 15.61457
-6.5521369 13.479221 -0.5813725 87 0 0 0 17.165871
0.8077507 13.459069 -0.52831095 31 0 0 0 25.371969
1.2961252 13.371552 -0.52677763 28 0 0 0 25.956646
1.7844388 13.29902 -0.52654201 38 0 0 0 26.538099
2.2457824 13.079979 -0.52090788 106.5 0 0 0 27.12846
-6.2203679 13.632587 -0.58200169 79 0 0 0 17.558121
-5.7084513 13.828697 -0.58216596 43 0 0 0 18.139149
-1.5557325 13.953856 -0.54935408 46 0 0 0 22.626221
-1.2060589 13.886563 -0.5454368 17 0 0 0 23.026079
-0.69019151 13.768852 -0.53957736 19.5 0 0 0 23.603569
-0.18274072 13.628309 -0.53346962 18 0 0 0 24.19515
0.31445831 13.536238 -0.53024191 27 0 0 0 24.782555
-5.1964574 14.022841 -0.58302271 38 0 0 0 18.731779
-4.8235245 14.05866 -0.57998896 63 0 0 0 19.12628
-4.2625875 14.079603 -0.57481539 53 0 0 0 19.70717
-3.7108219 14.097274 -0.56988919 80 0 0 0 20.293671
-3.3484786 14.110051 -0.56704575 93 0 0 0 20.68351
-2.8041606 14.089706 -0.56189001 59.5 0 0 0 21.270679
-2.2649181 14.049929 -0.55669481 32 0 0 0 21.853251
-1.912323 14.035101 -0.55423337 27 0 0 0 22.242069
-20.851694 25.103518 -0.50193167 49 0 0 0 13.25788
-22.01948 27.877905 -0.55087274 41 0 0 0 13.65203
-12.10407 30.678795 -0.52455622 26 0 0 0 18.335659
-23.442402 31.230841 -0.61057693 19 0 0 0 14.05131
-22.787519 31.954643 -0.61524749 18 0 0 0 14.44268
-5.1594996 32.829567 -0.53726757 572 0 0 0 21.853251
-24.337967 35.971523 -0.68633747 18 0 0 0 14.82775
-23.595982 36.779427 -0.69241732 24 0 0 0 15.21871
-23.058125 37.951443 -0.70598847 25 0 0 0 15.61457
1.2252769 -29.266493 -0.43790686 63 0 0 0 73.831123
-0.20364915 -28.865166 -0.42866233 90 0 0 0 74.610657
0.49439147 -28.460806 -0.42336398 79 0 0 0 74.223839
1.7607909 -26.572323 -0.39605761 14 0 0 0 73.441902
2.365226 -26.039558 -0.38937584 74 0 0 0 73.049759
3.0319796 -26.240206 -0.39492521 56 0 0 0 72.655342
3.5145273 -25.044598 -0.37778318 101 0 0 0 72.266685
15.218623 -24.527754 -0.47095624 73 0 0 0 65.615845
15.990729 -24.417002 -0.47875142 50 0 0 0 65.22113
4.9480128 -20.493696 -0.31324309 79 0 0 0 70.697632
17.224199 -19.383097 -0.43178934 128 0 0 0 62.866402
4.7984014 -17.956804 -0.27298132 200 0 0 0 70.308609
5.2165818 -17.768896 -0.27282557 208 0 0 0 69.919708
8.3684254 -15.119275 -0.26538366 47 0 0 0 66.392448
8.645402 -14.756478 -0.26362711 233 0 0 0 66.000702
6.1225567 -14.186954 -0.2285129 238 0 0 0 67.966255
6.4381423 -13.969346 -0.22863159 221 0 0 0 67.568176
6.8438296 -13.9411 -0.23245424 293 0 0 0 67.186546
18.015038 -12.974158 -0.37373835 78 0 0 0 59.353352
3.7357488 -12.205835 -0.3307389 214.5 0 0 0 69.721878
4.2631607 -12.301706 -0.18364416 447 0 0 0 69.13932
11.510769 -12.349917 -0.27009955 88 0 0 0 62.48143
3.7488229 -11.752531 -0.47268274 191 0 0 0 69.52404
4.2325945 -11.75594 -0.480968 127 0 0 0 68.941177
11.568477 -11.818882 -0.26481348 175 0 0 0 62.093739
20.521141 -11.254514 -0.39812577 119 0 0 0 57.395882
15.369547 -10.512989 -0.30840164 238 0 0 0 58.959591
16.82382 -10.910083 -0.33515805 37 0 0 0 58.565121
21.249929 -10.985456 -0.40798303 48 0 0 0 57.001358
21.588417 -9.8525572 -0.40491605 200 0 0 0 56.21748
21.739496 -9.2851782 -0.40338928 62 0 0 0 55.819832
23.772251 -9.4698744 -0.4395678 21 0 0 0 55.435352
-13.68559 -8.6171999 -0.23407771 161 0 0 0 90.652908
23.432491 -8.6761694 -0.42847651 130 0 0 0 55.05386
-4.6640801 -7.6767497 -0.10745693 265 0 0 0 83.219131
-4.3304205 -7.7514277 -0.21359788 665 0 0 0 82.627434
23.011686 -7.8855314 -0.41622707 43 0 0 0 54.655369
27.041929 -7.0938449 -0.48303923 18 0 0 0 53.485153
-8.0946703 -6.5934367 -0.39086619 85 0 0 0 88.687965
-11.442712 -6.080461 -0.49817327 292 0 0 0 91.809807
-8.785778 -6.4705367 -0.41106057 91 0 0 0 89.478813
-8.2505493 -6.3920937 -0.39116421 50 0 0 0 89.084648
-16.556475 -5.8964586 -0.26352939 199 0 0 0 94.171921
-11.556183 -5.7834558 -0.49721292 290 0 0 0 92.192711
-9.2371454 -5.5016646 -0.40623665 58 0 0 0 91.045601
-8.5813313 -5.6965876 -0.26081222 757 0 0 0 90.264442
-8.4752178 -5.9290352 -0.2616936 542.5 0 0 0 89.872063
-9.5119963 -5.3554096 -0.41345009 70 0 0 0 91.434525
-8.5153952 -5.3570395 -0.37735307 52 0 0 0 90.652908
22.982351 -5.4329705 -0.40255776 40 0 0 0 53.098701
23.044167 -4.8546247 -0.4010765 8 0 0 0 52.702591
26.364582 -4.8810778 -0.46096778 22 0 0 0 52.311314
26.270157 -4.2007108 -0.45669541 34 0 0 0 51.92662
-16.461578 -3.6803663 -0.25419953 85 0 0 0 96.10627
-22.318518 -3.2964435 -0.35420823 9 0 0 0 97.281136
-12.997932 -3.2412069 -0.19398506 727 0 0 0 95.722481
26.010675 -2.8609846 -0.44765103 21 0 0 0 51.148781
25.682785 -2.1895347 -0.43986872 30 0 0 0 50.752808
25.222115 -1.5288088 -0.42992112 19 0 0 0 50.35833
-17.808874 -1.3077955 -0.27408284 34 0 0 0 98.448814
-17.881937 -0.87435472 -0.27528924 187 0 0 0 98.843475
24.67588 -0.88905442 -0.41856888 29 0 0 0 49.967941
-24.666243 0.0012293289 -0.39404166 26 0 0 0 99.616089
21.525337 2.4009922 -0.35841691 26 0 0 0 47.633327
20.48196 3.3084941 -0.34046271 18 0 0 0 46.844398
-2.1191804 3.723541 -0.2185553 220.38461 0 0 0 16.386517
19.551342 4.151545 -0.32537657 18 0 0 0 46.07021
11.527404 4.9591026 -0.49658477 29 0 0 0 42.94746
18.867687 4.985239 -0.31556848 19 0 0 0 45.280792
-26.127508 5.164115 -0.4004077 202 0 0 0 2.3389699
11.222515 5.3267641 -0.49070615 28.5 0 0 0 42.360397
18.476559 5.3704448 -0.31002209 24 0 0 0 44.891441
10.876457 5.8342972 -0.48656654 45 0 0 0 41.579994
18.051378 5.7311749 -0.30400425 26 0 0 0 44.508419
10.344126 6.3980947 -0.47805664 62 0 0 0 40.59951
10.561788 6.1785798 -0.48150161 51 0 0 0 40.993
17.350296 6.4621859 -0.29522613 22 0 0 0 43.721481
17.59618 6.0662169 -0.2975629 34 0 0 0 44.108486
9.9093151 6.8254104 -0.47191483 85 0 0 0 39.813419
10.136382 6.6199627 -0.47533759 60 0 0 0 40.212021
17.020439 6.8198338 -0.29146922 27 0 0 0 43.341061
9.3994827 7.3656492 -0.46775985 149.5 0 0 0 38.845798
9.7155447 7.0505724 -0.47056806 85 0 0 0 39.4272
16.776476 7.2049165 -0.28951773 46 0 0 0 42.94746
8.8962135 7.9004741 -0.46557626 134 0 0 0 37.87051
9.1062193 7.6947241 -0.4666993 144 0 0 0 38.258808
16.25139 7.9458189 -0.28543159 26 0 0 0 42.16687
16.585793 7.6104369 -0.28878358 56 0 0 0 42.553921
8.6307564 8.2535973 -0.46731216 149.5 0 0 0 37.283039
15.952384 8.2910337 -0.28292656 16 0 0 0 41.774193
8.2478971 8.7027445 -0.46916804 143.5 0 0 0 36.496468
15.677873 8.6437654 -0.28107348 18 0 0 0 41.385799
7.7557111 9.262269 -0.4728694 143.66667 0 0 0 35.519062
