# .PCD v0.7 - Point Cloud Data file format
VERSION 0.7
FIELDS x y z intensity normal_x normal_y normal_z curvature
SIZE 4 4 4 4 4 4 4 4
TYPE F F F F F F F F
COUNT 1 1 1 1 1 1 1 1
WIDTH 964
HEIGHT 1
VIEWPOINT 0 0 0 1 0 0 0
POINTS 964
DATA ascii
-21.765396 -3.7863095 3.9945319 21 0 0 0 96.93235
-20.523279 -2.5397677 3.740948 21 0 0 0 97.71656
28.995235 -2.8554356 3.8009284 10 0 0 0 51.181351
-25.034369 0.62496215 3.888396 9 0 0 0 0
-28.958858 1.431227 3.7846725 27 0 0 0 0.40327999
-22.113239 1.0930752 3.9837425 41 0 0 0 0.40327999
-33.698502 1.6710608 3.5747063 12 0 0 0 0.40327999
-33.378162 2.4745419 3.5452311 11 0 0 0 0.78571999
47.127224 4.6400976 3.8223097 13 0 0 0 48.05558
12.566062 9.8540716 3.6584308 259 0 0 0 39.079861
13.059819 9.7309065 3.7306554 186 0 0 0 39.460392
13.674581 9.6736193 3.8360507 178 0 0 0 39.857807
15.026589 10.077287 3.6971517 106 0 0 0 40.24482
11.362347 10.876341 3.7963119 155.5 0 0 0 37.509449
11.632685 10.59878 3.7986007 59 0 0 0 37.895447
11.212578 11.274142 3.6416502 19 0 0 0 37.113659
11.072638 11.694882 3.6877518 6 0 0 0 36.717579
18.490988 11.743619 3.9287112 44 0 0 0 40.634701
10.978363 12.181242 3.753974 74 0 0 0 36.329086
14.746649 12.14818 3.9006088 73 0 0 0 38.684139
11.046436 12.878171 3.8825097 112 0 0 0 35.937569
14.50676 12.562092 3.9172635 49 0 0 0 38.286072
-33.215221 16.68672 3.9232922 36 0 0 0 7.0341802
4.1033187 16.647163 3.5026433 49 0 0 0 28.51137
2.8006508 19.341146 3.5079401 104 0 0 0 26.95541
15.092347 20.427402 3.9155228 67 0 0 0 34.756729
14.716487 20.978083 3.9501998 102 0 0 0 34.37233
14.295175 21.481432 3.9773655 91 0 0 0 33.983662
16.657902 21.418047 3.5086756 51 0 0 0 35.147282
17.98702 21.985802 3.6715858 55 0 0 0 35.547153
11.892916 22.362072 3.9050558 52 0 0 0 32.421131
13.232236 22.175079 3.98048 109 0 0 0 33.191921
0.48723009 22.724977 3.5144615 85 0 0 0 24.998831
-0.071092933 23.106489 3.5726125 133 0 0 0 24.601959
-0.64861155 23.507683 3.6359506 103 0 0 0 24.209209
-8.4116201 27.475462 3.733176 15 0 0 0 19.917
-13.214795 27.772444 3.9964244 56 0 0 0 17.56802
-12.37047 27.729029 3.9453323 54 0 0 0 17.966089
-11.544635 27.681301 3.8970544 63 0 0 0 18.35635
-10.738264 27.634962 3.8522336 72 0 0 0 18.74161
-9.9544926 27.603292 3.8125403 62 0 0 0 19.13059
-9.1933479 27.594267 3.7788713 40 0 0 0 19.528561
-31.958118 35.181641 3.8499894 48 0 0 0 12.88327
14.797826 -38.40202 4.3758645 17 0 0 0 68.772354
-9.7682524 -32.217125 4.4202743 32 0 0 0 79.345474
-8.853384 -32.006424 4.3607249 30 0 0 0 78.951118
-7.9095654 -31.589624 4.2768536 27 0 0 0 78.556976
2.3363857 -31.728331 4.1765151 20 0 0 0 73.468124
4.6649961 -31.486427 4.1773896 29 0 0 0 72.296944
-30.36281 -28.919567 4.4587736 13 0 0 0 87.556732
-13.730128 -27.292948 4.0138817 10 0 0 0 82.087288
-8.2045908 -27.05765 4.4172854 23 0 0 0 79.345474
9.0032024 -27.281523 4.4823418 37 0 0 0 69.560806
9.6964855 -27.127287 4.4946618 17 0 0 0 69.167717
-10.167501 -24.558605 4.1544061 18 0 0 0 80.902435
-4.5988488 -23.119133 4.2713332 69 0 0 0 77.779762
-3.4534249 -23.272842 4.2631879 99 0 0 0 76.999825
2.1604075 -22.003569 4.0064692 35 0 0 0 73.083046
-10.643221 -21.156168 4.2908564 21 0 0 0 82.087288
-15.38982 -20.765442 4.0389853 9 0 0 0 84.806206
2.5725822 -20.917273 4.3386464 18 0 0 0 72.687149
-12.92637 -20.426254 4.3783908 41 0 0 0 83.644569
-13.166402 -19.718172 4.2950139 26 0 0 0 84.030891
-10.574458 -19.794785 4.0677524 25 0 0 0 82.475632
0.47680706 -19.658426 4.0511942 45 0 0 0 74.253838
-13.554103 -19.258718 4.2661119 9 0 0 0 84.418839
-0.00217297 -18.62838 4.2953796 78 0 0 0 74.639992
0.45728272 -18.733694 4.3206105 54 0 0 0 74.253838
-17.55035 -17.564955 4.4943256 29 0 0 0 87.175995
-15.299443 -17.75016 4.2442837 26 0 0 0 85.986717
2.6417332 -17.845348 4.159656 48 0 0 0 72.296944
1.7143546 -17.453495 4.0450926 20 0 0 0 73.083046
-15.263474 -16.854288 4.1191249 14 0 0 0 86.381203
-5.531189 -16.755514 4.0711164 26 0 0 0 79.728333
-16.956602 -16.158066 4.2411623 47 0 0 0 87.556732
-4.5508456 -16.454819 4.359024 64 0 0 0 78.951118
-1.5961466 -16.193958 4.1558709 152 0 0 0 76.214447
-1.1983204 -16.222269 4.1542754 221 0 0 0 75.815826
-2.7392118 -15.787739 4.092999 93 0 0 0 77.391289
-1.5680335 -15.908431 4.4800391 189 0 0 0 76.214447
-0.77783084 -15.786875 4.4299159 152 0 0 0 75.427986
2.302573 -15.565507 4.0184369 80 0 0 0 72.296944
-15.794219 -15.050664 4.4894743 62 0 0 0 87.556732
-13.311357 -15.444033 4.1987095 26 0 0 0 85.986717
-2.2988312 -15.494295 4.0017662 101 0 0 0 76.999825
-0.38168839 -15.428286 4.3260112 89 0 0 0 75.042381
-3.2954972 -14.679315 4.2184434 34 0 0 0 78.169952
-1.7982994 -14.591216 4.4840927 98 0 0 0 76.606247
-0.0038900701 -14.573453 4.0867071 53 0 0 0 74.639992
0.3557474 -14.613605 4.2784834 49.5 0 0 0 74.253838
16.002317 -14.520254 4.4432812 38 0 0 0 61.345322
-17.21102 -14.138268 4.033968 122 0 0 0 88.725349
-14.004154 -14.016654 4.0805831 38 0 0 0 87.175995
-17.506573 -13.675757 4.023159 64 0 0 0 89.124191
-12.405695 -13.704094 4.2619133 17 0 0 0 86.381203
-7.0116792 -13.942679 4.3747711 11 0 0 0 82.087288
-6.282474 -13.300756 4.4868064 107 0 0 0 81.68837
-2.3283739 -13.414768 4.4917169 43 0 0 0 77.391289
0.64979899 -13.289027 4.0604963 27 0 0 0 73.86277
15.47391 -13.364427 4.2059731 31 0 0 0 60.952301
15.461884 -12.705355 4.1171546 24 0 0 0 60.557968
-15.457899 -12.075907 4.0390067 27 0 0 0 89.124191
-13.670045 -12.40611 4.2554798 27 0 0 0 87.948067
-12.382219 -12.398057 4.0413203 23 0 0 0 87.175995
15.92924 -12.446728 4.1582775 19 0 0 0 60.168362
16.49859 -12.250902 4.2263255 94 0 0 0 59.771111
-23.341564 -11.763243 4.0772958 22 0 0 0 92.243759
16.85705 -11.886178 4.241796 43 0 0 0 59.38353
17.462606 -11.681487 4.3197556 20 0 0 0 59.00106
-16.231939 -11.444248 4.0885191 28 0 0 0 89.911362
17.981133 -11.399075 4.3767147 30 0 0 0 58.600151
18.442419 -11.065916 4.4208479 38 0 0 0 58.2131
-24.592567 -10.915127 4.1951203 11 0 0 0 93.030685
-18.209076 -10.926723 4.3683319 17 0 0 0 91.091507
-16.885607 -10.704988 4.1149998 35 0 0 0 90.690811
20.356266 -10.256828 4.1208415 70 0 0 0 57.043034
-17.312946 -9.8196898 4.096271 29 0 0 0 91.470398
20.905708 -9.8972635 4.1806002 28 0 0 0 56.645821
21.601719 -9.5841675 4.2701035 23 0 0 0 56.25592
-22.311577 -9.2544947 4.367373 20 0 0 0 93.426514
-19.417398 -9.1958485 4.4179025 59 0 0 0 92.632988
22.275612 -9.2348261 4.3558502 27 0 0 0 55.870701
-19.641277 -8.7183065 4.4184813 73 0 0 0 93.030685
-16.11731 -8.6297445 4.2126155 17 0 0 0 91.850899
23.097589 -8.9168139 4.4707999 9 0 0 0 55.476032
24.493231 -8.0977411 4.016293 90 0 0 0 54.703259
25.333893 -7.6903439 4.1201849 66 0 0 0 54.305378
26.535707 -7.3478179 4.2826629 4 0 0 0 53.916359
-16.630774 -6.9025736 4.1486483 46 0 0 0 93.426514
27.070009 -6.784265 4.3393216 67 0 0 0 53.531086
27.997473 -6.2896891 4.4598885 65 0 0 0 53.136398
-16.27103 -5.8348246 4.4080248 17 0 0 0 94.214951
-22.697441 -3.3764813 4.1473312 106 0 0 0 97.323395
-23.393583 -0.0075403834 4.2253313 60 0 0 0 99.665916
79.669907 -0.023894677 4.4345541 6 0 0 0 49.621479
-24.869335 0.62218845 4.4756374 19 0 0 0 0
-28.572168 1.4135774 4.4393258 16 0 0 0 0.40327999
-26.858028 1.9870298 4.1792822 31 0 0 0 0.78571999
78.70182 1.9090034 4.3791027 23 0 0 0 49.228859
-26.305103 2.5933812 4.1014152 44 0 0 0 1.1734099
-32.249653 3.1810527 4.2262769 32 0 0 0 1.1734099
77.935799 3.8065479 4.3374333 11 0 0 0 48.840473
12.566771 9.8550653 4.2499862 192 0 0 0 39.079861
13.052652 9.7259092 4.1288843 209 0 0 0 39.460392
13.671519 9.671814 4.2469745 148 0 0 0 39.857807
11.922239 10.337293 4.3954544 26 0 0 0 38.286072
15.008497 10.069395 4.1361527 67 0 0 0 40.24482
11.367745 10.881779 4.3829827 108 0 0 0 37.509449
11.626008 10.59306 4.3809643 57 0 0 0 37.895447
23.9263 10.629463 4.0454812 50 0 0 0 42.990753
11.219189 11.281015 4.2327871 31 0 0 0 37.113659
23.639133 11.205668 4.0412631 90 0 0 0 42.58955
11.120762 11.745585 4.1011686 9 0 0 0 36.717579
14.337248 11.816732 4.2494373 48 0 0 0 38.684139
18.451328 11.719013 4.4587998 38 0 0 0 40.634701
77.831947 11.525446 4.3601832 18 0 0 0 47.284233
10.994199 12.198839 4.1629653 84 0 0 0 36.329086
14.084627 12.202588 4.2618551 43 0 0 0 38.286072
23.073242 12.36132 4.0415144 84 0 0 0 41.811607
11.062337 12.896701 4.3056145 101 0 0 0 35.937569
22.804762 12.948862 4.0479274 105 0 0 0 41.417221
22.501005 13.518482 4.0507369 83 0 0 0 41.03064
14.576016 15.369572 4.3187933 20 0 0 0 36.717579
76.133896 15.125823 4.2954764 6 0 0 0 46.496567
12.007575 19.055696 4.0343499 110 0 0 0 33.586769
-35.353329 19.990894 4.2837687 7 0 0 0 7.8140001
-35.657665 21.333254 4.3817854 56 0 0 0 8.1982002
16.64854 21.406096 4.178236 31 0 0 0 35.147282
-34.214241 21.622919 4.2683458 9 0 0 0 8.5883703
17.972712 21.968477 4.3715401 49 0 0 0 35.547153
10.371676 22.057217 4.3631086 68 0 0 0 31.632311
11.125019 22.221045 4.4475474 90 0 0 0 32.021309
-40.492737 29.981703 4.0849514 18 0 0 0 9.7638502
-43.330524 33.764599 4.450985 12 0 0 0 10.15262
-6.8173099 33.906212 4.4839935 21 0 0 0 21.478479
-20.915537 -41.559708 4.9507251 13 0 0 0 82.087288
-30.165424 -30.177202 4.537169 15 0 0 0 87.175995
-8.296876 -29.993855 4.8585873 23 0 0 0 78.951118
-21.858854 -28.028908 4.6618042 13 0 0 0 85.202927
-23.972206 -27.810301 4.8134327 14 0 0 0 85.986717
8.4357033 -27.837934 4.5379462 23 0 0 0 69.947685
-24.477242 -27.026173 4.7800078 25 0 0 0 86.381203
-12.054891 -27.210224 4.6474605 18 0 0 0 81.29213
-21.787521 -26.566999 4.5069647 10 0 0 0 85.59893
-2.8452952 -23.055645 4.7810168 71 0 0 0 76.606247
-10.649526 -22.528601 4.513257 12 0 0 0 81.68837
-10.101503 -22.800219 4.5167527 8 0 0 0 81.29213
-12.451583 -21.993484 4.5766211 44 0 0 0 82.860359
1.525335 -20.713169 4.7848115 22 0 0 0 73.468124
-14.965191 -20.192516 4.5504518 10 0 0 0 84.806206
-12.758896 -19.107908 4.7282495 21 0 0 0 84.030891
-9.662322 -19.214567 4.9549365 19 0 0 0 82.087288
18.473898 -19.420412 4.8445654 14 0 0 0 62.51326
3.2551932 -18.789286 4.8629928 58 0 0 0 71.911743
-0.22380322 -18.190334 4.642302 65.5 0 0 0 74.841187
2.2403154 -18.200628 4.6781497 18 0 0 0 72.687149
3.6224828 -18.24049 4.7430778 26 0 0 0 71.514488
4.0751519 -18.175117 4.7503619 23 0 0 0 71.132172
18.188374 -18.204973 4.6522474 19 0 0 0 62.126686
0.43720981 -17.924719 4.5754404 59 0 0 0 74.253838
-6.117105 -17.110035 4.6373806 14 0 0 0 80.117035
-4.6774898 -16.913639 4.9154067 57 0 0 0 78.951118
-1.2190256 -16.506899 4.6375766 287 0 0 0 75.815826
-1.60475 -16.313866 4.9962773 126 0 0 0 76.214447
-6.0581551 -15.717906 4.7195921 7 0 0 0 80.517754
-3.9300816 -15.703531 4.7369418 59.5 0 0 0 78.556976
-3.132338 -15.751627 4.5010204 128 0 0 0 77.779762
-2.7727253 -15.999369 4.9495859 93 0 0 0 77.391289
-0.76671928 -15.61742 4.766994 77 0 0 0 75.427986
-4.5805631 -15.119019 4.8163872 74 0 0 0 79.345474
-4.2386632 -15.335642 4.850594 161 0 0 0 78.951118
-3.0086961 -15.142768 4.7075567 32 0 0 0 77.779762
-1.1388975 -15.451878 4.7239294 113 0 0 0 75.815826
-0.37396067 -15.118979 4.9855776 49 0 0 0 75.042381
1.8622956 -15.124029 4.6456928 54 0 0 0 72.687149
-6.9653807 -14.740321 4.5687099 18 0 0 0 81.68837
-6.4635077 -14.600901 4.8678222 21 0 0 0 81.29213
-5.2432561 -14.672553 4.7508368 111 0 0 0 80.117035
-4.9042282 -14.863993 4.7723117 134 0 0 0 79.728333
-3.2756674 -14.603145 4.5643768 72 0 0 0 78.169952
-1.8233973 -14.775499 4.9085245 58 0 0 0 76.606247
-1.443664 -14.641614 4.8511295 64 0 0 0 76.214447
1.2807175 -14.883987 4.5555859 86.5 0 0 0 73.275589
1.8378464 -14.946771 4.9639006 29 0 0 0 72.687149
-17.086708 -14.036091 4.5490384 35 0 0 0 88.725349
-16.432203 -14.192695 4.9990544 92 0 0 0 88.332359
-5.5613985 -14.435932 4.7171698 14 0 0 0 80.517754
-3.1947658 -14.230499 4.8094511 37 0 0 0 78.169952
-2.7919657 -14.036974 4.7200327 25 0 0 0 77.779762
-12.512234 -13.821688 4.755827 32 0 0 0 86.381203
-3.4676859 -13.848316 4.7082777 69 0 0 0 78.556976
-16.86286 -13.17764 4.9272242 68 0 0 0 89.124191
-12.537875 -13.185183 4.6418777 17 0 0 0 86.779213
-7.094758 -13.286055 4.9657445 20 0 0 0 82.475632
-3.6878791 -13.3314 4.562871 80 0 0 0 78.951118
1.2808094 -13.01844 4.9568825 56 0 0 0 73.083046
1.6512277 -13.400944 4.7847052 76 0 0 0 72.687149
-1.2719533 -12.936398 4.608016 34 0 0 0 76.214447
-0.31136519 -12.707204 4.8177323 126 0 0 0 75.042381
2.2367721 -12.907405 4.6427956 88 0 0 0 71.911743
2.5020862 -12.596748 4.5522394 30 0 0 0 71.514488
15.463256 -12.701313 4.6069012 11 0 0 0 60.557968
-24.26676 -12.229191 4.9101114 17 0 0 0 92.243759
-21.814457 -12.37166 4.5349979 18 0 0 0 91.470398
0.30177638 -12.322273 4.6725721 44 0 0 0 74.253838
15.922823 -12.436597 4.6507745 18 0 0 0 60.168362
16.431082 -12.195764 4.7097201 31 0 0 0 59.771111
-22.072025 -11.811496 4.5265841 14 0 0 0 91.850899
16.877216 -11.895294 4.7519312 41 0 0 0 59.38353
17.358177 -11.606704 4.8050151 35 0 0 0 59.00106
-17.538822 -11.123097 4.7815485 46 0 0 0 90.690811
-16.273199 -11.477482 4.5866399 33 0 0 0 89.911362
-14.950714 -11.104116 4.7490864 31 0 0 0 89.512123
17.878689 -11.329192 4.8698726 17 0 0 0 58.600151
18.385063 -11.026504 4.9317918 36 0 0 0 58.2131
-17.753414 -10.657542 4.7671227 23 0 0 0 91.091507
19.113832 -10.83901 4.5154686 12 0 0 0 57.823368
19.787588 -10.587044 4.6106439 24 0 0 0 57.430233
-20.115614 -10.137976 4.6305733 24 0 0 0 92.243759
20.17227 -10.163541 4.6400828 42 0 0 0 57.043034
-18.98604 -9.5730247 4.8933687 60 0 0 0 92.243759
21.239342 -9.7350769 4.7979555 18.5 0 0 0 56.450871
-19.536432 -9.2562733 4.9742508 74 0 0 0 92.632988
22.33692 -9.2593908 4.9630966 76 0 0 0 55.870701
-19.634323 -8.7192335 4.9430971 84 0 0 0 93.030685
23.74929 -8.5038929 4.5537858 33 0 0 0 55.0966
24.420557 -8.0728817 4.6416497 9 0 0 0 54.703259
25.193052 -7.6467633 4.749711 19 0 0 0 54.305378
-20.412182 -7.3189144 4.9881449 8 0 0 0 94.214951
-17.396042 -7.2199183 4.8003292 29 0 0 0 93.426514
-16.029917 -6.6532116 4.8573761 36 0 0 0 93.426514
28.976639 -5.7655001 4.589808 21 0 0 0 52.741199
30.301935 -5.2585144 4.7751989 24 0 0 0 52.355606
-23.86685 -4.1516676 4.9727454 54 0 0 0 96.93235
-21.76317 -4.3389254 4.5587215 13 0 0 0 96.546555
-24.041603 -3.5763259 4.9888687 13 0 0 0 97.323395
-19.238012 -3.8391392 4.9962325 23 0 0 0 96.546555
-22.52981 -2.7879653 4.6616979 48 0 0 0 97.71656
-23.741169 -0.59091526 4.8736415 94 0 0 0 99.273743
-22.39245 0.56077284 4.5789781 21 0 0 0 0
-26.154802 2.5799124 4.7256761 128 0 0 0 1.1734099
-25.66024 3.1655097 4.6484489 71 0 0 0 1.56924
12.581835 9.8708143 4.8483114 174 0 0 0 39.079861
13.047575 9.7243996 4.732861 151.5 0 0 0 39.460392
13.651547 9.6580963 4.6568456 151 0 0 0 39.857807
11.975723 10.387349 4.8059745 43 0 0 0 38.286072
12.29917 10.148045 4.8340373 14 0 0 0 38.684139
12.653268 10.434872 4.5671391 17 0 0 0 38.684139
14.923058 10.012882 4.7780867 72.5 0 0 0 40.24482
11.385674 10.902857 4.7786889 91 0 0 0 37.509449
11.711865 10.67486 4.8038301 46 0 0 0 37.895447
23.905466 10.620952 4.690187 51 0 0 0 42.990753
13.800305 11.376249 4.5317369 16 0 0 0 38.684139
23.642654 11.208042 4.6901956 87 0 0 0 42.58955
11.151549 11.780196 4.7148914 7 0 0 0 36.717579
13.525392 11.720337 4.5344906 25 0 0 0 38.286072
18.434029 11.713079 4.9902978 32 0 0 0 40.634701
23.36195 11.78688 4.6895318 88 0 0 0 42.202808
10.984051 12.189957 4.7694559 94.5 0 0 0 36.329086
23.094021 12.373101 4.6943007 91 0 0 0 41.811607
11.090237 12.929141 4.7398896 70 0 0 0 35.937569
22.814827 12.955221 4.6997795 82 0 0 0 41.417221
22.496508 13.516422 4.7002101 82 0 0 0 41.03064
-28.719007 14.417359 4.9751225 21 0 0 0 7.0341802
-33.157906 16.652451 4.8262939 25 0 0 0 7.0341802
-31.064953 17.553204 4.6412196 6 0 0 0 7.8140001
12.014815 19.06694 4.5914826 104 0 0 0 33.586769
15.112044 20.453936 4.5504136 67 0 0 0 34.756729
14.71292 20.972942 4.5837183 88 0 0 0 34.37233
14.29958 21.487879 4.6177592 80 0 0 0 33.983662
16.645266 21.401943 4.8489084 43 0 0 0 35.147282
10.375334 22.064323 4.9645371 82 0 0 0 31.632311
11.902779 22.380062 4.5358467 87 0 0 0 32.421131
12.600232 22.347021 4.5900941 94 0 0 0 32.80452
13.220638 22.155451 4.6158843 116 0 0 0 33.191921
-36.45715 28.398203 4.8689265 12 0 0 0 10.15262
1.4513564 30.915459 4.7731709 41 0 0 0 25.38463
2.1980395 30.705166 4.7470651 58 0 0 0 25.77984
-1.6372911 31.916807 4.9308972 39 0 0 0 23.82296
-7.7721009 34.284107 4.5583262 15 0 0 0 21.08614
-8.7556877 34.660267 4.6360331 26 0 0 0 20.69194
14.83537 -38.47747 5.39885 13 0 0 0 68.772354
8.2457209 -27.210827 5.1401992 8 0 0 0 69.947685
9.7113228 -27.167347 5.2153783 23 0 0 0 69.167717
-10.779581 -26.037689 5.0999675 24 0 0 0 80.902435
21.426067 -24.854643 5.1116176 27 0 0 0 63.30468
-2.8454504 -23.091621 5.3575964 32 0 0 0 76.606247
-12.487162 -22.05637 5.2130518 72 0 0 0 82.860359
-11.995193 -22.454674 5.2360702 26 0 0 0 82.475632
20.247692 -22.355453 5.4475365 27 0 0 0 62.906872
-12.909442 -21.551662 5.1671886 54 0 0 0 83.248749
-13.447084 -21.249067 5.1719637 69 0 0 0 83.644569
-14.954375 -20.177879 5.1649742 15 0 0 0 84.806206
3.7453048 -18.854927 5.3792348 35 0 0 0 71.514488
3.1991656 -18.465931 5.2452826 19 0 0 0 71.911743
18.350124 -18.365747 5.3321643 27 0 0 0 62.126686
0.87341487 -17.842558 5.0021353 29 0 0 0 73.86277
2.1821554 -17.729265 5.0014095 99 0 0 0 72.687149
-14.315097 -16.614105 5.0502687 17 0 0 0 85.986717
-2.4543622 -16.568035 5.1043286 84 0 0 0 76.999825
-0.8177169 -16.61368 5.4804974 43 0 0 0 75.427986
0.402776 -16.529453 5.4476123 14 0 0 0 74.253838
3.2764463 -16.488255 5.1213636 31 0 0 0 71.514488
17.154318 -16.341955 5.4489126 31 0 0 0 61.733059
-16.714046 -15.932381 5.3147607 23 0 0 0 87.556732
-13.358816 -15.504433 5.2175088 26 0 0 0 85.986717
-4.8281116 -15.927273 5.4840126 125 0 0 0 79.345474
-15.227167 -15.245516 5.4908962 20 0 0 0 87.175995
-2.6341686 -15.214673 5.4683733 16 0 0 0 77.391289
-1.1316552 -15.317873 5.0630703 63 0 0 0 75.815826
0.37179762 -15.078722 5.3418264 61 0 0 0 74.253838
16.726604 -15.170172 5.1947107 56 0 0 0 61.345322
-4.812736 -14.59539 5.4429545 29 0 0 0 79.728333
-1.0981315 -14.933393 5.3035502 56 0 0 0 75.815826
-0.73259777 -14.972619 5.3094029 80 0 0 0 75.427986
0.73042554 -14.848166 5.2652469 66 0 0 0 73.86277
-19.027229 -14.130463 5.4525852 29 0 0 0 89.512123
-17.068901 -14.026359 5.0856242 36 0 0 0 88.725349
-15.530267 -14.093577 5.3446622 26 0 0 0 87.948067
-14.714168 -14.02652 5.1819677 26 0 0 0 87.556732
-2.0737481 -14.008359 5.0174775 20 0 0 0 76.999825
-20.399227 -13.644324 5.0435982 20 0 0 0 90.302383
1.0153446 -13.768519 5.2298899 218 0 0 0 73.468124
15.762366 -13.606905 5.3042707 37 0 0 0 60.952301
-16.715427 -13.06238 5.4052329 25 0 0 0 89.124191
-0.8190335 -13.35569 5.0705023 89 0 0 0 75.621902
-6.491847 -12.920122 5.1227365 16 0 0 0 82.087288
15.476303 -12.711356 5.1026664 93 0 0 0 60.557968
15.95439 -12.460548 5.1571608 92 0 0 0 60.168362
17.482668 -11.689102 5.3558154 87 0 0 0 59.00106
-17.697407 -11.223524 5.3389473 39 0 0 0 90.690811
-14.697903 -11.486323 5.2203574 17 0 0 0 89.124191
18.030058 -11.424232 5.4351277 82 0 0 0 58.600151
-18.154123 -10.897877 5.3937578 30 0 0 0 91.091507
-16.293819 -10.903278 5.4842591 15 0 0 0 90.302383
19.140938 -10.849219 5.0602183 89 0 0 0 57.823368
-17.999966 -10.21312 5.2724223 13 0 0 0 91.470398
20.986771 -9.9295521 5.3366151 83 0 0 0 56.645821
21.636448 -9.5934572 5.4390326 81 0 0 0 56.25592
-19.342642 -9.1644144 5.4507928 106 0 0 0 92.632988
23.855932 -8.5411606 5.1979709 72 0 0 0 55.0966
24.571577 -8.1218472 5.307333 92 0 0 0 54.703259
25.382944 -7.7034054 5.4383745 50 0 0 0 54.305378
-19.109472 -7.3862023 5.2180572 26 0 0 0 93.819481
27.126055 -6.7973261 5.0409894 59 0 0 0 53.531086
-15.651342 -6.4993224 5.1606541 39 0 0 0 93.426514
28.159311 -6.3249922 5.2004075 36 0 0 0 53.136398
29.184269 -5.805716 5.3595548 51 0 0 0 52.741199
-20.075686 -5.0423317 5.2702727 34 0 0 0 95.761208
-23.548988 -4.1005912 5.4923301 17 0 0 0 96.93235
-19.288786 -4.3442912 5.0355763 43 0 0 0 96.144783
-21.912176 -3.2635558 5.0927806 6 0 0 0 97.323395
-21.069082 -3.1380074 5.4214001 23 0 0 0 97.323395
-23.848598 -0.59777176 5.4796 11 0 0 0 99.273743
-22.978888 0.57292205 5.2583718 17 0 0 0 0
-26.642996 1.3204393 5.4511905 63 0 0 0 0.40327999
-22.713083 1.1215419 5.2017345 18 0 0 0 0.40327999
-26.052109 1.9299068 5.3377686 71 0 0 0 0.78571999
-30.028978 2.2247336 5.4135928 20 0 0 0 0.78571999
-25.204803 3.1103783 5.1880798 41 0 0 0 1.56924
12.57798 9.8645554 5.2421536 150 0 0 0 39.079861
13.047985 9.7234135 5.3360558 159 0 0 0 39.460392
13.62796 9.6437864 5.2670507 136 0 0 0 39.857807
14.865315 9.9786434 5.423975 62 0 0 0 40.24482
11.887983 10.308226 5.1601911 31 0 0 0 38.286072
11.376087 10.89012 5.1639729 56 0 0 0 37.509449
11.662074 10.626204 5.1736674 4 0 0 0 37.895447
23.922871 10.629388 5.3383031 71 0 0 0 42.990753
23.663397 11.218559 5.3392444 95 0 0 0 42.58955
11.030542 11.651254 5.259676 6 0 0 0 36.717579
18.296415 11.626395 5.4861937 38 0 0 0 40.634701
23.380703 11.797009 5.3382297 99 0 0 0 42.202808
10.997652 12.203017 5.3839321 76 0 0 0 36.329086
23.098593 12.376215 5.3405962 87 0 0 0 41.811607
11.074132 12.915116 5.152792 91 0 0 0 35.937569
22.823477 12.960773 5.347928 66 0 0 0 41.417221
22.526035 13.534754 5.3534989 70 0 0 0 41.03064
-29.943506 14.127262 5.1257176 19 0 0 0 6.6398902
12.005514 19.059425 5.1407447 86 0 0 0 33.586769
15.099972 20.437649 5.1723204 57 0 0 0 34.756729
14.72394 20.988506 5.2181759 82 0 0 0 34.37233
-35.369041 21.153751 5.3572683 30 0 0 0 8.1982002
14.309763 21.502974 5.2567406 103 0 0 0 33.983662
-35.037514 22.138367 5.3871565 14 0 0 0 8.5883703
11.116841 22.204281 5.0553331 85 0 0 0 32.021309
11.892651 22.360682 5.1552582 83 0 0 0 32.421131
12.595213 22.337799 5.2193561 101 0 0 0 32.80452
13.232169 22.174395 5.2553554 85 0 0 0 33.191921
18.00985 22.013823 5.0848832 34 0 0 0 35.547153
-34.194027 22.795244 5.3415837 6 0 0 0 8.9860096
10.003676 22.704418 5.0512714 41 0 0 0 31.25071
9.6420603 23.424448 5.1566772 116 0 0 0 30.856039
9.283186 24.223341 5.2801628 33 0 0 0 30.46323
8.8849964 25.002857 5.4004512 60 0 0 0 30.073719
2.8975735 30.087255 5.4088888 93 0 0 0 26.16857
-2.4662745 32.489822 5.0274844 5 0 0 0 23.42466
-4.1379848 32.97776 5.1293683 14 0 0 0 22.646
-3.2948198 32.740997 5.0778761 15 0 0 0 23.041849
-5.8845863 33.50214 5.2506623 9 0 0 0 21.860531
-7.7755694 34.305092 5.4307022 17 0 0 0 21.08614
-6.8355074 34.003857 5.3543143 16 0 0 0 21.478479
-31.943243 35.167915 5.000658 35 0 0 0 12.88327
-18.892796 35.201523 5.1844568 31 0 0 0 16.78524
-18.108725 35.823486 5.2083158 69 0 0 0 17.175249
51.45224 -90.891922 5.9107461 9 0 0 0 66.433144
-11.395988 -34.515022 5.6690898 23 0 0 0 79.728333
8.9931364 -27.24824 5.8931036 8 0 0 0 69.560806
10.411484 -27.014576 5.9457521 18 0 0 0 68.772354
-10.846285 -26.199066 5.828867 15 0 0 0 80.902435
21.491663 -24.929499 5.9419656 15 0 0 0 63.30468
-12.659345 -22.369658 5.9150786 31 0 0 0 82.860359
-12.949172 -21.62657 5.8013124 22 0 0 0 83.248749
-13.818485 -20.702471 5.7285624 13 0 0 0 84.030891
19.097366 -20.073885 5.6885424 28 0 0 0 62.51326
2.9346063 -19.809385 5.6028705 28 0 0 0 72.296944
-0.44160476 -18.059658 5.5026073 81 0 0 0 75.042381
0.0014599742 -18.365374 5.593452 30 0 0 0 74.639992
18.372829 -18.381157 5.9740038 31 0 0 0 62.126686
1.3209999 -17.95068 5.9272776 20 0 0 0 73.468124
0.85191792 -17.401806 5.7385206 20 0 0 0 73.86277
-6.0332417 -16.875895 5.9031258 22 0 0 0 80.117035
-2.484844 -16.755131 5.5806079 40 0 0 0 76.999825
-5.9696445 -15.50469 5.8817582 123 0 0 0 80.517754
-4.7249365 -15.606421 5.7731915 24 0 0 0 79.345474
-3.1512289 -15.877451 5.7312236 27 0 0 0 77.779762
-1.9621831 -15.952578 5.690794 32 0 0 0 76.606247
-0.38751918 -15.921301 5.6387959 52 0 0 0 75.042381
-13.27171 -15.403297 5.6886797 18 0 0 0 85.986717
-7.1583676 -15.162769 5.9357128 5 0 0 0 81.68837
-6.406271 -15.494803 5.9355268 38 0 0 0 80.902435
-3.7905262 -15.163084 5.9177084 26 0 0 0 78.556976
-2.6349411 -15.219773 5.8484645 25 0 0 0 77.391289
16.747952 -15.188751 5.7565656 39 0 0 0 61.345322
-4.7995358 -14.555521 5.8034997 36 0 0 0 79.728333
-4.0254517 -14.573958 5.7255831 6 0 0 0 78.951118
-2.9076061 -14.64762 5.655324 31 0 0 0 77.779762
0.71872473 -14.611085 5.539916 26 0 0 0 73.86277
1.7903322 -14.518872 5.5396609 148 0 0 0 72.687149
2.2170746 -14.948826 5.7216501 19 0 0 0 72.296944
-16.487392 -14.240251 5.5505347 25 0 0 0 88.332359
-6.2229362 -14.064129 5.8234386 28 0 0 0 81.29213
-5.8163095 -14.067267 5.7642689 23 0 0 0 80.902435
-5.4267507 -14.093924 5.7191863 19 0 0 0 80.517754
-4.3343182 -14.315028 5.6642442 88 0 0 0 79.345474
-16.942331 -13.922296 5.5865026 28 0 0 0 88.725349
-14.522653 -13.843936 5.6132975 11 0 0 0 87.556732
-6.4679136 -13.699883 5.7369952 29 0 0 0 81.68837
15.851205 -13.682754 5.8543024 38 0 0 0 60.952301
-20.124641 -13.465704 5.5693817 21 0 0 0 90.302383
15.482078 -12.715429 5.6024456 101 0 0 0 60.557968
15.948589 -12.455363 5.6582179 85 0 0 0 60.168362
16.542391 -12.276875 5.759378 26 0 0 0 59.771111
17.064394 -12.025595 5.8358746 6 0 0 0 59.38353
-21.144251 -11.996381 5.590312 52 0 0 0 91.470398
-15.708513 -11.67075 5.9559631 8 0 0 0 89.512123
17.494158 -11.696077 5.8823619 72 0 0 0 59.00106
-17.770203 -11.269572 5.8834734 9 0 0 0 90.690811
18.051498 -11.437087 5.972712 70 0 0 0 58.600151
18.568209 -11.135433 5.5124331 94 0 0 0 58.2131
19.137506 -10.846559 5.599751 88 0 0 0 57.823368
19.784048 -10.57924 5.7100682 6 0 0 0 57.430233
-19.332039 -10.34991 5.5840807 7 0 0 0 91.850899
-19.363375 -9.7630901 5.5223374 53 0 0 0 92.243759
-16.468206 -9.8900452 5.8462467 26 0 0 0 91.091507
20.974453 -9.922967 5.9036016 62 0 0 0 56.645821
-19.298784 -9.1435518 5.9690442 61 0 0 0 92.632988
22.298273 -9.2380352 5.5454006 67 0 0 0 55.870701
-20.152338 -8.9490633 5.6139593 32 0 0 0 93.030685
-17.367033 -8.7606678 5.9187198 34 0 0 0 92.243759
23.279339 -8.9805212 5.730896 6 0 0 0 55.476032
23.861401 -8.5375671 5.8195748 66 0 0 0 55.0966
24.578127 -8.1183786 5.9424458 56 0 0 0 54.703259
-19.166534 -7.4081664 5.7440381 78 0 0 0 93.819481
27.179224 -6.8096714 5.7407174 85 0 0 0 53.531086
28.152424 -6.3224583 5.9096098 48 0 0 0 53.136398
30.27879 -5.2534351 5.5328612 39 0 0 0 52.355606
-24.517244 -4.8921342 5.7430906 8 0 0 0 96.546555
-19.186144 -4.8189816 5.5299072 26 0 0 0 95.761208
-18.988031 -4.7727199 5.9550095 7 0 0 0 95.761208
-19.754168 -4.4489975 5.6592956 37 0 0 0 96.144783
-18.709661 -4.2172718 5.8339992 7 0 0 0 96.144783
-20.320972 -3.5386596 5.7636666 11 0 0 0 96.93235
-20.648163 -3.0753121 5.8325691 10 0 0 0 97.323395
-22.057516 -2.1849635 5.6391802 22 0 0 0 98.112831
-21.367945 -2.1166546 5.9976354 5 0 0 0 98.112831
-22.863674 -1.1353874 5.8221602 16 0 0 0 98.883446
-26.000273 1.9229225 5.9623299 18 0 0 0 0.78571999
-25.092155 2.4728134 5.7657065 28 0 0 0 1.1734099
-25.158974 3.1016104 5.7961516 9 0 0 0 1.56924
44.886723 3.319777 5.8382993 5 0 0 0 48.457752
45.000664 4.4417953 5.8634677 6 0 0 0 48.05558
43.060127 6.3985605 5.6425877 7 0 0 0 47.284233
12.578543 9.8723774 5.6363277 122 0 0 0 39.079861
13.049222 9.7317371 5.7375336 90 0 0 0 39.460392
13.64699 9.6630888 5.8929024 103 0 0 0 39.857807
14.821504 9.9459896 5.8496161 43 0 0 0 40.24482
11.887661 10.31558 5.7410822 67 0 0 0 38.286072
12.241946 10.105445 5.9847164 79 0 0 0 38.684139
11.376688 10.89859 5.7460384 31.5 0 0 0 37.509449
11.671719 10.642841 5.9546504 8 0 0 0 37.895447
23.920267 10.633951 5.9794617 48 0 0 0 42.990753
23.646563 11.216353 5.9770927 55 0 0 0 42.58955
23.364834 11.794821 5.9763007 55 0 0 0 42.202808
11.00991 12.225225 5.7956347 45 0 0 0 36.329086
23.086178 12.375432 5.9799404 58 0 0 0 41.811607
11.100109 12.94078 5.5858197 66 0 0 0 35.937569
22.819416 12.964391 5.9904442 49 0 0 0 41.417221
22.507563 13.529657 5.9930124 61 0 0 0 41.03064
12.021435 19.084379 5.7014179 78 0 0 0 33.586769
16.254135 19.882385 5.8559504 29 0 0 0 35.547153
15.104349 20.450983 5.7975359 63 0 0 0 34.756729
15.838382 20.375769 5.8844914 26 0 0 0 35.147282
14.734632 21.011385 5.8515458 75 0 0 0 34.37233
16.696878 21.468102 5.5332446 23 0 0 0 35.147282
14.315568 21.519636 5.8930011 86 0 0 0 33.983662
17.995811 21.996824 5.7805262 40 0 0 0 35.547153
10.378782 22.080952 5.5651197 60 0 0 0 31.632311
11.104242 22.18837 5.6587009 65 0 0 0 32.021309
11.893113 22.370481 5.777267 77 0 0 0 32.421131
12.59602 22.347944 5.8492389 79 0 0 0 32.80452
13.229705 22.17877 5.8880968 109 0 0 0 33.191921
10.035066 22.785152 5.6781774 64 0 0 0 31.25071
9.6763878 23.517954 5.7992406 45 0 0 0 30.856039
9.3049173 24.291176 5.9311829 52 0 0 0 30.46323
1.4555446 30.983206 5.5509229 104 0 0 0 25.38463
2.200999 30.7342 5.513864 118 0 0 0 25.77984
0.70064235 31.270142 5.5979958 131 0 0 0 24.998831
-1.6357961 31.905827 5.7194276 42 0 0 0 23.82296
-0.84831476 31.790924 5.6927705 97 0 0 0 24.209209
-0.0674593 31.509018 5.6398473 106 0 0 0 24.601959
-2.4592412 32.407654 5.8187084 23 0 0 0 23.42466
-4.1270218 32.897327 5.9368992 48 0 0 0 22.646
-3.2872467 32.674377 5.8798018 28 0 0 0 23.041849
-29.954327 34.634857 5.9443936 40 0 0 0 13.27622
-9.7561665 34.991047 5.6094179 10 0 0 0 20.30825
-8.7413836 34.608215 5.511538 8 0 0 0 20.69194
-29.069683 35.326645 5.9383936 27 0 0 0 13.66481
-10.739176 35.161118 5.6774216 21 0 0 0 19.917
-28.463062 36.372856 5.9941878 28 0 0 0 14.05794
-12.976605 36.061615 5.9184456 10 0 0 0 19.13059
53.77523 -100.67731 6.4571157 14 0 0 0 66.818275
-21.801247 -27.954893 6.4042439 20 0 0 0 85.202927
-11.887835 -26.833408 6.0318141 18 0 0 0 81.29213
-10.750381 -25.980371 6.468111 18 0 0 0 80.902435
-12.824651 -21.418617 6.3586659 11 0 0 0 83.248749
-13.927092 -20.865154 6.3891459 26 0 0 0 84.030891
-0.001541416 -18.390501 6.0558834 14 0 0 0 74.639992
-2.005414 -16.306681 6.2188301 32 0 0 0 76.606247
-1.5956225 -16.253965 6.1820579 51 0 0 0 76.214447
17.262751 -16.444284 6.0686069 25 0 0 0 61.733059
-5.5071182 -15.420553 6.1983409 32 0 0 0 80.117035
16.710356 -15.153964 6.3042893 60 0 0 0 61.345322
-15.93366 -14.459435 6.0170264 43 0 0 0 87.948067
-14.765806 -14.080482 6.2093425 15 0 0 0 87.556732
-16.870289 -13.863016 6.1052723 21 0 0 0 88.725349
15.825233 -13.654877 6.3581114 32 0 0 0 60.952301
-17.80928 -12.560174 6.0926137 15 0 0 0 89.911362
15.481394 -12.709695 6.0941887 89 0 0 0 60.557968
15.952042 -12.452918 6.1565638 65 0 0 0 60.168362
-19.327354 -11.601721 6.3000231 16 0 0 0 91.091507
17.514626 -11.704627 6.4068465 63 0 0 0 59.00106
18.020243 -11.412217 6.4866419 80 0 0 0 58.600151
18.575132 -11.13886 6.0528483 90 0 0 0 58.2131
19.144352 -10.849702 6.1487336 77 0 0 0 57.823368
-19.229485 -10.294935 6.0965061 60 0 0 0 91.850899
-18.327305 -10.40279 6.4099593 42 0 0 0 91.470398
-19.222122 -9.6918125 6.0171084 18 0 0 0 92.243759
20.996651 -9.9326725 6.4872274 79 0 0 0 56.645821
21.635881 -9.5924215 6.0203896 69 0 0 0 56.25592
-19.029633 -9.0200748 6.4047122 31 0 0 0 92.632988
22.367865 -9.2660093 6.1574593 71 0 0 0 55.870701
-19.990755 -8.8772545 6.1126447 29 0 0 0 93.030685
23.907743 -8.5532684 6.4546938 54 0 0 0 55.0966
-17.672804 -8.3734188 6.4339476 23 0 0 0 92.632988
25.358351 -7.6902246 6.0819273 49 0 0 0 54.305378
-17.57744 -6.7941628 6.2005544 34 0 0 0 93.819481
27.206432 -6.8104758 6.4331374 44 0 0 0 53.531086
-19.126329 -6.3362355 6.1280217 36 0 0 0 94.603249
-17.605179 -6.3127227 6.1538649 48 0 0 0 94.214951
29.182989 -5.8044372 6.0919657 61 0 0 0 52.741199
30.2973 -5.2555799 6.2933593 50 0 0 0 52.355606
-18.939653 -4.7570014 6.4228683 24 0 0 0 95.761208
-22.836008 -1.1340152 6.3833156 5 0 0 0 98.883446
-23.807968 -0.59676427 6.0552216 23 0 0 0 99.273743
79.588226 -0.0071914904 6.4123616 8 0 0 0 49.621479
-25.605042 1.2669866 6.4901466 12 0 0 0 0.40327999
-24.706512 3.6615295 6.3207603 5 0 0 0 1.9668599
12.572161 9.8676825 6.0255394 125 0 0 0 39.079861
13.049924 9.7325764 6.1371775 131 0 0 0 39.460392
13.648689 9.6646347 6.303863 95 0 0 0 39.857807
14.827221 9.9577169 6.2916021 47 0 0 0 40.24482
11.248628 11.31913 6.0147238 38 0 0 0 37.113659
11.057502 11.688026 6.063714 56 0 0 0 36.717579
18.346382 11.658565 6.0415926 39 0 0 0 40.634701
10.984544 12.197335 6.184906 67 0 0 0 36.329086
11.073016 12.91861 6.2001848 69 0 0 0 35.937569
12.14237 15.25231 6.3812675 69 0 0 0 35.347218
76.057587 15.126977 6.2228866 9 0 0 0 46.496567
12.383224 15.954091 6.1086235 53 0 0 0 35.147282
12.720294 15.581894 6.0844226 31 0 0 0 35.547153
11.996777 16.266798 6.1132846 45 0 0 0 34.756729
11.572703 16.527876 6.1024346 61 0 0 0 34.37233
13.785895 16.874811 6.051652 30 0 0 0 35.547153
11.314372 17.034409 6.1842623 92 0 0 0 33.983662
13.410588 17.264816 6.0711002 40 0 0 0 35.147282
11.032454 17.529198 6.2629571 102 0 0 0 33.586769
12.792542 17.78721 6.0846395 34.5 0 0 0 34.564529
10.773392 18.087654 6.3652778 89 0 0 0 33.191921
12.173859 18.314308 6.1064806 35 0 0 0 33.983662
10.499174 18.653791 6.4710846 121 0 0 0 32.80452
11.319367 18.991499 6.1387277 58 0 0 0 33.191921
11.749304 18.654501 6.1215258 45 0 0 0 33.586769
14.683024 18.895308 6.046947 18 0 0 0 35.147282
15.149369 18.536234 6.0495834 30 0 0 0 35.547153
10.864786 19.29178 6.1474481 31 0 0 0 32.80452
14.275826 19.333834 6.0728264 27 0 0 0 34.756729
9.9217815 19.838869 6.1585927 75 0 0 0 32.021309
10.429585 19.6322 6.1721539 48 0 0 0 32.421131
13.761569 19.629717 6.0575895 31 0 0 0 34.37233
9.6270313 20.490828 6.2849693 85 0 0 0 31.632311
13.322265 20.033016 6.078908 25 0 0 0 33.983662
12.394397 20.785057 6.1143398 37 0 0 0 33.191921
9.3015079 21.129461 6.4081945 76 0 0 0 31.25071
11.413378 21.472717 6.1438107 52 0 0 0 32.421131
11.882662 21.08856 6.115788 31 0 0 0 32.80452
10.900974 21.784128 6.154336 32 0 0 0 32.021309
9.876502 22.426828 6.1910629 44 0 0 0 31.25071
10.368586 22.058779 6.1580706 61 0 0 0 31.632311
8.7959948 22.971464 6.2145247 46 0 0 0 30.46323
9.3291464 22.679125 6.1955924 43 0 0 0 30.856039
7.6295004 23.29471 6.1935 46 0 0 0 29.682199
7.122366 23.698267 6.2523379 90 0 0 0 29.293989
6.6183901 24.157209 6.3285103 154 0 0 0 28.90177
6.1077294 24.65163 6.4166594 158 0 0 0 28.51137
8.906951 25.076694 6.0672741 57 0 0 0 30.073719
8.4769011 25.859661 6.2040844 45 0 0 0 29.682199
7.2639365 26.490005 6.2624941 18 0 0 0 28.90177
7.9142928 26.308737 6.2633424 22 0 0 0 29.293989
5.9941216 26.994614 6.30509 26 0 0 0 28.121469
6.6199255 26.696854 6.2713952 19 0 0 0 28.51137
4.6933346 27.443857 6.349113 20 0 0 0 27.33836
5.3428411 27.203075 6.3215618 27 0 0 0 27.724319
3.3241084 27.515577 6.3213153 28 0 0 0 26.554359
4.0119023 27.511862 6.3406239 16 0 0 0 26.95541
2.6921721 28.044685 6.425725 80 0 0 0 26.16857
6.523706 29.329727 6.1129432 132 0 0 0 28.121469
5.1080322 29.804049 6.1529112 120 0 0 0 27.33836
5.8163648 29.557558 6.1292477 133 0 0 0 27.724319
2.9006586 30.110723 6.1569886 80 0 0 0 26.16857
3.6709836 30.285614 6.208457 124 0 0 0 26.554359
4.3909917 30.03256 6.1764011 143 0 0 0 26.95541
1.4513099 30.880842 6.2928658 36 0 0 0 25.38463
2.1984961 30.689594 6.2625179 23 0 0 0 25.77984
-0.066604458 31.408239 6.3941426 28 0 0 0 24.601959
0.69816542 31.136141 6.3399129 36 0 0 0 24.998831
-0.84565723 31.719233 6.4601212 33 0 0 0 24.209209
-5.8774858 33.467751 6.0855899 20 0 0 0 21.860531
-5.001123 33.243683 6.0201735 31 0 0 0 22.25123
-6.7792645 33.726578 6.1615729 24 0 0 0 21.478479
-31.123394 34.253178 6.0083475 34 0 0 0 12.88327
-8.7035046 34.461891 6.3672194 43 0 0 0 20.69194
-7.7364044 34.13591 6.2695503 24 0 0 0 21.08614
-9.7029819 34.80341 6.4728284 20 0 0 0 20.30825
-18.893667 35.206314 6.172472 26 0 0 0 16.78524
-18.108751 35.826843 6.2008152 87 0 0 0 17.175249
-17.210484 36.230705 6.1952376 44 0 0 0 17.56802
-16.326061 36.66362 6.1983218 67 0 0 0 17.966089
-15.338123 36.851215 6.1641421 8 0 0 0 18.35635
-28.01372 37.668552 6.0914783 26 0 0 0 14.44825
-27.482782 38.914291 6.1809163 22 0 0 0 14.842
-27.019629 40.324612 6.2964568 33 0 0 0 15.23675
21.584066 -25.035408 6.7807074 20 0 0 0 63.30468
-14.538425 -22.982435 6.9236679 16 0 0 0 83.644569
-12.690881 -22.425425 6.562283 39 0 0 0 82.860359
-12.631975 -21.096842 6.8743782 11 0 0 0 83.248749
18.375036 -18.38249 6.6129942 42 0 0 0 62.126686
-16.128061 -16.152683 6.9430032 24 0 0 0 87.175995
17.228228 -16.410654 6.647768 41 0 0 0 61.733059
-18.260279 -15.770853 6.7430029 20 0 0 0 88.332359
16.722122 -15.158557 6.8629222 59 0 0 0 61.345322
-14.107277 -14.834853 6.736846 10 0 0 0 86.779213
-16.47463 -14.234062 6.62327 26 0 0 0 88.332359
-16.602648 -13.647925 6.538321 19 0 0 0 88.725349
-14.626802 -13.943025 6.6500387 17 0 0 0 87.556732
15.907187 -13.729602 6.9117904 39 0 0 0 60.952301
-18.486547 -13.042343 6.8801255 12 0 0 0 89.911362
15.506058 -12.733772 6.6012702 67 0 0 0 60.557968
15.976876 -12.47609 6.6686153 68 0 0 0 60.168362
-20.645103 -11.713093 6.6316438 12 0 0 0 91.470398
17.517998 -11.71061 6.9303889 53 0 0 0 59.00106
18.574541 -11.133391 6.5849123 78 0 0 0 58.2131
19.161694 -10.854372 6.6955867 70 0 0 0 57.823368
-19.328575 -10.3522 6.6675506 14 0 0 0 91.850899
20.514584 -10.323684 6.980165 5 0 0 0 57.043034
21.653088 -9.5992403 6.6139598 69 0 0 0 56.25592
22.321615 -9.2460699 6.7454524 72 0 0 0 55.870701
-20.138056 -8.9467478 6.699861 21 0 0 0 93.030685
-20.892187 -8.0788841 6.809278 23 0 0 0 93.819481
24.581486 -8.1186152 6.5793352 64 0 0 0 54.703259
-17.667141 -7.8530917 6.8350701 45 0 0 0 93.030685
25.415075 -7.7065001 6.7479973 48 0 0 0 54.305378
-20.446749 -7.3350921 6.6042171 33 0 0 0 94.214951
-17.54051 -7.2867131 6.715261 21 0 0 0 93.426514
28.134693 -6.3123388 6.6119504 54 0 0 0 53.136398
29.174019 -5.7963414 6.8184505 48 0 0 0 52.741199
-25.770868 1.9072603 6.541347 21 0 0 0 0.78571999
-26.041061 2.5683086 6.6232276 20 0 0 0 1.1734099
-24.589643 3.6454508 6.9055624 10 0 0 0 1.9668599
-24.735445 4.2871318 6.9734015 6 0 0 0 2.3536501
14.742923 9.9017038 6.6917286 51 0 0 0 40.24482
18.130438 11.526686 6.5005703 19 0 0 0 40.634701
12.251038 15.015337 6.8184152 73 0 0 0 35.547153
11.793066 15.992008 6.7458882 66 0 0 0 34.756729
12.03355 15.511483 6.9065676 59 0 0 0 35.147282
15.682108 15.750674 6.7198596 13 0 0 0 37.113659
11.536705 16.470585 6.5797801 104 0 0 0 34.37233
11.298341 17.003878 6.6791511 64 0 0 0 33.983662
11.042712 17.538465 6.7797909 81 0 0 0 33.586769
10.779821 18.090998 6.8881941 72 0 0 0 33.191921
10.223012 19.253515 6.5892997 86 0 0 0 32.421131
9.9245119 19.852434 6.7081308 82 0 0 0 32.021309
9.6240158 20.49312 6.8419638 78 0 0 0 31.632311
9.3022623 21.140413 6.979003 82 0 0 0 31.25071
8.9809875 21.838135 6.553544 84 0 0 0 30.856039
8.5305605 22.282728 6.621788 197 0 0 0 30.46323
8.0839739 22.775562 6.7069411 78 0 0 0 30.073719
7.5926247 23.181841 6.7695141 152 0 0 0 29.682199
7.1167254 23.678154 6.8611226 116 0 0 0 29.293989
6.6289902 24.193699 6.96102 139 0 0 0 28.90177
5.5818806 25.158066 6.5106959 133 0 0 0 28.121469
5.0418406 25.688534 6.6137943 121 0 0 0 27.724319
4.4965711 26.307755 6.742528 39 0 0 0 27.33836
3.9024196 26.770548 6.8344898 58 0 0 0 26.95541
3.3165464 27.4489 6.9845352 93 0 0 0 26.554359
2.0407388 28.619394 6.5439043 59 0 0 0 25.77984
1.3564782 29.052109 6.6333556 67 0 0 0 25.38463
-0.071532287 29.984152 6.8389497 39 0 0 0 24.601959
0.65392226 29.535528 6.738121 46 0 0 0 24.998831
-0.82126403 30.52585 6.9650674 47 0 0 0 24.209209
-10.634894 31.973787 6.8673358 39 0 0 0 19.528561
-9.7394361 31.869616 6.7915297 44 0 0 0 19.917
-8.8808241 31.832619 6.7350321 60 0 0 0 20.30825
-8.029829 31.772915 6.678143 64 0 0 0 20.69194
-7.1982951 31.740562 6.6316152 35 0 0 0 21.08614
-6.3949261 31.796276 6.6077795 27 0 0 0 21.478479
-5.5953197 31.84432 6.5865479 24 0 0 0 21.860531
-4.8133655 31.981903 6.5877929 20 0 0 0 22.25123
-1.6344213 31.897181 6.5030918 19 0 0 0 23.82296
-11.531335 32.025337 6.9371676 47 0 0 0 19.13059
-4.0157785 32.001087 6.5687752 20 0 0 0 22.646
-3.2245128 32.045338 6.5589156 19 0 0 0 23.041849
-2.4301796 32.025112 6.5399351 18 0 0 0 23.42466
-11.784459 35.454079 6.6934395 26 0 0 0 19.528561
-10.725964 35.122021 6.5790834 25 0 0 0 19.917
-13.808698 35.609585 6.8429399 11 0 0 0 18.74161
-12.889081 35.820816 6.8202777 13 0 0 0 19.13059
-20.905224 -41.557594 7.2451172 12 0 0 0 82.087288
8.9059553 -26.966055 7.2251101 7 0 0 0 69.560806
-11.337591 -25.603497 7.1290269 25 0 0 0 81.29213
-12.513208 -22.111488 7.1019282 31 0 0 0 82.860359
-11.856509 -22.204536 7.0366998 12 0 0 0 82.475632
-13.582746 -21.471722 7.1017523 16 0 0 0 83.644569
19.013714 -19.977245 7.0151472 31 0 0 0 62.51326
18.373611 -18.380186 7.2582264 42 0 0 0 62.126686
-18.222969 -16.541916 7.4829249 17 0 0 0 87.948067
17.257751 -16.432194 7.2441578 28 0 0 0 61.733059
-14.408524 -15.915617 7.0636435 21 0 0 0 86.381203
16.741865 -15.18099 7.4313121 47 0 0 0 61.345322
-17.906862 -13.992752 7.4735708 26 0 0 0 89.124191
15.888232 -13.702918 7.4161057 26 0 0 0 60.952301
-18.247187 -12.868672 7.3430395 11 0 0 0 89.911362
15.500452 -12.719475 7.0888062 70 0 0 0 60.557968
15.964555 -12.456869 7.1583691 57 0 0 0 60.168362
17.518372 -11.701332 7.4456997 75 0 0 0 59.00106
-19.132648 -11.484694 7.3377676 13 0 0 0 91.091507
18.054304 -11.437462 7.0285673 45 0 0 0 58.600151
18.59173 -11.147372 7.1282544 40 0 0 0 58.2131
19.158752 -10.856399 7.2403378 66 0 0 0 57.823368
-19.340618 -9.751338 7.1225529 25 0 0 0 92.243759
20.987272 -9.9229908 7.0551229 69 0 0 0 56.645821
21.67054 -9.6016521 7.2020631 69 0 0 0 56.25592
-20.416153 -9.0658779 7.3440495 27 0 0 0 93.030685
22.346029 -9.2507877 7.3475018 58 0 0 0 55.870701
-18.581926 -8.8117704 7.268445 18 0 0 0 92.632988
23.910057 -8.5532331 7.0866194 58 0 0 0 55.0966
24.571783 -8.1145325 7.2200756 62 0 0 0 54.703259
-17.641493 -7.841619 7.2982569 43 0 0 0 93.030685
25.389376 -7.6978106 7.4007897 52 0 0 0 54.305378
-18.54604 -7.175684 7.0287218 18 0 0 0 93.819481
-17.420242 -7.2367067 7.1316915 56 0 0 0 93.426514
27.243361 -6.8187485 7.1318626 44 0 0 0 53.531086
28.177029 -6.3208342 7.3313813 52 0 0 0 53.136398
30.271734 -5.2446513 7.0404058 35 0 0 0 52.355606
-25.649712 1.8996576 7.1466403 8 0 0 0 0.78571999
-26.544222 2.6196837 7.410944 10 0 0 0 1.1734099
-25.041199 3.0897312 7.0096116 22 0 0 0 1.56924
17.963469 11.42624 7.4914484 17 0 0 0 40.634701
18.075329 11.487823 7.010572 31 0 0 0 40.634701
-30.314178 12.526292 7.4926934 10 0 0 0 5.8554101
16.127687 13.297772 7.3538394 29 0 0 0 38.684139
16.600643 13.676274 7.0380087 8 0 0 0 38.684139
23.055679 13.85966 7.467618 15 0 0 0 41.03064
12.270238 15.038819 7.3047404 57 0 0 0 35.547153
-31.024693 15.58277 7.0823412 5 0 0 0 7.0341802
12.030244 15.507274 7.3857126 76 0 0 0 35.147282
11.675262 16.254677 7.2837572 67 0 0 0 34.564529
11.304499 17.025826 7.1873627 70 0 0 0 33.983662
11.039973 17.547499 7.2901549 69 0 0 0 33.586769
10.781341 18.107607 7.409812 82 0 0 0 33.191921
10.508132 18.661716 7.0043607 75 0 0 0 32.80452
10.228317 19.25498 7.1298394 96 0 0 0 32.421131
9.937602 19.869339 7.2640176 79 0 0 0 32.021309
9.6387053 20.514343 7.410295 81 0 0 0 31.632311
8.9680138 21.816755 7.1267366 50 0 0 0 30.856039
8.5271759 22.284555 7.2085991 156 0 0 0 30.46323
8.0675859 22.741152 7.2897463 163 0 0 0 30.073719
7.5907321 23.188377 7.3709292 140 0 0 0 29.682199
7.1076245 23.661503 7.4633722 138 0 0 0 29.293989
6.1101413 24.65917 7.0495095 144 0 0 0 28.51137
5.593998 25.209509 7.1651855 108 0 0 0 28.121469
5.0484705 25.718889 7.2723875 127 0 0 0 27.724319
4.4875965 26.252556 7.3897424 105 0 0 0 27.33836
2.6966105 28.082434 7.1265802 63 0 0 0 26.16857
2.0387769 28.582788 7.2386751 57 0 0 0 25.77984
1.3559144 29.024908 7.3400831 56 0 0 0 25.38463
0.65402198 29.506735 7.4556794 47 0 0 0 24.998831
-3.9533072 31.455856 7.232707 60 0 0 0 22.646
-3.1646087 31.38834 7.1966009 63 0 0 0 23.041849
-2.3842416 31.337156 7.1687179 66 0 0 0 23.42466
-1.596849 31.033888 7.0879121 52 0 0 0 23.82296
-8.001483 31.640745 7.4485884 11 0 0 0 20.69194
-7.1873093 31.670708 7.4112654 33 0 0 0 21.08614
-6.3635459 31.614847 7.3588858 46 0 0 0 21.478479
-5.5470219 31.538746 7.306756 54 0 0 0 21.860531
-4.7490273 31.516043 7.2717161 54 0 0 0 22.25123
-16.359821 32.355309 7.3895836 51 0 0 0 17.175249
-15.358189 32.317051 7.292634 35 0 0 0 17.56802
-14.346526 32.200123 7.184751 34 0 0 0 17.966089
-13.388906 32.147495 7.0975733 48 0 0 0 18.35635
-12.446795 32.078499 7.0127864 45 0 0 0 18.74161
-28.675194 47.720898 7.2163949 19 0 0 0 16.00462
-11.405499 -25.757053 7.8713026 16 0 0 0 81.29213
21.585114 -25.026663 7.5886421 11 0 0 0 63.30468
-13.352422 -22.308933 7.9061027 22 0 0 0 83.248749
-12.41447 -21.945971 7.6683226 15 0 0 0 82.860359
-11.687363 -21.896986 7.5493646 9 0 0 0 82.475632
18.387955 -18.387226 7.9022274 42 0 0 0 62.126686
-16.445475 -16.464663 7.6534147 18 0 0 0 87.175995
17.28619 -16.46418 7.8479419 15 0 0 0 61.733059
-15.194935 -15.989362 7.7970967 13 0 0 0 86.779213
16.770477 -15.195488 7.996593 41 0 0 0 61.345322
15.790031 -13.617706 7.8815727 23 0 0 0 60.952301
-17.504408 -13.008954 7.7079878 11 0 0 0 89.512123
15.512277 -12.728507 7.5860023 63 0 0 0 60.557968
-16.76532 -12.459806 7.8957667 8 0 0 0 89.512123
15.974643 -12.464071 7.6595039 49 0 0 0 60.168362
17.553253 -11.723901 7.9778848 42 0 0 0 59.00106
18.051035 -11.425873 7.5498161 51 0 0 0 58.600151
18.617874 -11.153479 7.6691446 59 0 0 0 58.2131
-18.570297 -10.544737 7.5470409 14 0 0 0 91.470398
19.188637 -10.863734 7.7910867 46 0 0 0 57.823368
19.886938 -10.622256 7.9650545 5 0 0 0 57.430233
-19.311264 -10.347074 7.741436 35 0 0 0 91.850899
-19.430136 -9.8048601 7.690248 28 0 0 0 92.243759
21.006056 -9.9355698 7.6372428 42 0 0 0 56.645821
21.676907 -9.6082001 7.7917185 45 0 0 0 56.25592
22.344122 -9.2537584 7.9461393 50 0 0 0 55.870701
-18.607882 -8.8239851 7.7831721 23 0 0 0 92.632988
23.93078 -8.555069 7.7177405 45 0 0 0 55.0966
24.606863 -8.1204605 7.8676291 43 0 0 0 54.703259
-19.682116 -7.0645852 7.9016194 13 0 0 0 94.214951
-18.994225 -7.3489127 7.6967664 13 0 0 0 93.819481
27.244698 -6.8181138 7.8304205 47 0 0 0 53.531086
29.237297 -5.8078699 7.5655699 45 0 0 0 52.741199
30.301285 -5.248703 7.8028417 26 0 0 0 52.355606
-25.502457 1.885628 7.7315564 8 0 0 0 0.78571999
-25.893959 2.552012 7.8662829 7 0 0 0 1.1734099
-25.059504 3.0889409 7.6327319 16 0 0 0 1.56924
11.545936 16.495781 7.575418 63 0 0 0 34.37233
11.31058 17.034821 7.6922154 75 0 0 0 33.983662
11.047133 17.558645 7.8030882 62 0 0 0 33.586769
10.785916 18.115013 7.9294114 66 0 0 0 33.191921
10.508324 18.676928 7.5341229 59 0 0 0 32.80452
10.238266 19.289373 7.6766233 57 0 0 0 32.421131
9.9329309 19.876837 7.8102517 68 0 0 0 32.021309
9.6093216 20.470125 7.9475479 64 0 0 0 31.632311
9.3160038 21.160759 7.5581594 82 0 0 0 31.25071
8.9851398 21.846497 7.7212248 56 0 0 0 30.856039
8.6556158 22.604767 7.9109387 73 0 0 0 30.46323
6.5861726 24.053654 7.5336804 36 0 0 0 28.90177
6.0704741 24.517029 7.6296482 36 0 0 0 28.51137
3.9143407 26.846409 7.5273747 96 0 0 0 26.95541
3.3092849 27.384613 7.6530781 24 0 0 0 26.554359
2.70048 28.114311 7.835814 37 0 0 0 26.16857
2.0389924 28.57551 7.9480228 52 0 0 0 25.77984
-0.070667952 30.044067 7.5896254 54 0 0 0 24.601959
-0.82053345 30.532282 7.7158098 63 0 0 0 24.209209
-3.1632333 31.384371 7.9693971 51 0 0 0 23.041849
-2.382683 31.328993 7.937562 52 0 0 0 23.42466
-1.5990262 31.097395 7.8662033 51 0 0 0 23.82296
-11.526222 31.997015 7.7626934 43 0 0 0 19.13059
-10.632508 31.95163 7.686038 33 0 0 0 19.528561
-9.6900196 31.690571 7.5639005 11 0 0 0 19.917
-8.835639 31.651894 7.5005617 23 0 0 0 20.30825
-17.413479 32.440582 7.504271 51 0 0 0 16.78524
-13.398879 32.159 7.9519954 31 0 0 0 18.35635
-12.438603 32.043999 7.845799 49 0 0 0 18.74161
-18.501221 32.529167 7.6273479 33 0 0 0 16.40246
-31.02401 37.712475 7.54387 24 0 0 0 13.66481
-30.130432 40.527699 7.7993636 15 0 0 0 14.44825
-29.569977 41.883221 7.917079 30 0 0 0 14.842
-26.479044 41.700081 7.6273069 24 0 0 0 15.61769
-25.660023 42.690525 7.6900253 22 0 0 0 16.00462
20.430618 -22.545086 8.4919119 21 0 0 0 62.906872
-12.917743 -21.57415 8.2695694 7 0 0 0 83.248749
-13.536881 -21.399221 8.3269358 12 0 0 0 83.644569
17.257286 -16.424429 8.4165306 30 0 0 0 61.733059
-16.501741 -15.740605 8.0597448 12 0 0 0 87.556732
-14.933213 -15.713956 8.1944618 9 0 0 0 86.779213
-15.165185 -15.193666 8.1148558 17 0 0 0 87.175995
-16.396461 -14.171267 8.1913786 6 0 0 0 88.332359
-17.896687 -13.99476 8.0283775 23 0 0 0 89.124191
18.056812 -11.428826 8.076086 54 0 0 0 58.600151
18.603771 -11.14434 8.1950111 39 0 0 0 58.2131
