# .PCD v0.7 - Point Cloud Data file format
VERSION 0.7
FIELDS x y z intensity normal_x normal_y normal_z curvature
SIZE 4 4 4 4 4 4 4 4
TYPE F F F F F F F F
COUNT 1 1 1 1 1 1 1 1
WIDTH 952
HEIGHT 1
VIEWPOINT 0 0 0 1 0 0 0
POINTS 952
DATA ascii
5.7661982 9.2580843 1.3255631 546.5 0 0 0 33.524651
6.1684241 9.3746376 1.2237931 592 0 0 0 33.9128
11.466119 9.489274 1.2378081 401 0 0 0 38.611553
11.587766 9.1183853 1.2258481 328 0 0 0 38.996513
-0.3500517 9.929636 1.2212169 506.5 0 0 0 24.156361
6.6020274 9.5095778 1.2606382 583 0 0 0 34.29884
7.0524359 9.6381779 1.1530319 513 0 0 0 34.692242
7.5420198 9.7868347 1.1909671 468 0 0 0 35.08556
8.053772 9.9302044 1.2302992 422 0 0 0 35.471649
11.34981 9.8739948 1.251563 330 0 0 0 38.214699
8.6075459 10.089642 1.2738669 402 0 0 0 35.8638
9.209938 10.267551 1.3224669 366.5 0 0 0 36.260399
9.8608894 10.459011 1.2008712 314 0 0 0 36.657742
11.234051 10.270076 1.2667135 287 0 0 0 37.824047
10.555358 10.652712 1.2503113 230 0 0 0 37.03978
11.124416 10.684262 1.2839873 278 0 0 0 37.438087
-30.727608 12.660711 1.2105734 86 0 0 0 5.84061
-1.7067717 12.947118 1.119478 300 0 0 0 22.60358
42.515503 14.09784 1.4005067 24 0 0 0 44.462231
41.075775 14.751906 1.3670748 21 0 0 0 44.070553
-6.2838817 15.42028 1.2201492 533.75 0 0 0 18.509426
-5.6957259 15.594343 1.2153891 517.5 0 0 0 19.098379
-5.3090739 15.721656 1.2139387 545.5 0 0 0 19.482519
-4.7224665 15.890119 1.2116542 534.75 0 0 0 20.070875
-1.6415992 15.543256 1.3325768 297 0 0 0 22.9884
-1.2658828 15.665879 1.3390375 205 0 0 0 23.38237
-4.1380982 16.067276 1.2113743 569 0 0 0 20.661659
-3.7455413 16.177052 1.2114515 566 0 0 0 21.042021
-3.3552613 16.298443 1.419978 543 0 0 0 21.436899
-2.9619398 16.426273 1.2158079 419.5 0 0 0 21.819189
-2.5637977 16.527203 1.4253042 159 0 0 0 22.20994
-0.94582385 17.00268 1.447149 443 0 0 0 23.77136
-10.099454 27.887714 1.0525227 91 0 0 0 19.098379
-14.348916 30.073658 1.1854864 33 0 0 0 17.53521
-13.692042 30.60774 1.1909702 53 0 0 0 17.92453
-18.209908 31.91791 1.3094878 42 0 0 0 16.362459
-22.336332 33.230717 1.4294547 34 0 0 0 15.20067
-11.601445 34.744671 1.2899191 27 0 0 0 19.482519
-15.187634 36.361141 1.3916893 16 0 0 0 18.3123
-14.013784 36.004276 1.3630217 33 0 0 0 18.706551
-19.030386 37.549683 1.4911132 14 0 0 0 17.148689
-8.3836536 -27.566795 1.6533333 67 0 0 0 79.235634
-48.537392 -25.939173 1.8057135 14 0 0 0 91.745262
-40.973015 -23.205917 1.5501357 29 0 0 0 91.361084
-19.310347 -21.290583 1.6605955 78 0 0 0 86.276352
-17.408987 -16.568892 1.9927452 10 0 0 0 87.453453
-17.566998 -15.916668 1.9662397 110 0 0 0 87.836327
6.3116469 -14.314981 1.6682987 13 0 0 0 67.897079
7.066186 -14.106928 1.6813821 297 0 0 0 67.120941
-0.024822103 -13.978628 1.6731247 630.5 0 0 0 74.551277
0.98468775 -13.688095 1.8106154 148 0 0 0 73.367195
4.8537331 -13.652918 1.7269166 218 0 0 0 69.070038
7.4322152 -13.97038 1.6858599 494 0 0 0 66.725166
1.9548588 -13.357514 1.7805172 676 0 0 0 72.19873
3.8577347 -12.815024 1.7630366 395 0 0 0 69.854408
9.3771133 -12.694751 1.6795713 224 0 0 0 64.377502
9.0440617 -11.636709 1.7517641 103 0 0 0 63.992359
9.2830095 -11.07634 1.71858 414.5 0 0 0 63.405716
-32.304565 -10.669787 1.9608979 78 0 0 0 94.481773
9.8433704 -10.903121 1.7457716 385.5 0 0 0 62.80891
10.223543 -10.779001 1.765146 419.5 0 0 0 62.419247
10.620725 -10.657969 1.9721838 357 0 0 0 62.035919
11.028687 -10.53566 1.9985424 286 0 0 0 61.632526
12.319971 -10.144684 1.6958151 163 0 0 0 60.468594
15.315161 -9.2035189 1.892827 141 0 0 0 58.12212
15.915913 -9.0385551 1.9378647 102 0 0 0 57.731621
16.495312 -8.8374519 1.5249525 64 0 0 0 57.33411
31.547394 -8.7353029 1.8216195 10 0 0 0 53.82782
9.5269947 -8.2527409 1.8136239 57.5 0 0 0 60.862621
11.346481 -8.4471521 1.5069984 108 0 0 0 59.690166
11.659652 -8.2421093 1.5206621 169 0 0 0 59.298111
13.036629 -8.2821903 1.6414733 102 0 0 0 58.517471
15.188248 -8.1398268 1.8265234 72 0 0 0 57.33411
11.763059 -7.8859501 1.8572896 87 0 0 0 58.910633
17.784492 -7.8991923 1.5838099 52 0 0 0 56.162567
64.25235 -7.904325 1.9815397 26 0 0 0 51.4814
13.894337 -7.0149417 1.6534181 41 0 0 0 56.945648
14.313585 -6.7893844 1.6821213 102 0 0 0 56.560791
16.519016 -6.8580074 1.8940068 59 0 0 0 55.777439
18.187025 -6.5191517 1.5724518 23 0 0 0 54.999062
14.420752 -6.4104891 1.6757425 217 0 0 0 56.162567
16.768106 -6.4823399 1.9034449 27 0 0 0 55.390766
32.902496 -0.79567277 1.8340044 10 0 0 0 49.92474
64.299889 3.1946099 1.9778337 20 0 0 0 48.752529
63.906384 4.7520113 1.9702218 25 0 0 0 48.3633
13.01156 6.201262 1.8996806 372 0 0 0 42.514969
12.442162 6.7011824 1.5157621 369 0 0 0 41.72908
12.820201 6.5031986 1.8952845 201 0 0 0 42.120579
13.755818 6.5519524 1.6297238 189 0 0 0 42.514969
14.981201 6.6848106 1.7509732 169 0 0 0 42.907841
10.786582 7.2711735 1.7223469 431 0 0 0 40.163021
12.227151 7.2486515 1.6421995 355.33334 0 0 0 41.072784
14.447158 7.3216438 1.7305031 197 0 0 0 42.120579
16.843636 7.019701 1.9424374 141 0 0 0 43.296009
10.71363 7.61273 1.7404008 332 0 0 0 39.776833
12.033502 7.6819406 1.8854408 399 0 0 0 40.560753
1.277488 8.436594 1.7467849 942.40002 0 0 0 27.131811
1.7696395 8.3244209 1.7840552 905.55554 0 0 0 28.064409
2.3100543 8.3040333 1.6999964 871.75 0 0 0 29.034954
2.783664 8.3730793 1.7389563 827.25 0 0 0 29.813745
3.1738844 8.4803257 1.7829726 809 0 0 0 30.40041
0.33760017 8.9769516 1.7717845 731 0 0 0 25.32597
0.75126296 8.6821823 1.7198625 862.66669 0 0 0 26.114784
3.4498324 8.5629177 1.8167727 754.5 0 0 0 30.78928
3.7377365 8.6512585 1.7367703 696.66669 0 0 0 31.183809
4.1926961 8.7862511 1.6720753 694.5 0 0 0 31.774696
4.668973 8.9158468 1.7265906 672 0 0 0 32.351589
11.706356 8.753376 1.751615 279 0 0 0 39.388233
-0.10495273 9.4826365 1.7519194 610.66669 0 0 0 24.556459
0.12183961 9.2007523 1.814162 659 0 0 0 24.939911
5.196722 9.0782537 1.7925144 596 0 0 0 32.938713
5.7526588 9.235857 1.8621449 576.5 0 0 0 33.524651
6.1610451 9.3651915 1.6382077 577.5 0 0 0 33.9128
11.606279 9.132864 1.770137 340.5 0 0 0 38.996513
-0.35053295 9.960681 1.716881 498.5 0 0 0 24.156361
6.5997343 9.5079298 1.6895417 445 0 0 0 34.29884
7.0287519 9.6071796 1.7359964 494 0 0 0 34.692242
7.5228348 9.7632122 1.7953949 437 0 0 0 35.08556
8.0445919 9.9206448 1.6999201 386 0 0 0 35.471649
11.426502 9.6971235 1.7969508 329 0 0 0 38.413124
8.5955801 10.077415 1.7606713 345 0 0 0 35.8638
9.1929159 10.250436 1.8279338 292 0 0 0 36.260399
9.8355532 10.432271 1.7238727 211.5 0 0 0 36.657742
11.261699 10.293948 1.6414602 300 0 0 0 37.824047
10.551911 10.647978 1.6151239 269 0 0 0 37.03978
11.128107 10.686503 1.6602615 266 0 0 0 37.438087
-6.2785745 15.406042 1.8288352 501.5 0 0 0 18.509426
-5.691792 15.582473 1.8226064 511 0 0 0 19.098379
-5.3018289 15.698891 1.8198024 566 0 0 0 19.482519
-4.7167463 15.869853 1.8173355 558 0 0 0 20.070875
-4.1352763 16.055244 1.8185947 525 0 0 0 20.661659
-3.742552 16.163004 1.8190646 588 0 0 0 21.042021
-3.3510344 16.281656 1.8217632 580 0 0 0 21.436899
-2.9576023 16.400631 1.8255229 505 0 0 0 21.819189
-2.5606353 16.512047 1.8294631 461 0 0 0 22.20994
-2.1621604 16.631624 1.8353702 482 0 0 0 22.60358
-1.7604785 16.753452 1.8425447 435 0 0 0 22.9884
-1.3548608 16.876472 1.8508731 439 0 0 0 23.38237
-0.94361806 16.977737 1.8579042 422 0 0 0 23.77136
-41.755123 18.433783 1.6511265 42 0 0 0 6.2309799
-11.029584 24.610277 1.6234558 37 0 0 0 17.92453
-12.405132 25.970613 1.7318466 35 0 0 0 17.53521
-13.977509 27.523357 1.856688 38 0 0 0 17.148689
-15.455894 28.682499 1.9595151 58 0 0 0 16.7514
-27.093748 32.847187 1.5251759 25 0 0 0 13.62784
-32.541779 37.561638 1.776628 25 0 0 0 13.2395
-20.281847 37.700584 1.5179877 17 0 0 0 16.7514
-24.396103 38.314377 1.6151317 7 0 0 0 15.59626
-23.00131 38.154045 1.5827094 17 0 0 0 15.98198
-33.068295 44.397873 1.9687154 15 0 0 0 14.41698
-14.424187 -40.261261 2.4398358 41 0 0 0 80.021294
-4.8770199 -39.363953 2.2548299 25 0 0 0 76.507057
-15.589328 -35.12804 2.1989589 20 0 0 0 81.193298
-6.1077089 -35.072567 2.0294976 32 0 0 0 77.28035
-17.503956 -30.868889 2.0364125 11 0 0 0 82.754738
-8.370883 -27.544531 2.3681893 54 0 0 0 79.235634
-19.373011 -21.36797 2.3837912 51 0 0 0 86.276352
-29.357832 -19.610104 2.0346797 61 0 0 0 90.1903
8.7483597 -15.496992 2.3287649 6 0 0 0 66.330383
6.3075762 -14.297574 2.4374421 4 0 0 0 67.897079
6.705924 -14.24295 2.4548452 380 0 0 0 67.505714
7.0559926 -14.079335 2.4554 468 0 0 0 67.120941
-0.023052769 -13.95829 2.1872609 406 0 0 0 74.551277
4.8619165 -13.670576 2.2666659 340 0 0 0 69.070038
7.4369202 -13.972458 2.2711005 482.5 0 0 0 66.725166
7.8039718 -13.832041 2.4752145 342 0 0 0 66.330383
8.5998888 -13.632443 2.1119769 10 0 0 0 65.554527
1.9557118 -13.359613 2.2816191 409.5 0 0 0 72.19873
3.8507047 -12.7903 2.2554326 454 0 0 0 69.854408
9.4260387 -12.755552 2.2745728 237.5 0 0 0 64.377502
9.1207523 -11.73238 2.3170419 164 0 0 0 63.992359
9.2829418 -11.074419 2.2540638 447.5 0 0 0 63.405712
65.249588 -11.304676 2.0251651 20 0 0 0 52.266781
9.8529549 -10.911541 2.2922621 409 0 0 0 62.80891
10.247441 -10.801997 2.320931 358 0 0 0 62.419247
10.626353 -10.66349 2.3461292 343 0 0 0 62.035919
11.035364 -10.541928 2.3778114 290 0 0 0 61.632526
11.503277 -10.459622 2.036304 8 0 0 0 61.245033
12.331738 -10.150686 2.2885125 185 0 0 0 60.468594
12.756246 -9.9837379 2.1193738 115 0 0 0 60.07584
13.239199 -9.8458557 2.1577787 185 0 0 0 59.690166
13.72376 -9.6907148 2.1963084 126 0 0 0 59.298111
64.720711 -9.5817795 2.0015197 20 0 0 0 51.872261
14.791096 -9.3883982 2.2882862 107 0 0 0 58.517471
15.358638 -9.2259979 2.3391805 162 0 0 0 58.12212
15.90364 -9.0280609 2.386647 153 0 0 0 57.731621
9.737833 -8.8615551 2.2178352 37.5 0 0 0 61.245033
28.499945 -8.6481524 2.4032986 13 0 0 0 54.217838
9.6542692 -8.3623285 2.3125854 65 0 0 0 60.862621
14.804105 -7.6973448 2.1810207 84.5 0 0 0 57.139877
14.460012 -6.8556118 2.0931261 63 0 0 0 56.560791
14.779344 -6.5663042 2.1148291 125 0 0 0 56.162567
14.476245 -6.0103621 2.0509048 33 0 0 0 55.777439
-34.838692 -1.7098411 2.0048923 104 0 0 0 98.760864
-34.994453 -0.85728598 2.0113378 114 0 0 0 99.154434
-35.23613 0.0019120959 2.0238118 99 0 0 0 99.533318
65.241959 0.031557452 2.0014112 18 0 0 0 49.535072
-35.427914 0.87163752 2.0352297 87 0 0 0 0
43.198009 1.0813775 2.3977242 6 0 0 0 49.148418
-35.853321 1.7372718 2.1697376 100 0 0 0 0.38600999
12.743804 6.4638152 2.2391238 213 0 0 0 42.120579
13.090412 6.2378044 2.2710364 345 0 0 0 42.514969
12.583245 6.7778234 2.2403078 210 0 0 0 41.72908
15.301358 6.8292809 2.200979 140 0 0 0 42.907841
10.826991 7.2973261 2.0529497 338 0 0 0 40.163021
11.101102 7.0895319 2.0700085 423 0 0 0 40.560753
12.151918 7.341269 2.2271104 408 0 0 0 40.943722
10.732006 7.624764 2.070291 361 0 0 0 39.776833
11.210088 7.5528078 2.4596977 389 0 0 0 40.163021
13.32831 7.606637 2.2122111 139 0 0 0 41.330914
1.2384154 8.4583464 2.2549319 765.40002 0 0 0 27.054291
1.76994 8.3239975 2.3083456 746 0 0 0 28.064409
2.307332 8.2953777 2.2281997 757.5 0 0 0 29.034956
2.7540889 8.3548965 2.2314792 735.40002 0 0 0 29.773645
3.1686001 8.4678116 2.2250555 672 0 0 0 30.40041
15.083916 8.1180611 2.2512784 113 0 0 0 41.72908
0.33742321 8.9834309 2.2140579 681 0 0 0 25.32597
0.7515676 8.6872292 2.2567062 705.11108 0 0 0 26.114784
3.4429884 8.5475264 2.2669458 651.5 0 0 0 30.78928
3.7299054 8.6339378 2.3127408 694.5 0 0 0 31.183809
4.1542559 8.7612581 2.215239 637.20001 0 0 0 31.735889
4.6692057 8.9154396 2.2235122 560.5 0 0 0 32.351589
9.7924147 8.9613485 2.0905335 433 0 0 0 37.824047
10.125192 8.8159285 2.1132026 369 0 0 0 38.214699
0.12127681 9.1987133 2.2648795 627.5 0 0 0 24.939911
5.1892214 9.0646477 2.3056848 552.75 0 0 0 32.938717
5.7396698 9.213376 2.2605577 615 0 0 0 33.524651
6.1520367 9.3491201 2.1907606 469.5 0 0 0 33.9128
6.5754433 9.4708366 2.2550642 436.5 0 0 0 34.29884
9.5795994 9.2110996 2.0936391 429 0 0 0 37.438087
11.654849 9.1708126 2.3283708 99 0 0 0 38.996513
-0.1870039 9.6770678 2.2591553 508 0 0 0 24.423094
7.0324173 9.6095953 2.3272505 423 0 0 0 34.692242
7.5022507 9.7348957 2.2483521 409 0 0 0 35.08556
8.0171947 9.8853092 2.1681862 352 0 0 0 35.471649
9.5049934 9.6005869 2.1283507 380 0 0 0 37.03978
11.496604 9.5142899 2.3434272 386 0 0 0 38.611553
-0.35251573 10.028238 2.3446469 390 0 0 0 24.156361
9.1513491 10.202589 2.3300176 89 0 0 0 36.260399
11.247424 10.283355 2.0155759 209 0 0 0 37.824047
9.9474459 10.549867 2.2820482 7 0 0 0 36.657742
11.150324 10.710127 2.0450528 326 0 0 0 37.438087
11.006751 11.105977 2.0686495 18 0 0 0 37.03978
-6.2780657 15.398972 2.236129 431.5 0 0 0 18.509426
-5.6932392 15.58022 2.2294867 449 0 0 0 19.098379
-5.2986612 15.682633 2.2243013 426 0 0 0 19.482519
-4.7175703 15.864958 2.223196 493.5 0 0 0 20.070875
-4.1315789 16.032104 2.2225871 508 0 0 0 20.661659
-3.7424541 16.153307 2.2252331 477 0 0 0 21.042021
-3.3509545 16.270916 2.2286441 480 0 0 0 21.436899
-2.9596286 16.400536 2.2349308 431 0 0 0 21.819189
-2.5613241 16.503067 2.2388239 453 0 0 0 22.20994
-2.1620677 16.614634 2.2452493 435 0 0 0 22.60358
-1.7617562 16.746136 2.2555888 393 0 0 0 22.9884
-1.3563716 16.869953 2.2661684 412 0 0 0 23.38237
-0.9456203 16.977995 2.2759461 392 0 0 0 23.77136
-11.017544 24.574423 2.2907059 45 0 0 0 17.92453
-12.395769 25.941925 2.4448326 33 0 0 0 17.53521
-16.513597 28.92853 2.004174 54 0 0 0 16.362459
-29.138882 29.000021 2.4839604 53 0 0 0 12.07274
-28.03371 29.30028 2.4492872 47 0 0 0 12.46408
-18.72381 29.366159 2.0971785 55 0 0 0 15.59626
-17.603178 29.157539 2.0500963 54 0 0 0 15.98198
-26.96505 29.601002 2.4175577 40 0 0 0 12.85721
-25.942364 29.917807 2.389802 37 0 0 0 13.2395
-21.216976 29.940828 2.2111926 41 0 0 0 14.80658
-19.942656 29.653151 2.1525974 39 0 0 0 15.20067
-24.91857 30.200161 2.3618281 55 0 0 0 13.62784
-22.500961 30.16173 2.2682126 34 0 0 0 14.41698
-23.950701 30.519751 2.3390343 40 0 0 0 14.03036
-23.719856 -39.548698 2.6372554 17 0 0 0 83.146515
-23.489779 -37.070522 2.5122797 17 0 0 0 83.529083
-6.1010704 -35.076214 2.915633 20 0 0 0 77.28035
-40.937073 -23.186062 2.7000973 18 0 0 0 91.361084
-14.807817 -23.368538 2.9560399 24 0 0 0 83.529083
-17.010008 -21.786457 2.9554803 11 0 0 0 85.092239
-29.400949 -19.646814 2.9178183 32 0 0 0 90.1903
-17.491976 -16.648449 2.5881979 123 0 0 0 87.453453
-17.534603 -15.88776 2.5369656 131 0 0 0 87.836327
6.6910877 -14.210947 2.8382123 5 0 0 0 67.505714
-0.022469277 -13.985306 2.7090285 212 0 0 0 74.551277
4.8564672 -13.653969 2.8006406 251 0 0 0 69.070038
8.5724783 -13.588573 2.7020011 75.5 0 0 0 65.554527
1.9533107 -13.339904 2.7764831 210 0 0 0 72.19873
9.3823891 -13.368739 2.947789 224 0 0 0 64.767845
3.856226 -12.806851 2.7526376 443 0 0 0 69.854408
9.4763575 -12.822845 2.8784246 210 0 0 0 64.377502
5.7116914 -12.143476 2.7601321 611 0 0 0 67.505714
6.0316792 -12.046859 2.7706399 642 0 0 0 67.120941
6.349432 -11.940067 2.7807531 326 0 0 0 66.725166
6.6883168 -11.864941 2.8002253 101 0 0 0 66.330383
7.1745186 -11.697413 2.8209038 92.5 0 0 0 65.7491
9.1340876 -11.749192 2.6889336 160 0 0 0 63.992359
8.7591028 -11.269136 2.9317701 21 0 0 0 63.992359
9.3054867 -11.100581 2.7966056 358.75 0 0 0 63.405712
-32.246498 -10.657025 2.8027518 106 0 0 0 94.481773
9.8652372 -10.924919 2.6597207 323 0 0 0 62.80891
10.243219 -10.79744 2.6887193 437 0 0 0 62.419247
10.648018 -10.685022 2.7245722 281 0 0 0 62.035919
11.041248 -10.547442 2.7574105 256 0 0 0 61.632526
12.352125 -10.167357 2.8867383 200 0 0 0 60.468594
12.826476 -10.038462 2.9380827 72 0 0 0 60.07584
12.771075 -9.9952908 2.5236487 178 0 0 0 60.07584
13.249199 -9.8532829 2.772922 115 0 0 0 59.690166
13.75766 -9.7145929 2.6189978 183 0 0 0 59.298111
14.242179 -9.5400763 2.6648617 138 0 0 0 58.910633
14.784776 -9.3844805 2.7213235 157 0 0 0 58.517471
15.355295 -9.2240963 2.7826316 170 0 0 0 58.12212
15.924094 -9.039753 2.8434963 159 0 0 0 57.731621
16.533895 -8.8547745 2.9114745 45 0 0 0 57.33411
9.5873451 -8.3016825 2.9198256 184 0 0 0 60.862621
14.945631 -7.5404572 2.6028152 10 0 0 0 56.945648
14.996688 -7.1093268 2.9923513 18 0 0 0 56.560791
14.713875 -6.754344 2.5187602 22 0 0 0 56.361679
15.054234 -6.2497115 2.9396482 21 0 0 0 55.777439
-34.690617 -3.4213283 2.8723717 72 0 0 0 97.982841
-34.858116 -2.5758293 2.8795333 81 0 0 0 98.36808
34.06319 -2.498713 2.7522979 17 0 0 0 50.70356
-79.164467 -1.9388293 2.5671401 7 0 0 0 99.154434
-35.063679 -1.7270323 2.891444 79 0 0 0 98.760864
-35.296326 -0.8708483 2.9072199 78 0 0 0 99.154434
34.103596 -0.81966192 2.7501254 19 0 0 0 49.92474
-35.563778 -0.0042707212 2.9275327 76 0 0 0 99.533318
-35.734344 0.87294227 2.9422669 86 0 0 0 0
-81.4188 2.0036623 2.637825 12 0 0 0 0
12.732856 6.6556959 2.6085992 299 0 0 0 41.924828
14.839065 6.6229944 2.5391891 258 0 0 0 42.907841
12.162455 7.3462176 2.7573817 363 0 0 0 40.943722
12.650666 7.2206492 2.6449795 236 0 0 0 41.330914
12.07238 7.7042217 2.7795391 333.5 0 0 0 40.560753
1.2579713 8.4444075 2.7376962 693.5 0 0 0 27.09305
1.7671629 8.3107872 2.7252293 665 0 0 0 28.064409
2.3031299 8.278594 2.7555327 620.25 0 0 0 29.034954
2.7982996 8.3475132 2.756515 623.59998 0 0 0 29.853842
3.1602054 8.4449911 2.6661067 637 0 0 0 30.40041
11.912751 8.2383804 2.8111813 308 0 0 0 39.969925
0.85506535 8.6313257 2.7805767 609 0 0 0 26.3099
3.4383817 8.5354099 2.7198503 568 0 0 0 30.78928
3.7246604 8.6211481 2.7748251 546 0 0 0 31.183809
4.1775141 8.7536335 2.7428696 546.25 0 0 0 31.774694
4.771584 8.9264975 2.7786229 525 0 0 0 32.481487
11.832931 8.8463297 2.6858847 19 0 0 0 39.388233
0.19532545 9.1776543 2.6769669 267 0 0 0 25.068598
5.2413769 9.0683813 2.7864773 472.33334 0 0 0 33.004528
5.7411175 9.2172966 2.6618643 452 0 0 0 33.524651
6.1394253 9.3311996 2.7363324 434.5 0 0 0 33.9128
6.5573463 9.446085 2.815259 379.5 0 0 0 34.29884
11.663535 9.1764908 2.6985531 296 0 0 0 38.996513
-0.10499993 9.6479702 2.8510108 58.5 0 0 0 24.556459
7.2538767 9.655798 2.8053327 313 0 0 0 34.888901
7.510592 9.7443419 2.5543501 391 0 0 0 35.08556
8.0071774 9.8723297 2.7932463 324 0 0 0 35.471649
11.39816 9.9144897 2.7477331 337 0 0 0 38.214699
11.51018 9.5242958 2.7170525 308 0 0 0 38.611553
-0.35243934 10.048489 2.5960882 110 0 0 0 24.156361
9.1774664 10.229538 2.8463352 164 0 0 0 36.260399
9.8511124 10.445955 2.9711211 74 0 0 0 36.657742
11.288471 10.318114 2.7819688 285 0 0 0 37.824047
-0.36435884 10.549538 2.9861295 162 0 0 0 24.156361
11.160108 10.716844 2.8148255 239 0 0 0 37.438087
11.068999 11.165587 2.8604138 8 0 0 0 37.03978
10.906931 11.557736 2.891571 6 0 0 0 36.657742
11.555629 13.512872 2.7908006 11 0 0 0 35.8638
-40.36945 14.379979 2.5977612 15 0 0 0 5.0606899
-6.2722979 15.386402 2.644609 401 0 0 0 18.509426
46.373367 15.372703 2.7215567 21 0 0 0 44.462231
-40.63063 15.604899 2.6383204 24 0 0 0 5.45647
-5.6892457 15.571359 2.6376417 415 0 0 0 19.098379
-5.3023591 15.696318 2.6354201 417 0 0 0 19.482519
-4.7132316 15.85321 2.6301899 440 0 0 0 20.070875
-4.1318126 16.036495 2.6323905 395 0 0 0 20.661659
-3.7403765 16.148001 2.634156 414 0 0 0 21.042021
-3.3491662 16.266439 2.6385388 366 0 0 0 21.436899
-2.7562385 16.43145 2.6460915 466 0 0 0 22.014565
-2.1603849 16.608618 2.6586151 425 0 0 0 22.60358
-1.7590077 16.72801 2.6691849 355 0 0 0 22.9884
-1.3530052 16.837694 2.6797345 324 0 0 0 23.38237
-0.94316316 16.94836 2.6919715 370 0 0 0 23.77136
47.026482 16.883007 2.7842805 12 0 0 0 44.070553
-41.544434 18.339705 2.7520053 47 0 0 0 6.2309799
-11.042936 24.634426 2.95103 57 0 0 0 17.92453
-13.958875 27.477186 2.6199725 39 0 0 0 17.148689
-16.46978 28.84202 2.8241642 50 0 0 0 16.362459
-15.479589 28.717428 2.7731025 64 0 0 0 16.7514
-18.701258 29.32148 2.9588058 48 0 0 0 15.59626
-17.585905 29.119585 2.8933535 56 0 0 0 15.98198
-13.190098 -34.164913 3.0064971 17 0 0 0 80.405022
-24.057631 -30.821386 3.2178144 8 0 0 0 85.092239
-8.3425455 -27.453487 3.056987 28 0 0 0 79.235634
-48.057507 -25.683208 3.1217337 10 0 0 0 91.745262
-19.1798 -25.852131 3.4360235 29 0 0 0 84.708488
-17.275003 -25.841814 3.3179493 56 0 0 0 83.917587
-14.965115 -24.951347 3.1065302 17 0 0 0 83.146515
-29.101742 -23.883694 3.1035759 17 0 0 0 88.621368
-15.62835 -19.040642 3.2431483 28 0 0 0 85.491928
-16.228758 -17.904526 3.1828315 19 0 0 0 86.276352
-16.461887 -17.289904 3.1451223 18 0 0 0 86.674141
-16.81842 -16.818539 3.1338925 93 0 0 0 87.060684
-17.419819 -15.789674 3.0986741 75 0 0 0 87.836327
-14.487082 -15.981633 3.377856 41 0 0 0 86.276352
-17.829395 -15.381629 3.1036589 96 0 0 0 88.220245
-15.176785 -15.175896 3.3616712 78 0 0 0 87.060684
-18.1658 -14.910707 3.0978756 64 0 0 0 88.621368
-0.019352771 -14.11108 3.2515707 60 0 0 0 74.551277
5.4215074 -14.129428 3.1091251 116 0 0 0 68.68763
5.8697381 -14.241072 3.1635301 68 0 0 0 68.292557
6.1906219 -14.032747 3.1498642 83 0 0 0 67.897079
0.32157531 -13.914625 3.2072532 448 0 0 0 74.157394
0.9863404 -13.656009 3.3221426 165.5 0 0 0 73.367195
1.3158283 -13.57806 3.3100863 107 0 0 0 72.981033
1.8047311 -13.453192 3.2941298 68 0 0 0 72.398094
2.2886019 -13.321964 3.2797678 77.5 0 0 0 71.81356
2.7636032 -13.168626 3.2647014 115.5 0 0 0 71.227242
3.2316129 -13.00062 3.0853212 380 0 0 0 70.644844
3.2225313 -12.963179 3.4043026 77 0 0 0 70.644844
3.6896806 -12.81216 3.2337246 303.5 0 0 0 70.05014
4.182683 -12.740597 3.2499313 162 0 0 0 69.466408
4.6529636 -12.591393 3.0904918 57.5 0 0 0 68.87883
4.4378381 -12.477745 3.3744025 205 0 0 0 69.070038
4.7480917 -12.379615 3.378087 191 0 0 0 68.68763
5.2503829 -12.311793 3.2459714 170.5 0 0 0 68.094818
5.7377415 -12.192072 3.2679429 138 0 0 0 67.505714
6.2715492 -12.142303 3.4801784 216.5 0 0 0 66.92305
8.3026428 -12.475739 3.0768001 88 0 0 0 65.165939
8.7298832 -12.124588 3.0675623 65 0 0 0 64.572678
-17.94508 -11.994137 3.3820047 39 0 0 0 90.1903
6.1876907 -11.981202 3.1032968 149 0 0 0 66.92305
6.7622395 -11.989894 3.1666441 106 0 0 0 66.330383
7.2127004 -11.755003 3.3410535 83.25 0 0 0 65.7491
7.7569957 -11.655658 3.2197745 206 0 0 0 65.165939
8.1820068 -11.363917 3.2203298 106 0 0 0 64.572678
8.7596951 -11.265614 3.2807567 129 0 0 0 63.992359
9.1264305 -11.159972 3.3138885 263 0 0 0 63.604912
9.5014992 -11.052615 3.3499064 290 0 0 0 63.206512
-19.270018 -10.921281 3.4699473 34 0 0 0 91.361084
9.8701143 -10.928146 3.2037811 282.5 0 0 0 62.80891
10.255815 -10.808573 3.2411919 300 0 0 0 62.419247
10.648445 -10.683432 3.2808681 261 0 0 0 62.035919
11.046032 -10.55191 3.1348035 65 0 0 0 61.632526
11.564181 -10.514562 3.2063358 6 0 0 0 61.245033
12.185567 -10.283318 3.270241 128 0 0 0 60.665607
12.794017 -10.013161 3.3309669 197 0 0 0 60.07584
13.287404 -9.8816004 3.3941622 182 0 0 0 59.690166
13.756868 -9.7140884 3.2437625 184 0 0 0 59.298111
14.272957 -9.5606661 3.0963492 129 0 0 0 58.910633
14.776519 -9.3793373 3.1536641 164 0 0 0 58.517471
15.341313 -9.2158289 3.2237678 119 0 0 0 58.12212
15.924809 -9.0402813 3.2975595 130 0 0 0 57.731621
16.506996 -8.8405666 3.3710015 75 0 0 0 57.33411
9.2132835 -8.3836536 3.1749098 18 0 0 0 61.245033
30.570564 -8.4608107 3.3285065 6 0 0 0 53.82782
14.851968 -7.4936924 3.4092689 23 0 0 0 56.945648
15.723387 -6.9843807 3.1005218 24 0 0 0 56.162567
30.813416 -1.5009284 3.2407284 8 0 0 0 50.310207
31.709412 -0.76330835 3.3314104 23 0 0 0 49.92474
-36.1124 1.7416805 3.0822225 57 0 0 0 0.38600999
12.178594 7.3574429 3.2862391 283 0 0 0 40.943722
12.08341 7.71277 3.3112342 302 0 0 0 40.560753
13.264388 7.5679598 3.1478891 212 0 0 0 41.330914
1.257138 8.4468451 3.1587276 505.75 0 0 0 27.093048
1.7661682 8.3113651 3.1438558 485.66666 0 0 0 28.064409
2.2983568 8.2663374 3.1740568 501.25 0 0 0 29.034954
2.7678716 8.3296537 3.2464466 475 0 0 0 29.813744
3.1570122 8.4363594 3.2194474 449 0 0 0 30.400412
11.912697 8.3116751 3.2368872 227.33333 0 0 0 39.90556
14.947492 8.0418873 3.492775 150 0 0 0 41.72908
0.85381764 8.6312313 3.207242 490 0 0 0 26.3099
3.4320285 8.5190859 3.1690788 484 0 0 0 30.78928
3.7147357 8.5977974 3.2307806 480 0 0 0 31.183809
4.2002831 8.7455997 3.2723846 431.79999 0 0 0 31.813503
4.8238363 8.9340734 3.247328 415.75 0 0 0 32.546432
11.791534 8.8155947 3.2210786 126.5 0 0 0 39.388233
0.12458438 9.3114185 3.2116454 120.5 0 0 0 24.939911
5.3441 9.0739174 3.365809 424.5 0 0 0 33.13615
5.7210612 9.1847677 3.1891918 403 0 0 0 33.524651
6.1250229 9.3088169 3.2824364 416 0 0 0 33.9128
6.5633216 9.4526739 3.2461452 289 0 0 0 34.29884
11.684914 9.1931934 3.2531042 234.5 0 0 0 38.996513
-0.10470903 9.6577682 3.3300204 64 0 0 0 24.556459
6.9895458 9.5508022 3.3367627 340 0 0 0 34.692242
7.3239865 9.664319 3.217016 309.66666 0 0 0 34.954453
8.0008945 9.864542 3.2599738 227 0 0 0 35.471649
11.415043 9.9290352 3.3109207 269.5 0 0 0 38.214699
11.530212 9.5407372 3.2749686 286 0 0 0 38.611553
8.6492558 10.138218 3.0892956 28 0 0 0 35.8638
9.1800346 10.234699 3.1850946 153 0 0 0 36.260399
11.292757 10.320759 3.1604497 272 0 0 0 37.824047
-0.36510876 10.530549 3.239939 224 0 0 0 24.156361
11.158772 10.714272 3.1961288 228 0 0 0 37.438087
-3.8456984 16.619961 3.1319475 46 0 0 0 21.042021
-3.2372386 16.78418 3.1374822 243 0 0 0 21.628044
-2.6258302 16.949009 3.1467338 321 0 0 0 22.20994
-2.2172251 17.075333 3.1583555 231 0 0 0 22.60358
-1.8037543 17.189837 3.1696048 222 0 0 0 22.9884
-1.3892113 17.338476 3.1888719 34 0 0 0 23.38237
-44.285282 24.994915 3.0776317 26 0 0 0 7.7916098
-12.419501 25.994778 3.148567 29 0 0 0 17.53521
-49.343075 26.283934 3.3811524 24 0 0 0 7.40205
-44.607666 26.640099 3.1434019 44 0 0 0 8.1752396
-13.877007 27.317406 3.3482032 23 0 0 0 17.148689
-45.293705 28.580593 3.2386539 17 0 0 0 8.5733299
-27.999382 29.255222 3.4524763 51 0 0 0 12.46408
-26.949764 29.575104 3.4103823 51 0 0 0 12.85721
-25.91708 29.879436 3.3702955 40 0 0 0 13.2395
-21.153294 29.841375 3.1135039 38 0 0 0 14.80658
-19.965342 29.677967 3.043782 60 0 0 0 15.20067
-24.92565 30.199636 3.3354723 51 0 0 0 13.62784
-23.935419 30.490944 3.3007665 38 0 0 0 14.03036
-22.558733 30.230406 3.2112377 20 0 0 0 14.41698
-46.245888 30.794275 3.3579173 19 0 0 0 8.9578495
-94.311104 -66.415855 3.7460129 15 0 0 0 89.799126
-95.81398 -57.423786 3.629184 8 0 0 0 90.977966
-97.97525 -49.312149 3.5637562 6 0 0 0 92.125961
-99.815514 -41.340725 3.509263 5 0 0 0 93.299858
-14.529885 -40.582367 3.5316007 16 0 0 0 80.021294
-6.1031866 -35.093887 3.7819548 51 0 0 0 77.28035
-17.52813 -30.927368 3.7875993 19 0 0 0 82.754738
-16.343576 -30.560131 3.6924629 36 0 0 0 82.360466
-8.3280306 -27.425331 3.758096 27 0 0 0 79.235634
-15.183448 -25.327148 3.8781495 9 0 0 0 83.146515
-14.302369 -25.240408 3.8099518 19 0 0 0 82.754738
-39.506531 -23.68429 3.7907314 17 0 0 0 90.977966
-27.653021 -23.853947 3.8980401 34 0 0 0 88.220245
-42.220398 -21.257828 3.8891487 11 0 0 0 92.125961
-16.481689 -21.117495 3.5236123 24 0 0 0 85.092239
-29.962 -20.022341 3.8478603 10 0 0 0 90.1903
-14.753407 -19.889008 3.8716593 24 0 0 0 84.708488
-15.832203 -19.290007 3.9022171 21 0 0 0 85.491928
-31.331728 -17.752529 3.8453987 8 0 0 0 91.361084
-16.663574 -17.502525 3.7809014 66 0 0 0 86.674141
-22.735493 -16.867712 3.7253988 20 0 0 0 89.39608
-29.307413 -15.66809 3.5512266 17 0 0 0 91.745262
-21.858353 -15.399886 3.5205941 58 0 0 0 89.799126
-15.946007 -15.182511 3.9926147 42 0 0 0 87.453453
-18.022686 -14.793565 3.6503046 118 0 0 0 88.621368
-17.23955 -14.872801 3.565026 149 0 0 0 88.220245
-19.53927 -14.49553 3.8077776 21 0 0 0 89.39608
-0.19094622 -14.111485 3.774426 92 0 0 0 74.74826
0.32561347 -14.043379 3.9297814 48 0 0 0 74.157394
-33.336014 -13.812634 3.8526838 15 0 0 0 93.299858
-0.019170484 -13.908534 3.5464678 147 0 0 0 74.551277
0.31945416 -13.81692 3.5239277 115 0 0 0 74.157394
0.99641448 -13.783337 3.8659465 124 0 0 0 73.367195
1.3149009 -13.563222 3.8122497 97 0 0 0 72.981033
-18.906548 -13.319495 3.621362 14 0 0 0 89.799126
-14.363489 -13.017887 3.5190749 54 0 0 0 87.836327
1.7900991 -13.342724 3.7664728 128.5 0 0 0 72.398094
2.2673132 -13.196931 3.7458301 158 0 0 0 71.81356
2.7387626 -13.048261 3.7296658 127.5 0 0 0 71.227242
3.212065 -12.920221 3.7236688 168 0 0 0 70.644844
3.5580237 -12.946301 3.7546675 57 0 0 0 70.24588
4.2044725 -12.804878 3.7683418 84 0 0 0 69.466408
4.8352103 -12.604013 3.7740381 61 0 0 0 68.68763
5.1613274 -12.526114 3.7871745 125 0 0 0 68.292557
-19.051516 -12.068721 3.5323558 32 0 0 0 90.586075
-16.743624 -12.420587 3.782995 21 0 0 0 89.39608
5.4763618 -12.41685 3.7933791 966 0 0 0 67.897079
5.7722316 -12.263924 3.7886543 75 0 0 0 67.505714
6.0587144 -12.09361 3.7807438 59 0 0 0 67.120941
-19.622839 -11.766458 3.5832958 39 0 0 0 90.977966
6.3380527 -11.91236 3.7715082 126 0 0 0 66.725166
6.7161531 -11.908045 3.6495581 516.5 0 0 0 66.330383
7.2313643 -11.781994 3.8630538 43.5 0 0 0 65.7491
7.7567639 -11.654636 3.9112813 134 0 0 0 65.165939
8.1107883 -11.560545 3.7694678 173.5 0 0 0 64.767845
7.6481104 -11.492687 3.514272 207 0 0 0 65.165939
8.4327564 -11.412655 3.7867942 48.5 0 0 0 64.377502
8.7633591 -11.269941 3.808923 156.5 0 0 0 63.992359
9.096777 -11.123589 3.8340487 165.5 0 0 0 63.604912
9.5038757 -11.055184 3.7088835 262 0 0 0 63.206512
65.260628 -11.308105 3.64798 11 0 0 0 52.266781
-32.137955 -10.621325 3.6153257 45 0 0 0 94.481773
9.8883696 -10.946111 3.7522774 284 0 0 0 62.80891
10.25178 -10.802265 3.7878757 261 0 0 0 62.419247
10.646311 -10.67929 3.8349633 144 0 0 0 62.035919
11.064432 -10.565638 3.5142312 238 0 0 0 61.632526
11.653223 -10.591382 3.6159656 14 0 0 0 61.245033
10.96007 -10.466365 3.8539498 128 0 0 0 61.632526
11.81355 -10.218699 3.970865 21 0 0 0 60.862621
12.357697 -10.168261 3.6739321 187 0 0 0 60.468594
12.80838 -10.020745 3.7327013 106 0 0 0 60.07584
13.182365 -9.8002501 3.7697842 30 0 0 0 59.690166
13.667266 -9.6475515 3.8385251 40 0 0 0 59.298111
14.267973 -9.5573969 3.5183711 169 0 0 0 58.910633
27.922724 -9.9919672 3.8448489 16 0 0 0 54.999062
64.839325 -9.6009007 3.610806 17 0 0 0 51.872261
14.119233 -9.4546404 3.8981988 26 0 0 0 58.910633
14.786787 -9.3859072 3.587327 175 0 0 0 58.517471
15.312362 -9.1986027 3.6578741 77 0 0 0 58.12212
15.84006 -8.9924688 3.7290287 32 0 0 0 57.731621
16.372755 -8.7690744 3.801574 37 0 0 0 57.33411
28.680099 -8.6982365 3.8849835 7 0 0 0 54.217838
64.378006 -7.9214048 3.5743337 21 0 0 0 51.4814
33.594536 -5.822896 3.5752213 10 0 0 0 52.266781
30.092825 -1.4615456 3.9078679 18 0 0 0 50.310207
65.424057 0.029620942 3.6096923 8 0 0 0 49.535072
30.371513 0.76787007 3.9420936 24 0 0 0 49.148418
-36.068504 1.7376732 3.9527977 29 0 0 0 0.38600999
64.2603 3.1904926 3.5529127 7 0 0 0 48.752529
64.039459 4.7596736 3.5475152 8 0 0 0 48.3633
12.190218 7.3630447 3.8177431 258 0 0 0 40.943722
12.099865 7.7222595 3.6692317 281 0 0 0 40.560753
13.220702 7.5448151 3.6991179 162.5 0 0 0 41.330914
11.935589 8.2548428 3.7104652 244.5 0 0 0 39.969925
14.938171 8.0392399 3.9073141 112 0 0 0 41.72908
3.4289246 8.5134945 3.5053654 401 0 0 0 30.78928
3.7119496 8.5933523 3.5742974 369 0 0 0 31.183809
4.1603179 8.7197018 3.6878886 356.5 0 0 0 31.774696
4.8078718 8.908083 3.7371161 351 0 0 0 32.546432
11.783134 8.8093691 3.7617812 278 0 0 0 39.388233
17.12043 8.6689119 3.9420123 88 0 0 0 42.120579
0.12550706 9.3830633 3.5812936 81 0 0 0 24.939911
5.3376117 9.0665045 3.752409 376 0 0 0 33.13615
5.7156625 9.1754284 3.7208481 334.5 0 0 0 33.524651
6.11271 9.2895679 3.8259065 285 0 0 0 33.9128
6.5378084 9.416255 3.6588964 314.5 0 0 0 34.29884
11.684128 9.1925764 3.8015771 254 0 0 0 38.996513
-0.10555061 9.6763897 3.6919754 59 0 0 0 24.556459
6.9875855 9.5480137 3.7745962 264.5 0 0 0 34.692242
7.4712319 9.6958065 3.7510839 253 0 0 0 35.08556
7.9791112 9.8378201 3.7231684 232.5 0 0 0 35.471649
11.435399 9.9465818 3.8761113 248 0 0 0 38.214699
11.555408 9.5614262 3.8355241 255 0 0 0 38.611553
9.1678734 10.219355 3.6899786 124.5 0 0 0 36.260399
11.317569 10.345035 3.7328408 235 0 0 0 37.824047
-0.3642683 10.533827 3.63099 358.5 0 0 0 24.156361
10.541567 10.637249 3.8328218 53 0 0 0 37.03978
11.187591 10.743549 3.7765026 190.5 0 0 0 37.438087
12.048874 12.146724 3.7411582 28.5 0 0 0 37.03978
0.67457223 12.672178 3.8956013 102 0 0 0 25.525261
11.608953 13.571366 3.6867502 54 0 0 0 35.8638
44.933075 16.138969 3.8522272 16 0 0 0 44.070553
44.793171 17.343525 3.8771293 17 0 0 0 43.685513
-41.498253 18.309837 3.8756337 14 0 0 0 6.2309799
-30.192236 28.602839 3.5475962 47 0 0 0 11.68855
-29.097204 28.949345 3.5002658 54 0 0 0 12.07274
-16.468618 28.842417 3.6298964 42 0 0 0 16.362459
-15.417613 28.604216 3.5505962 59 0 0 0 16.7514
-17.641588 29.214706 3.7305739 25 0 0 0 15.98198
-25.953289 -28.632942 4.1208506 13 0 0 0 86.276352
-7.627985 -27.533642 4.4520655 10 0 0 0 78.841446
-9.0219679 -27.287607 4.4798675 44 0 0 0 79.63353
-8.3110361 -27.371723 4.45825 26 0 0 0 79.235634
-18.856876 -26.77598 4.2995067 38 0 0 0 84.31147
-19.323114 -26.056053 4.2596483 35 0 0 0 84.708488
-17.014248 -25.462061 4.0218821 25 0 0 0 83.917587
-15.180733 -21.551674 4.1189837 13 0 0 0 84.31147
-14.756906 -18.906668 4.3443613 63 0 0 0 85.092239
-14.987626 -18.260534 4.2799506 22 0 0 0 85.491928
-19.392607 -17.579824 4.0934277 51 0 0 0 87.836327
-16.218105 -17.894007 4.3753591 43 0 0 0 86.276352
-15.320943 -17.760004 4.2500286 19 0 0 0 85.880844
-28.427162 -17.04804 4.3569446 9 0 0 0 90.977966
-16.454533 -17.283329 4.3241367 78 0 0 0 86.674141
-12.335855 -16.627203 4.2628975 32 0 0 0 84.708488
-13.348383 -16.261618 4.3321066 26 0 0 0 85.491928
-12.494594 -16.005281 4.1817217 34 0 0 0 85.092239
-11.564352 -16.412575 4.1345301 34 0 0 0 84.31147
-29.737465 -15.905075 4.4321837 12 0 0 0 91.745262
-14.498388 -15.227198 4.330379 32 0 0 0 86.674141
-18.229103 -14.963539 4.2751412 39 0 0 0 88.621368
-17.237801 -14.871721 4.1277952 89 0 0 0 88.220245
-17.94277 -14.005963 4.1273909 54 0 0 0 89.007484
-0.01571977 -14.140576 4.3034177 17 0 0 0 74.551277
0.32744977 -14.004961 4.2632942 126 0 0 0 74.157394
0.98311037 -13.595654 4.4855323 158 0 0 0 73.367195
1.2135829 -13.667709 4.2879186 170.66667 0 0 0 73.109756
1.654898 -13.568414 4.1595283 32 0 0 0 72.597458
-18.643713 -13.13455 4.1355648 53 0 0 0 89.799126
1.8592278 -13.426956 4.3480606 720.66669 0 0 0 72.331642
2.2809563 -13.270999 4.4304676 1892 0 0 0 71.81356
2.816232 -13.141545 4.3105259 1165 0 0 0 71.161491
-20.477684 -12.97296 4.3941092 17 0 0 0 90.586075
-17.314758 -12.844893 4.441062 44 0 0 0 89.39608
3.2169578 -12.936994 4.3857198 399 0 0 0 70.644844
3.706265 -12.860254 4.236444 174.25 0 0 0 70.05014
4.2693791 -12.651523 4.2809615 498.66666 0 0 0 69.334282
4.6869392 -12.672869 4.1099873 1316 0 0 0 68.87883
5.1808386 -12.571642 4.4714756 21 0 0 0 68.292557
4.7687707 -12.430719 4.3791947 57 0 0 0 68.68763
5.306004 -12.297298 4.1850362 168.66667 0 0 0 68.028908
5.7390432 -12.190316 4.2653532 184 0 0 0 67.505714
6.1806769 -12.084846 4.3525004 169 0 0 0 66.989014
-12.587841 -11.987484 4.4370465 34 0 0 0 87.453453
6.3601584 -11.948133 4.1159954 54 0 0 0 66.725166
6.6886787 -11.854168 4.1386633 55 0 0 0 66.330383
7.1719351 -11.682627 4.1682162 42.5 0 0 0 65.7491
7.6760335 -11.529383 4.210772 185 0 0 0 65.165939
8.5231228 -11.529661 4.3574438 15 0 0 0 64.377502
-31.38559 -11.240486 4.381134 39 0 0 0 94.097115
-29.198858 -11.272942 4.1154723 15 0 0 0 93.692238
7.9841962 -11.376492 4.2251129 85 0 0 0 64.767845
8.845356 -11.370369 4.3778648 18 0 0 0 63.992359
9.1551657 -11.190315 4.3936849 209 0 0 0 63.604912
9.5278292 -11.078636 4.440083 197 0 0 0 63.206512
-31.861521 -10.536295 4.4097071 24 0 0 0 94.481773
-19.21636 -10.891096 4.0067348 11 0 0 0 91.361084
9.4223232 -10.960629 4.0367417 29 0 0 0 63.206512
9.8472843 -10.898708 4.2833357 133 0 0 0 62.80891
10.161014 -10.706968 4.1217227 88 0 0 0 62.419247
10.684745 -10.717555 4.2248731 179 0 0 0 62.035919
11.079429 -10.57973 4.2762794 178 0 0 0 61.632526
11.622517 -10.563474 4.3830433 6 0 0 0 61.245033
12.320597 -10.137831 4.2547283 98.5 0 0 0 60.468594
12.842023 -10.046951 4.1431575 146 0 0 0 60.07584
13.306319 -9.8920336 4.2123537 174 0 0 0 59.690166
13.812682 -9.7498159 4.2944775 135 0 0 0 59.298111
14.323982 -9.591258 4.3778286 161 0 0 0 58.910633
14.835856 -9.4134159 4.2454634 121.5 0 0 0 58.517471
15.376774 -9.2335978 4.1122785 125 0 0 0 58.12212
15.948792 -9.0504093 4.203393 115 0 0 0 57.731621
16.535519 -8.8523664 4.2982693 89 0 0 0 57.33411
34.299793 -5.0744805 4.4890099 6 0 0 0 51.872261
32.136768 -2.3539057 4.1761441 27 0 0 0 50.70356
31.145264 -0.74527997 4.0400977 7 0 0 0 49.92474
31.147219 1.5549109 4.0460863 9 0 0 0 48.752529
12.200567 7.3707891 4.350482 245 0 0 0 40.943722
12.094292 7.7187777 4.2024393 216.5 0 0 0 40.560753
13.195514 7.5290861 4.2578568 133 0 0 0 41.330914
11.898034 8.446373 4.2744226 210.5 0 0 0 39.776833
12.006663 8.0860233 4.2401271 224 0 0 0 40.163021
14.899771 8.0176487 4.3139629 103 0 0 0 41.72908
11.790915 8.8151484 4.3129072 219.5 0 0 0 39.388233
17.026999 8.6244211 4.3894124 88 0 0 0 42.120579
5.3350062 9.0608568 4.008812 286 0 0 0 33.13615
5.7239904 9.1902266 4.1262217 345 0 0 0 33.524651
6.0876942 9.2536888 4.2199759 255 0 0 0 33.9128
6.5274677 9.4042654 4.218523 211.5 0 0 0 34.29884
11.667284 9.1782961 4.1660166 246 0 0 0 38.996513
6.9686227 9.5251226 4.3473635 208 0 0 0 34.692242
7.4536943 9.6714211 4.1952829 199 0 0 0 35.08556
7.9713306 9.8275681 4.3452749 193 0 0 0 35.471649
11.46387 9.9699621 4.2640576 179 0 0 0 38.214699
11.562861 9.5663872 4.2118134 250 0 0 0 38.611553
8.6651707 10.156444 4.0859613 10 0 0 0 35.8638
9.2092562 10.266755 4.2188525 112 0 0 0 36.260399
11.34058 10.364034 4.3120551 204 0 0 0 37.824047
-0.3656899 10.553823 4.0260625 313 0 0 0 24.156361
11.184599 10.738733 4.352324 170 0 0 0 37.438087
0.44850078 11.273281 4.2996216 42 0 0 0 25.32597
0.72618502 11.265136 4.3020654 40 0 0 0 25.72455
0.48863089 12.114288 4.3207817 33 0 0 0 25.32597
0.78322262 12.054199 4.3049827 26 0 0 0 25.72455
0.67786849 12.679228 4.2122087 86.5 0 0 0 25.525261
11.937606 12.642328 4.2296505 25 0 0 0 36.657742
-28.334457 29.608017 4.4876881 22 0 0 0 12.46408
-27.225376 29.880219 4.4256887 19 0 0 0 12.85721
-13.360221 -40.415516 4.5203419 22 0 0 0 79.63353
-16.403051 -30.686052 4.5623784 37 0 0 0 82.360466
-17.622662 -26.3748 4.9493475 17 0 0 0 83.917587
-29.457966 -18.664112 4.5820189 32 0 0 0 90.586075
-12.635114 -18.903648 4.6778917 16 0 0 0 83.917587
-15.869902 -17.510044 4.8630977 30 0 0 0 86.276352
-13.718445 -16.719604 4.9814043 11 0 0 0 85.491928
-16.537842 -15.747015 4.7011948 17 0 0 0 87.453453
-13.769852 -15.966785 4.8573995 14 0 0 0 85.880844
-21.953375 -14.675182 4.7837596 21 0 0 0 90.1903
-17.116222 -14.76717 4.6547093 93 0 0 0 88.220245
-16.519079 -14.973908 4.5909867 28 0 0 0 87.836327
-18.386793 -14.353189 4.8023291 49 0 0 0 89.007484
-17.363255 -14.252684 4.6258082 57 0 0 0 88.621368
-15.116561 -14.397964 4.8108792 25 0 0 0 87.453453
-0.015238211 -14.066687 4.8011351 139.5 0 0 0 74.551277
0.3257744 -13.917648 4.752214 132 0 0 0 74.157394
1.1726 -13.787336 4.892015 48 0 0 0 73.174118
1.6645439 -13.620633 4.8508387 9 0 0 0 72.597458
-18.84705 -13.278221 4.7472153 18 0 0 0 89.799126
2.299933 -13.350169 4.7888746 199 0 0 0 71.81356
2.7763574 -13.197707 4.7676907 225 0 0 0 71.227242
3.2499576 -13.047585 4.7528167 217 0 0 0 70.644844
-28.893602 -12.817507 4.9380426 7 0 0 0 92.914917
3.7180705 -12.887184 4.741107 242 0 0 0 70.05014
4.1893291 -12.741439 4.7403517 235 0 0 0 69.466408
4.536211 -12.734372 4.7772708 13 0 0 0 69.070038
-29.157972 -12.087557 4.9309773 16 0 0 0 93.299858
5.4737945 -12.39747 4.7887545 29 0 0 0 67.897079
5.7810397 -12.269672 4.792603 207 0 0 0 67.505714
6.2571068 -12.102733 4.8142848 212.5 0 0 0 66.92305
55.592171 -12.466212 4.5623851 13 0 0 0 53.043678
-16.448063 -11.591629 4.6393447 13 0 0 0 89.799126
6.7461357 -11.954647 4.681479 206 0 0 0 66.330383
7.2432079 -11.797076 4.7211356 201.75 0 0 0 65.7491
7.7461004 -11.633484 4.7658873 222 0 0 0 65.165939
8.1567202 -11.624874 4.6676431 13 0 0 0 64.767845
8.5171766 -11.525582 4.710052 5 0 0 0 64.377502
8.8758926 -11.413264 4.751545 13 0 0 0 63.992359
9.1629419 -11.203536 4.7564807 175 0 0 0 63.604912
9.5246201 -11.078642 4.8010912 183 0 0 0 63.206512
9.9163322 -10.976442 4.8605866 169 0 0 0 62.80891
10.303287 -10.854058 4.7321272 179.5 0 0 0 62.419247
10.691227 -10.722004 4.7871609 189 0 0 0 62.035919
11.101711 -10.59713 4.6618128 198 0 0 0 61.632526
12.24383 -10.325035 4.8634257 78 0 0 0 60.665607
12.838228 -10.042182 4.7476568 146.5 0 0 0 60.07584
13.323945 -9.9050989 4.6307626 112 0 0 0 59.690166
13.804539 -9.7441263 4.712214 147 0 0 0 59.298111
14.33165 -9.5964279 4.8091235 128 0 0 0 58.910633
14.862931 -9.4306469 4.9070973 103 0 0 0 58.517471
15.400387 -9.2478228 4.5601425 137 0 0 0 58.12212
15.983463 -9.0701351 4.6642385 125 0 0 0 57.731621
16.549786 -8.8601246 4.7634568 81 0 0 0 57.33411
-35.947701 -2.6627014 4.7301655 17 0 0 0 98.36808
-30.596506 -2.2664063 4.790133 23 0 0 0 98.36808
30.591631 -2.2419064 4.7374592 28 0 0 0 50.70356
31.980528 -1.5538353 4.9438272 16 0 0 0 50.310207
30.418341 -0.7288872 4.7008228 8 0 0 0 49.92474
30.141703 0.019367008 4.6577358 24 0 0 0 49.535072
30.577883 1.5254781 4.7316594 14 0 0 0 48.752529
12.221811 7.3797054 4.7117972 190 0 0 0 40.943722
13.137693 7.4963813 4.8003578 114 0 0 0 41.330914
12.121383 7.7330356 4.7454872 222 0 0 0 40.560753
14.845993 7.9878187 4.7185121 111 0 0 0 41.72908
11.913792 8.4543762 4.8222504 200 0 0 0 39.776833
12.029903 8.0985594 4.7866497 151 0 0 0 40.163021
11.812631 8.828064 4.8681211 185 0 0 0 39.388233
16.981081 8.6001444 4.8461814 63 0 0 0 42.120579
11.696852 9.2013912 4.7283974 206 0 0 0 38.996513
19.857239 9.4422865 4.5091987 60 0 0 0 42.514969
7.4425049 9.6586771 4.6395144 208 0 0 0 35.08556
7.9663162 9.823082 4.8099165 173 0 0 0 35.471649
11.466831 9.9748363 4.6405468 229 0 0 0 38.214699
11.583548 9.5833559 4.776947 184.5 0 0 0 38.611553
9.227397 10.284885 4.7399426 36.5 0 0 0 36.260399
11.346118 10.371441 4.6938257 213 0 0 0 37.824047
10.509837 10.601579 4.9316049 37 0 0 0 37.03978
11.19965 10.755534 4.7416382 132 0 0 0 37.438087
12.080585 12.176879 4.8105659 32 0 0 0 37.03978
11.924753 12.626468 4.8710523 21 0 0 0 36.657742
11.605403 13.568637 4.5635118 33 0 0 0 35.8638
-41.62923 18.367048 4.9909329 4 0 0 0 6.2309799
-41.10952 19.354046 4.9841213 10 0 0 0 6.6251602
-29.440657 29.293539 4.5487876 40 0 0 0 12.07274
-46.773888 32.81881 4.8723226 17 0 0 0 9.3428497
-9.7023573 -27.09923 5.1993847 32 0 0 0 80.021294
-8.3104372 -27.372274 5.1659613 22 0 0 0 79.235634
-7.5923133 -27.4072 5.1352744 9 0 0 0 78.841446
-15.308869 -25.539188 5.3832603 7 0 0 0 83.146515
-14.42246 -18.485748 5.3975205 20 0 0 0 85.092239
-15.496796 -15.503106 5.0497584 19 0 0 0 87.060684
-17.076445 -14.738443 5.1964097 25 0 0 0 88.220245
-16.290663 -14.772292 5.0664992 25 0 0 0 87.836327
-18.358843 -14.336889 5.3655176 10 0 0 0 89.007484
-0.012190589 -14.090591 5.3265214 99 0 0 0 74.551277
-16.796204 -13.79215 5.0078969 22 0 0 0 88.621368
0.33066839 -13.991532 5.2904859 171 0 0 0 74.157394
1.0040052 -13.800397 5.2303839 137 0 0 0 73.367195
1.832269 -13.607821 5.1902752 7.5 0 0 0 72.398094
2.3031394 -13.366451 5.1267514 219 0 0 0 71.81356
2.7792287 -13.209758 5.1025572 208 0 0 0 71.227242
3.2554424 -13.068007 5.0899825 177 0 0 0 70.644844
3.7293575 -12.925204 5.0844555 177 0 0 0 70.05014
4.1984296 -12.767899 5.0793042 219 0 0 0 69.466408
4.7129021 -12.732376 5.130579 69.5 0 0 0 68.87883
5.1992073 -12.602019 5.1509409 24 0 0 0 68.292557
-16.39098 -12.164174 5.2062483 54 0 0 0 89.39608
-15.751901 -12.3 5.0979667 58 0 0 0 89.007484
5.4868765 -12.426221 5.1325521 34 0 0 0 67.897079
5.779922 -12.266726 5.1236649 176 0 0 0 67.505714
6.2679062 -12.123108 5.1567316 204.5 0 0 0 66.92305
-19.703716 -11.820449 5.2937255 21 0 0 0 90.977966
6.7484484 -11.953201 5.1859479 188 0 0 0 66.330383
7.2482285 -11.800218 5.2320528 182.5 0 0 0 65.7491
7.7487879 -11.632616 5.279932 193 0 0 0 65.165939
8.1783037 -11.646386 5.2012205 44 0 0 0 64.767845
8.5336533 -11.538948 5.2450256 34.5 0 0 0 64.377502
-31.189623 -11.170485 5.1735868 21 0 0 0 94.097115
-21.907377 -11.034244 5.0493293 13 0 0 0 92.125961
8.8691664 -11.396235 5.1000071 17 0 0 0 63.992359
9.171627 -11.205824 5.2916765 171.5 0 0 0 63.604912
9.5509195 -11.10107 5.1714482 145 0 0 0 63.206512
65.402588 -11.322454 5.3093719 8 0 0 0 52.266781
9.9137411 -10.965754 5.2200832 163 0 0 0 62.80891
10.306272 -10.851314 5.284277 179 0 0 0 62.419247
10.710465 -10.735438 5.3541074 150 0 0 0 62.035919
11.114502 -10.609161 5.2360754 162.5 0 0 0 61.632526
-31.552471 -10.434258 5.1894236 34 0 0 0 94.481773
12.245271 -10.329086 5.2612438 73 0 0 0 60.665607
12.87162 -10.069995 5.3660183 111 0 0 0 60.07584
13.332958 -9.9099884 5.2483807 129.5 0 0 0 59.690166
13.838056 -9.7641087 5.1399226 114 0 0 0 59.298111
14.327117 -9.5898399 5.2315326 111 0 0 0 58.910633
14.883829 -9.4402905 5.3473477 100 0 0 0 58.517471
15.43017 -9.2639618 5.2376871 110.5 0 0 0 58.12212
15.997992 -9.078474 5.125967 113 0 0 0 57.731621
16.556423 -8.8638144 5.2324791 91 0 0 0 57.33411
64.298073 -7.9018474 5.1838784 7 0 0 0 51.4814
33.899086 -5.0161672 5.2860489 9 0 0 0 51.872261
-33.635777 -0.0099281715 5.2468286 6 0 0 0 99.533318
65.383133 0.038956579 5.2365336 11 0 0 0 49.535072
64.420845 3.2075455 5.1688595 7 0 0 0 48.752529
64.109245 4.773849 5.1532078 14 0 0 0 48.3633
12.212536 7.3785939 5.2354832 162 0 0 0 40.943722
13.057101 7.4537811 5.3282423 79 0 0 0 41.330914
12.108039 7.7291088 5.2708693 187.5 0 0 0 40.560753
11.95423 8.2695122 5.3337269 139 0 0 0 39.969925
12.016186 8.0945034 5.1386466 156 0 0 0 40.163021
14.873273 8.0047522 5.1440077 68 0 0 0 41.72908
11.817301 8.8369036 5.2340841 146 0 0 0 39.388233
16.820433 8.5180073 5.2703233 25 0 0 0 42.120579
11.709085 9.2142544 5.2853227 148 0 0 0 38.996513
19.66708 9.3551664 5.001029 41 0 0 0 42.514969
11.483726 9.9876251 5.211844 145 0 0 0 38.214699
11.599648 9.5999746 5.341228 110 0 0 0 38.611553
8.5538788 10.026999 5.0098486 25 0 0 0 35.8638
11.366297 10.387868 5.2728319 110.5 0 0 0 37.824047
9.6089268 10.708139 5.4635959 21 0 0 0 36.260399
11.215505 10.765579 5.1329961 103 0 0 0 37.438087
9.7689838 11.439111 5.3411269 29 0 0 0 35.8638
10.376508 11.001898 5.3680816 12 0 0 0 36.657742
10.993126 11.643862 5.2872739 20 0 0 0 36.657742
10.463381 12.238271 5.3176036 15 0 0 0 35.8638
12.05092 12.149935 5.221498 34 0 0 0 37.03978
11.840682 12.540894 5.2630873 20 0 0 0 36.657742
11.637635 13.604328 5.0215855 26 0 0 0 35.8638
46.962551 15.572023 5.1920819 16 0 0 0 44.462231
61.353992 17.043909 5.118361 9 0 0 0 45.237488
-43.06263 22.919083 5.3492413 9 0 0 0 7.40205
-1.5196931 28.591688 5.2274909 34 0 0 0 23.77136
-48.767223 37.923271 5.263186 20 0 0 0 10.12809
-25.023811 39.298492 5.0846381 15 0 0 0 15.59626
-8.2834892 -27.285746 5.8508725 36 0 0 0 79.235634
-18.68824 -25.201221 5.6730633 24 0 0 0 84.708488
-14.907922 -18.17182 5.9879284 17 0 0 0 85.491928
-16.178925 -17.858229 5.5476875 36 0 0 0 86.276352
-16.635387 -17.480742 5.5558066 11 0 0 0 86.674141
-14.919431 -17.302031 5.8213964 18 0 0 0 85.880844
-17.307421 -14.938382 5.8273506 26 0 0 0 88.220245
-15.996472 -14.50572 5.5053611 24 0 0 0 87.836327
-17.568033 -14.426827 5.7945695 19 0 0 0 88.621368
54.001514 -13.512562 5.8117428 5 0 0 0 53.441631
-21.297359 -13.498334 5.8061781 26 0 0 0 90.586075
-18.652561 -13.146636 5.8172879 23 0 0 0 89.799126
-13.21124 -13.220259 5.6914616 11 0 0 0 87.060684
-19.276094 -12.890407 5.9110284 12 0 0 0 90.1903
-14.275354 -12.948928 5.8687749 22 0 0 0 87.836327
-29.945133 -12.414181 5.8653865 10 0 0 0 93.299858
-30.749922 -11.872319 5.9634752 13 0 0 0 93.692238
-21.802605 -11.665757 5.6947403 7 0 0 0 91.745262
-20.86326 -11.830268 5.5243917 7 0 0 0 91.361084
-19.679264 -11.806037 5.8503585 40 0 0 0 90.977966
-19.906174 -11.287569 5.8338847 23 0 0 0 91.361084
9.5415916 -11.090103 5.5250182 180 0 0 0 63.206512
9.9311142 -10.98472 5.5921097 142 0 0 0 62.80891
10.317933 -10.863403 5.6574621 131 0 0 0 62.419247
10.706058 -10.730941 5.7235332 128 0 0 0 62.035919
11.107416 -10.598611 5.7965889 166 0 0 0 61.632526
-30.403198 -10.054311 5.7940121 18 0 0 0 94.481773
12.433132 -10.222671 5.6806822 98 0 0 0 60.468594
12.887492 -10.075109 5.7725549 127 0 0 0 60.07584
13.332143 -9.9039907 5.8601408 95 0 0 0 59.690166
13.827211 -9.7565384 5.7628198 98 0 0 0 59.298111
14.361302 -9.6163187 5.6725416 83 0 0 0 58.910633
