# .PCD v0.7 - Point Cloud Data file format
VERSION 0.7
FIELDS x y z intensity normal_x normal_y normal_z curvature
SIZE 4 4 4 4 4 4 4 4
TYPE F F F F F F F F
COUNT 1 1 1 1 1 1 1 1
WIDTH 940
HEIGHT 1
VIEWPOINT 0 0 0 1 0 0 0
POINTS 940
DATA ascii
-15.57367 -40.325665 0.35240972 31 0 0 0 80.431137
-52.308826 -38.795364 0.49560747 10 0 0 0 89.43351
-40.725063 -38.768562 0.43564567 12 0 0 0 87.485794
-25.173203 -37.65464 0.36315912 43 0 0 0 83.950447
-52.85955 -37.229008 0.49170217 8 0 0 0 89.832428
-16.893513 -35.681313 0.32420883 7 0 0 0 81.616234
-7.0156713 -35.157341 0.29986522 49 0 0 0 77.697647
-54.837315 -31.068136 0.4783068 19 0 0 0 91.385674
-18.547554 -30.918692 0.2973913 48 0 0 0 83.172592
-55.253777 -29.537367 0.47528911 29 0 0 0 91.76841
-9.9128857 -27.647039 0.25097698 12 0 0 0 80.047119
-52.980125 -26.671608 0.45152825 22 0 0 0 92.156807
-7.3618608 -22.218348 0.20734763 38 0 0 0 79.653183
-36.625385 -21.952557 0.33588958 33 0 0 0 91.007088
-20.436268 -21.453749 0.24712549 75 0 0 0 86.702316
-3.1016552 -17.727127 0.16826218 201 0 0 0 77.307709
-2.6368606 -17.59939 0.16689043 198 0 0 0 76.924606
-18.556953 -16.810635 0.21352141 84 0 0 0 87.871635
-25.38554 -16.073175 0.2471745 100 0 0 0 90.606224
-18.783937 -16.195684 0.21158098 131 0 0 0 88.257904
4.7092309 -14.366223 0.14956534 50 0 0 0 69.497246
5.2473426 -14.216041 0.1501092 130 0 0 0 68.9048
51.525776 -14.273958 0.43299106 6 0 0 0 53.859459
-16.502419 -13.536193 0.18684839 110 0 0 0 88.649689
-1.7241179 -13.756697 0.13791899 230 0 0 0 76.537605
-1.2014598 -13.613889 0.13658923 296 0 0 0 75.941994
-0.71414602 -13.896024 0.48551437 19 0 0 0 75.355148
-0.20169695 -13.702667 0.3105396 143 0 0 0 74.768578
3.7976973 -13.8524 0.14349546 126 0 0 0 70.26889
6.1570206 -13.977885 0.15141793 596 0 0 0 67.92971
7.2228532 -13.588964 0.15270852 567 0 0 0 66.754082
-0.68914264 -13.436612 0.13513032 337 0 0 0 75.355148
-0.35768673 -13.365747 0.13459072 288 0 0 0 74.969887
0.2992534 -13.437631 0.13527744 267 0 0 0 74.178802
0.78463352 -13.290075 0.13445638 294.5 0 0 0 73.598251
1.2620366 -13.14095 0.13373677 285 0 0 0 73.008781
1.7378771 -13.045042 0.29808331 168.5 0 0 0 72.427628
3.3297591 -13.434105 0.13936462 450 0 0 0 70.669937
8.2963352 -13.167993 0.15435918 270 0 0 0 65.588593
-38.05677 -12.575794 0.31581143 30 0 0 0 94.517433
1.8893797 -12.961604 0.13312797 393 0 0 0 72.233009
2.2041054 -12.903976 0.29722497 220.5 0 0 0 71.845551
2.6273775 -12.828992 0.24171121 425 0 0 0 71.322212
-25.922922 -12.261072 0.23666662 112 0 0 0 92.553131
-26.365391 -11.687858 0.23768221 136 0 0 0 92.94429
7.8622527 -11.831222 0.14403722 178 0 0 0 65.192703
-39.749664 -11.004365 0.32380164 26 0 0 0 95.285202
7.7907648 -11.1263 0.30879933 289 0 0 0 64.796432
8.0971985 -10.977654 0.13983032 272 0 0 0 64.405327
-33.932579 -10.296608 0.28348264 19 0 0 0 94.90773
7.6875496 -10.429255 0.45836705 324 0 0 0 64.405327
7.4276457 -9.5774307 0.2797606 229.5 0 0 0 64.020119
7.8062978 -9.567872 0.12998012 215 0 0 0 63.626499
7.7189417 -9.4647264 0.43423867 265 0 0 0 63.626499
7.4083529 -8.6439409 0.26498589 52 0 0 0 63.231194
7.6067271 -8.2420683 0.26169664 63.5 0 0 0 62.646713
8.8176956 -8.441453 0.1288487 326 0 0 0 61.663673
7.7861347 -7.8359175 0.2581948 30.5 0 0 0 62.063461
8.7591047 -7.7267537 0.22314052 209.66667 0 0 0 61.017624
15.008201 -7.5827265 0.16265994 102 0 0 0 56.977638
62.979721 -7.7751679 0.49661669 21 0 0 0 51.522419
8.9444523 -7.3835039 0.26911524 487.5 0 0 0 60.50116
9.2476015 -7.2583427 0.27284804 323 0 0 0 60.104126
9.7816706 -7.2944627 0.28049806 219 0 0 0 59.71114
10.276726 -7.1504245 0.33997634 230 0 0 0 59.1936
11.002222 -7.0037851 0.46107742 207 0 0 0 58.537201
10.309592 -6.9243913 0.13002491 252 0 0 0 58.938622
10.703026 -6.8119226 0.13195191 418 0 0 0 58.537201
11.255752 -6.7792807 0.13526934 209 0 0 0 58.14761
11.581738 -6.593616 0.30224109 148 0 0 0 57.76524
11.85749 -6.3680282 0.13737226 200 0 0 0 57.372238
12.027695 -6.4614134 0.48060727 203 0 0 0 57.372238
13.230104 -6.2845979 0.14597654 229 0 0 0 56.589752
13.684136 -6.0916166 0.148247 435 0 0 0 56.200752
14.356403 -5.9710813 0.15228586 115 0 0 0 55.813179
14.653773 -5.675714 0.15324722 172 0 0 0 55.423313
15.231464 -5.4716692 0.15646797 354 0 0 0 55.031849
15.930228 -5.2830238 0.16061889 129 0 0 0 54.644249
16.53863 -5.0359688 0.16402562 124 0 0 0 54.244202
-38.268536 -3.7738855 0.30455193 35 0 0 0 98.01516
-37.962135 -2.8050125 0.30195609 39 0 0 0 98.412354
32.194469 -1.5856369 0.26533625 49 0 0 0 50.350368
64.532547 -1.5853465 0.49376896 40 0 0 0 49.953159
-38.685753 -0.95450783 0.30666259 17 0 0 0 99.18927
-38.50499 -0.0047697928 0.30549338 28 0 0 0 99.579643
64.124428 0.00042263078 0.48795494 31 0 0 0 49.571232
-38.61953 0.94345474 0.30576971 35 0 0 0 0
42.303623 1.0397123 0.33192241 34 0 0 0 49.177166
-39.712383 1.95421 0.35698316 26 0 0 0 0.38648999
63.133045 3.1051996 0.47584611 10 0 0 0 48.783089
62.676208 4.628623 0.47047061 26 0 0 0 48.393272
9.9917984 5.3789668 0.3886804 563 0 0 0 41.766113
10.427629 5.2842751 0.39976582 545 0 0 0 42.149326
9.8109055 5.5989094 0.38666353 428 0 0 0 41.372406
12.09812 5.7546687 0.45361713 413 0 0 0 42.538048
10.295774 6.2150178 0.40892842 353 0 0 0 40.979233
11.602495 6.2418523 0.11521188 474 0 0 0 41.766113
9.7842474 6.5878892 0.40093523 244 0 0 0 40.204449
11.451241 6.5301356 0.11479305 221 0 0 0 41.372406
13.023804 6.5930758 0.12447744 315 0 0 0 42.149326
3.1793532 7.3838811 0.077808641 529 0 0 0 31.20503
9.423069 7.4145155 0.40576598 427 0 0 0 39.031631
9.6268902 7.1968322 0.40706748 474 0 0 0 39.423634
10.881981 7.3235617 0.11305621 357 0 0 0 40.204449
11.123728 7.0920801 0.27897516 308.5 0 0 0 40.593166
15.323777 7.2825541 0.13996029 170 0 0 0 42.538048
9.3829517 7.7672367 0.10586817 501 0 0 0 38.64204
10.718518 7.7379322 0.22343224 358 0 0 0 39.684959
13.268992 7.99933 0.12839989 168 0 0 0 40.979233
-11.216084 8.229476 0.4708122 11 0 0 0 9.7533503
-10.346791 8.3932076 0.45102721 16 0 0 0 10.52334
-2.6655099 8.4193087 0.083485514 93 0 0 0 19.89226
-0.10322741 8.4875078 0.29024312 1000 0 0 0 24.58078
0.20660289 8.3934765 0.2874687 971.83331 0 0 0 25.164192
0.71907866 8.3227768 0.28624064 1045.4445 0 0 0 26.13887
1.2425672 8.3365068 0.28852499 1020.6667 0 0 0 27.117682
1.6889917 8.4388142 0.187922 938.25 0 0 0 27.89344
2.9045899 8.3851347 0.082146749 349 0 0 0 30.03941
3.0190768 8.072957 0.080822438 915 0 0 0 30.430109
10.555156 8.3004141 0.11364128 364 0 0 0 39.031631
56.930374 8.455267 0.42578158 8 0 0 0 47.220058
-11.325314 8.7452583 0.48287725 27 0 0 0 10.1346
-10.081191 8.593194 0.44809774 8 0 0 0 10.92331
-9.304677 8.7419415 0.11570651 415 0 0 0 11.69385
-0.64500189 8.7713861 0.19156915 801 0 0 0 23.60474
-0.3146652 8.5749435 0.18759933 946.5 0 0 0 24.18926
2.1637816 8.5744352 0.19231044 886.25 0 0 0 28.678169
2.6691909 8.7250481 0.19748405 868 0 0 0 29.447819
3.2101865 8.8847866 0.32174513 540 0 0 0 30.23476
3.6329384 8.9946899 0.32967523 833 0 0 0 30.81876
6.8626537 8.906024 0.097605318 552 0 0 0 35.111401
7.0905776 8.7458878 0.09796004 412 0 0 0 35.508919
7.5283656 8.8275747 0.10019749 436 0 0 0 35.8964
8.0535984 8.9803505 0.10314081 556 0 0 0 36.291569
8.846467 8.9281034 0.42168787 387 0 0 0 37.070179
9.1974182 8.6215162 0.10746345 413 0 0 0 37.664127
10.477786 8.6631994 0.4549275 316 0 0 0 38.64204
-9.1263885 9.0041351 0.11548484 40 0 0 0 12.08588
-1.2567483 9.3239479 0.20296627 621.5 0 0 0 22.6238
-0.99724364 9.0479565 0.19727413 675.5 0 0 0 23.01367
3.7866073 9.0482101 0.21155281 779 0 0 0 31.011894
4.2552233 9.1924362 0.21623206 819 0 0 0 31.59869
4.753684 9.3355112 0.22286326 731 0 0 0 32.184464
5.2796602 9.4780588 0.36572486 713 0 0 0 32.766479
5.7316246 9.1938171 0.094359927 192 0 0 0 33.55608
6.8700438 9.3823862 0.099535599 280 0 0 0 34.719688
7.2053046 9.3421421 0.39634457 450 0 0 0 35.111401
8.8337135 9.1390247 0.10737074 439 0 0 0 36.876732
10.331922 9.1326675 0.34575006 483.66666 0 0 0 38.113602
-1.5648792 9.825388 0.21312678 496.5 0 0 0 22.226851
5.6611052 9.595068 0.23527908 636.5 0 0 0 33.159801
6.3512101 9.8071337 0.29334247 497.33334 0 0 0 33.809738
6.9574299 9.749033 0.40141281 470.5 0 0 0 34.527115
7.7837133 9.5875769 0.41356924 423 0 0 0 35.508919
8.3698483 9.8001814 0.43042788 232 0 0 0 35.8964
8.9293404 9.9436541 0.44541997 313 0 0 0 36.291569
10.158885 9.7488918 0.4685967 415 0 0 0 37.472126
-1.8956107 10.296553 0.092044652 66 0 0 0 21.839991
6.9536748 10.000047 0.1024014 355 0 0 0 34.334541
9.9363852 10.522861 0.47986528 217 0 0 0 36.683289
-5.2050405 12.291121 0.11112455 58 0 0 0 18.334681
-4.5639029 12.44376 0.27542195 231 0 0 0 19.11087
-4.236938 12.48529 0.10912657 507 0 0 0 19.506559
-3.7212589 12.64709 0.32730228 445 0 0 0 20.15584
-3.3069859 12.765059 0.27234808 479 0 0 0 20.67478
-2.8406811 12.905241 0.27256033 513.25 0 0 0 21.259789
38.841969 12.855481 0.29899627 33 0 0 0 44.498886
-2.3690462 13.037926 0.43801007 545 0 0 0 21.839991
37.817448 13.557326 0.29226148 57 0 0 0 44.102768
-5.7900147 14.715886 0.12531801 160 0 0 0 18.7206
37.78434 14.603356 0.29244864 16 0 0 0 43.710178
37.093395 15.395264 0.28831053 24 0 0 0 43.32246
35.545544 15.789325 0.27844509 30 0 0 0 42.939392
-15.309453 30.186096 0.23599549 53 0 0 0 17.15974
-19.354229 32.097919 0.26191741 39 0 0 0 15.99415
-23.643528 33.407238 0.2878603 17 0 0 0 14.82337
-24.205248 45.070236 0.34222698 7 0 0 0 16.764339
-21.819847 48.965931 0.35169098 17 0 0 0 17.935089
-17.12044 -61.803791 0.50727296 24 0 0 0 78.872063
-51.880718 -40.487972 0.50105643 9 0 0 0 89.038765
-7.3766971 -22.249683 0.7922799 77 0 0 0 79.653183
-20.460495 -21.471395 0.98721725 10 0 0 0 86.702316
-2.6889174 -17.92832 0.62148863 232 0 0 0 76.924606
-2.2291703 -17.83049 0.6164524 209 0 0 0 76.537605
-1.7736018 -17.698084 0.61066961 262 0 0 0 76.138954
-18.632408 -16.872898 0.84119481 18 0 0 0 87.871635
-18.701258 -16.118456 0.82657832 105 0 0 0 88.257904
4.7410765 -14.471242 0.90326136 9 0 0 0 69.497246
5.2021284 -14.281765 0.65427607 28.333334 0 0 0 68.969185
5.7931514 -14.085582 0.53119582 5 0 0 0 68.323006
6.164928 -14.00233 0.90823162 653 0 0 0 67.92971
-0.71446812 -13.900839 0.82602292 19 0 0 0 75.355148
-0.20295693 -13.848137 0.82230872 16.5 0 0 0 74.768578
0.30194232 -13.64895 0.8112095 11 0 0 0 74.178802
6.1603856 -13.992069 0.53326392 625 0 0 0 67.92971
7.2303128 -13.608562 0.72654217 566 0 0 0 66.754082
1.2802603 -13.350862 0.79791737 18 0 0 0 73.008781
1.7553891 -13.190108 0.79214686 11.5 0 0 0 72.427628
2.2259336 -13.036942 0.78769255 14 0 0 0 71.845551
8.3337097 -13.231963 0.73725998 448.5 0 0 0 65.588593
2.5039032 -12.772847 0.77599841 292 0 0 0 71.453674
7.9085546 -11.904843 0.67728174 170.5 0 0 0 65.192703
7.8074841 -11.151959 0.81328607 492 0 0 0 64.796432
8.1347256 -11.032037 0.81874841 409 0 0 0 64.405327
63.919582 -11.101093 0.51150817 22 0 0 0 52.300781
8.4822855 -10.930243 0.82619578 288 0 0 0 64.020119
8.844286 -10.835695 0.83494723 391 0 0 0 63.626499
10.801112 -10.332424 0.52362639 108 0 0 0 61.663673
11.108376 -10.1152 0.71044499 257 0 0 0 61.27422
12.834068 -9.5591688 0.95040172 134 0 0 0 59.71114
10.741618 -9.3112659 0.8483445 184 0 0 0 60.889328
13.339224 -9.4338293 0.96949053 243 0 0 0 59.321087
13.824249 -9.2748899 0.98707247 239 0 0 0 58.938622
63.413456 -9.4153204 0.5038963 31 0 0 0 51.9081
7.4405584 -8.6810379 0.83189917 35 0 0 0 63.231194
14.855545 -8.9393759 0.60099667 168 0 0 0 58.14761
7.6381578 -8.2756557 0.82010484 58.75 0 0 0 62.646713
7.8088365 -7.8583527 0.8072868 1169 0 0 0 62.063461
8.0168142 -7.6802759 0.80897498 729 0 0 0 61.663673
14.968231 -7.565557 0.5819779 135 0 0 0 56.977638
8.7385311 -7.2142181 0.8251313 1004 0 0 0 60.50116
9.0668354 -7.1169472 0.83861864 983 0 0 0 60.104126
13.440987 -7.2165704 0.9071632 159 0 0 0 57.372238
13.755919 -6.5355239 0.90533352 76 0 0 0 56.589752
14.112428 -6.7044673 0.54440343 288 0 0 0 56.589752
12.098272 -6.1205831 0.81017536 53 0 0 0 56.977638
14.389022 -6.4066463 0.54830241 287 0 0 0 56.200752
14.382451 -5.9844742 0.5424307 108 0 0 0 55.813179
14.706177 -5.6985221 0.54846811 49 0 0 0 55.423313
16.213911 -5.8258896 0.59551197 103 0 0 0 55.031849
16.258362 -5.3941422 0.59196991 97 0 0 0 54.644249
10.157121 5.4676771 0.67826933 506 0 0 0 41.766113
9.7936392 5.7516036 0.81055063 526.25 0 0 0 41.175819
10.353271 5.5752196 0.98486817 285 0 0 0 41.766113
9.6089144 6.1336269 0.81313217 591 0 0 0 40.593166
12.522996 6.3391314 0.81782812 292 0 0 0 42.149326
9.8168497 6.6100368 0.69319034 352 0 0 0 40.204449
13.678194 6.5022464 0.88029224 329 0 0 0 42.538048
15.625876 6.9564486 0.77940881 279.5 0 0 0 42.939392
9.3365669 7.3503861 0.99173152 447 0 0 0 39.031631
9.5819769 7.1668763 0.99882668 623 0 0 0 39.423634
17.373138 7.2232642 0.62449181 198 0 0 0 43.32246
10.090653 7.9357967 0.74746418 331 0 0 0 39.031631
10.730379 7.8124199 0.77233279 401 0 0 0 39.619629
-12.83169 8.0505867 0.88010824 11 0 0 0 8.5810404
-11.545301 8.4746447 0.83177418 65 0 0 0 9.7533503
-0.10395841 8.4891682 0.81323063 1004 0 0 0 24.58078
0.20593075 8.3965664 0.80522561 1043.5 0 0 0 25.164192
0.71743083 8.3140783 0.80066091 966 0 0 0 26.13887
1.2399508 8.326025 0.80777347 1035 0 0 0 27.11768
1.6845783 8.4190178 0.71740335 976.83331 0 0 0 27.89344
9.2741623 8.0687523 0.71647811 538 0 0 0 38.24234
-10.748219 8.7236967 0.80381167 7 0 0 0 10.52334
-0.64534968 8.7772598 0.7332356 826 0 0 0 23.604742
-0.31504309 8.5915489 0.71708131 847.33331 0 0 0 24.18926
2.1594906 8.559144 0.73698586 926.66669 0 0 0 28.678169
2.6634409 8.707798 0.75956565 872.33331 0 0 0 29.447821
3.1978073 8.8549786 0.66935277 663 0 0 0 30.234758
3.6300583 8.9901581 0.68833023 775.5 0 0 0 30.81876
10.480375 8.6657314 0.78919047 420 0 0 0 38.64204
-13.757698 9.1135502 0.55470574 23 0 0 0 8.9690199
-13.138643 9.1702309 0.73366463 72.5 0 0 0 9.3604403
-12.234255 9.4560938 0.89543021 22 0 0 0 10.1346
-1.2583411 9.339489 0.66768634 642.5 0 0 0 22.6238
-0.99833232 9.0600615 0.75807214 696 0 0 0 23.01367
3.9308023 9.0780449 0.70188296 743 0 0 0 31.20503
4.2455273 9.1722908 0.71657431 742.5 0 0 0 31.59869
4.7448072 9.3188686 0.7406885 737 0 0 0 32.184464
5.2654076 9.4551697 0.76568317 676 0 0 0 32.766479
8.7627563 9.2906799 0.74131584 264 0 0 0 36.683289
10.276454 9.3868914 0.80595917 506 0 0 0 37.856129
-1.5769684 9.9093208 0.70912588 428.5 0 0 0 22.226851
5.6452017 9.5690279 0.78536701 643.5 0 0 0 33.159801
6.2581763 9.7530737 0.8182559 553 0 0 0 33.746323
6.9389772 9.723444 0.69384837 557 0 0 0 34.527115
10.164563 9.7547026 0.81490159 402 0 0 0 37.472126
7.9316463 10.273102 0.75126678 439 0 0 0 35.111401
8.4556494 10.406599 0.77535152 453 0 0 0 35.508919
10.053469 10.135345 0.82483619 385 0 0 0 37.070179
8.998683 10.529465 0.80012614 222 0 0 0 35.8964
9.672761 10.764189 0.8348003 283 0 0 0 36.291569
-2.8345721 12.883988 0.75859904 491 0 0 0 21.259789
-2.36643 13.024318 0.76090616 512 0 0 0 21.839991
-5.0492659 14.953824 0.51722682 135 0 0 0 19.506559
-7.4150934 15.444366 0.97880179 554 0 0 0 17.55369
-4.2991304 15.144999 0.89980328 133 0 0 0 20.28763
-7.0079818 15.561378 0.97477734 515 0 0 0 17.935089
-6.6075454 15.687145 0.97193784 422 0 0 0 18.334681
-6.2079849 15.810138 0.96956509 533 0 0 0 18.7206
-5.8093305 15.931477 0.96771288 527 0 0 0 19.11087
-5.208499 16.098721 0.96528453 528.5 0 0 0 19.699409
-4.2131205 16.391045 0.96478409 310 0 0 0 20.67478
-11.559909 27.648157 0.95660144 84 0 0 0 18.334681
-15.560013 -40.26841 1.4292725 48 0 0 0 80.431137
-25.054958 -37.462849 1.4861872 62 0 0 0 83.950447
-16.851509 -35.575691 1.3056362 16 0 0 0 81.616234
-18.525566 -30.869225 1.1952552 31 0 0 0 83.172592
-20.397991 -26.111435 1.1004865 5 0 0 0 85.122368
-29.221003 -23.967487 1.2463213 37 0 0 0 88.649689
-7.3638549 -22.210272 1.3632499 158 0 0 0 79.653183
-30.851553 -19.527546 1.2037216 42 0 0 0 90.606224
-2.255007 -18.038973 1.0678617 245 0 0 0 76.537605
-1.7910992 -17.874544 1.0557646 318 0 0 0 76.138954
-18.652424 -16.076136 1.4267563 107 0 0 0 88.257904
7.3725104 -15.670338 1.4549702 7 0 0 0 67.543404
5.0636482 -14.256455 1.2745463 6 0 0 0 69.097961
-0.71423072 -13.943819 1.1757175 14 0 0 0 75.355148
-0.37196919 -13.941437 1.1745746 21 0 0 0 74.969887
6.1651731 -13.996311 1.2888134 558 0 0 0 67.92971
6.911015 -13.809283 1.3014164 36 0 0 0 67.147964
7.2604032 -13.659065 1.3038238 327 0 0 0 66.754082
7.5903931 -13.47136 1.3035218 5 0 0 0 66.368057
8.3578806 -13.264888 1.3216062 503 0 0 0 65.588593
2.4908705 -12.696357 1.4077159 6 0 0 0 71.453674
2.5087152 -12.785687 1.1010147 90 0 0 0 71.453674
-38.899235 -11.796308 1.3341475 27 0 0 0 94.90773
7.9646697 -11.984162 1.2160648 151 0 0 0 65.192703
7.818337 -11.163092 1.3196768 486 0 0 0 64.796432
8.155201 -11.055456 1.3301148 485 0 0 0 64.405327
-39.433689 -10.909397 1.342613 25 0 0 0 95.285202
8.4971657 -10.945256 1.1727912 504 0 0 0 64.020119
8.835988 -10.821611 1.1823001 459 0 0 0 63.626499
11.121911 -10.123622 1.2704798 213 0 0 0 61.27422
12.88974 -9.5966997 1.3551037 112 0 0 0 59.71114
14.34968 -9.1213226 1.2194763 193 0 0 0 58.537201
30.88448 -9.391551 1.083078 15 0 0 0 54.244202
7.4430413 -8.6822224 1.2527111 27 0 0 0 63.231194
9.1964874 -8.8013105 1.3907094 193 0 0 0 61.663673
14.873595 -8.9479485 1.2440661 144 0 0 0 58.14761
15.579818 -8.8594446 1.0595053 52 0 0 0 57.76524
31.047218 -8.6134958 1.0804026 8 0 0 0 53.859459
7.6269836 -8.2620277 1.2326121 32 0 0 0 62.646713
9.511755 -8.2474022 1.0695347 191 0 0 0 60.889328
10.1584 -8.3773785 1.4375122 111 0 0 0 60.50116
12.110527 -8.1265507 1.233211 89 0 0 0 58.938622
14.446236 -8.2136278 1.3997166 53 0 0 0 57.76524
7.8163862 -7.8643394 1.2160896 193 0 0 0 62.063461
10.274711 -7.6579518 1.4001278 162 0 0 0 59.71114
10.780939 -7.6291389 1.1202965 155 0 0 0 59.321087
14.991299 -7.1162763 1.3973591 100 0 0 0 56.589752
15.742445 -7.0062742 1.0192664 21 0 0 0 56.200752
12.863592 -6.9047613 1.2341516 167 0 0 0 57.372238
13.227962 -6.6860256 1.2522334 157 0 0 0 56.977638
15.709742 -6.5303583 1.4312327 68 0 0 0 55.813179
16.761286 -6.9695463 1.0715415 53 0 0 0 55.813179
32.451225 -2.4041018 1.0826648 8 0 0 0 50.735168
32.801361 -1.6202247 1.0909815 19 0 0 0 50.350368
30.920147 -0.0053535351 1.0266045 19 0 0 0 49.571232
11.672518 5.9141283 1.0921311 430 0 0 0 42.149326
13.620353 6.4783111 1.2537465 198 0 0 0 42.538048
11.184498 6.7514782 1.4076519 272 0 0 0 40.979233
15.589982 6.944644 1.4145019 227 0 0 0 42.939392
9.518528 7.4927931 1.3057952 477 0 0 0 39.031631
10.122172 7.1861706 1.3380904 319 0 0 0 39.81562
10.905759 7.3408942 1.2550073 512.5 0 0 0 40.204449
9.3439636 7.7365189 1.1598734 440.5 0 0 0 38.64204
10.741751 7.8239946 1.2681521 345.5 0 0 0 39.619629
-0.10523614 8.4968681 1.2306061 964.5 0 0 0 24.58078
0.20462422 8.3949137 1.2169588 1052.5 0 0 0 25.164192
0.71564317 8.3093338 1.2097183 995.33331 0 0 0 26.13887
1.2361851 8.3114605 1.2191916 1028 0 0 0 27.11768
1.6788058 8.4015942 1.2430135 913 0 0 0 27.89344
-0.64744091 8.7837629 1.2738968 798.25 0 0 0 23.60474
-0.31671458 8.5897331 1.2441094 871 0 0 0 24.18926
2.151844 8.5381508 1.2771926 875.5 0 0 0 28.678169
2.6544993 8.6865568 1.3170943 821.75 0 0 0 29.447819
3.1914675 8.8432722 1.2464622 771.83331 0 0 0 30.234762
3.6226668 8.9770088 1.1630609 729 0 0 0 30.81876
8.8502483 8.9360762 1.3519347 483 0 0 0 37.070179
-1.1599982 9.2610111 1.2780396 628 0 0 0 22.779749
3.9194593 9.0570259 1.185318 738 0 0 0 31.20503
4.2346816 9.153841 1.2110188 750 0 0 0 31.59869
4.7283425 9.2915449 1.2512525 703.5 0 0 0 32.184464
8.4129562 9.3781395 1.2000903 380.5 0 0 0 36.291569
10.347845 9.2258472 1.3187784 440 0 0 0 38.049232
-1.5862947 9.9680815 1.0825987 474 0 0 0 22.226851
5.6361599 9.5582123 1.3301985 606 0 0 0 33.159801
6.2454576 9.7356634 1.2431099 520.5 0 0 0 33.746323
6.9150896 9.9463015 1.1529975 445.5 0 0 0 34.334541
9.0685139 9.6157131 1.2571651 402.5 0 0 0 36.683289
10.174366 9.7678566 1.1681528 391 0 0 0 37.472126
-1.599996 10.0496 1.3407784 426 0 0 0 22.226851
7.3735437 10.062551 1.1866806 481.5 0 0 0 34.719688
7.887742 10.221027 1.2271416 433 0 0 0 35.111401
8.4292164 10.37862 1.2698247 438.5 0 0 0 35.508919
10.066939 10.152767 1.1831902 314 0 0 0 37.070179
9.0113068 10.548384 1.3168373 325 0 0 0 35.8964
-33.348938 12.830679 1.1850332 26 0 0 0 5.4633799
40.070568 14.357067 1.3718013 23 0 0 0 44.102768
38.081055 14.711505 1.3151786 14 0 0 0 43.710178
-7.4127154 15.43359 1.4030188 442 0 0 0 17.55369
-3.5619874 15.374261 1.2935656 119 0 0 0 21.06032
-7.0055194 15.549742 1.397357 450 0 0 0 17.935089
-6.6103683 15.687498 1.3945194 426 0 0 0 18.334681
-6.2047362 15.794812 1.3899461 463 0 0 0 18.7206
-5.8068256 15.91706 1.387556 503 0 0 0 19.11087
-5.2076149 16.087612 1.3846165 538 0 0 0 19.699409
-4.6139693 16.273754 1.3846797 555 0 0 0 20.28763
-4.220118 16.408424 1.3866949 457 0 0 0 20.67478
-3.2159662 16.688778 1.3907537 426.5 0 0 0 21.649624
-15.30071 30.184214 1.0793239 52 0 0 0 17.15974
-32.398682 32.298454 1.4718819 28 0 0 0 12.08588
-19.320623 32.057011 1.1943494 35 0 0 0 15.99415
-28.37369 32.773701 1.3905044 29 0 0 0 13.25339
-23.546095 33.283775 1.3028581 24 0 0 0 14.82337
-13.603893 34.991756 1.1896609 14 0 0 0 18.7206
-16.212683 36.336658 1.2612789 6 0 0 0 17.935089
-17.505968 36.7901 1.2920041 11 0 0 0 17.55369
-21.60569 37.954708 1.3870834 50 0 0 0 16.374701
-20.318182 37.81636 1.3624904 12 0 0 0 16.764339
-25.736565 38.362919 1.4705313 23 0 0 0 15.20961
-24.342012 38.276344 1.4427758 27 0 0 0 15.60218
-12.411831 -49.435585 1.6828561 20 0 0 0 78.481995
-11.027695 -48.978664 1.6584483 11 0 0 0 78.093536
-40.66296 -38.695377 1.8358629 10 0 0 0 87.485794
-49.468037 -26.432655 1.8290815 7 0 0 0 91.76841
-20.341084 -26.038128 1.9058233 19 0 0 0 85.122368
-41.898876 -23.726866 1.5755376 7 0 0 0 91.385674
-56.983871 -18.81954 1.9528799 21 0 0 0 94.517433
4.7625966 -14.528101 1.6587747 4 0 0 0 69.497246
5.1060495 -14.374964 1.6554655 8 0 0 0 69.097961
6.1680613 -14.00284 1.6612142 405 0 0 0 67.92971
-1.0586852 -13.978086 1.6922519 40.5 0 0 0 75.745033
-0.71298099 -13.940557 1.6856751 15 0 0 0 75.355148
-0.37037969 -13.920854 1.6816882 14 0 0 0 74.969887
6.5250168 -13.879465 1.6652602 5 0 0 0 67.543404
7.2715616 -13.679893 1.6823142 508 0 0 0 66.754082
8.3708324 -13.28525 1.7053342 474 0 0 0 65.588593
7.9753203 -12.000009 1.5679663 181 0 0 0 65.192703
8.0525389 -12.110857 1.9403442 68 0 0 0 65.192703
7.8337464 -11.180681 1.8238235 459 0 0 0 64.796432
8.1707983 -11.072285 1.8382783 408 0 0 0 64.405327
8.4999142 -10.948661 1.5102683 507 0 0 0 64.020119
8.7392387 -10.879917 1.7493739 522.66669 0 0 0 63.757706
9.2134285 -10.729657 1.888854 410 0 0 0 63.231194
9.7623777 -10.553057 1.9198165 327.5 0 0 0 62.646713
11.128407 -10.129313 1.6373758 217 0 0 0 61.27422
10.198886 -9.7516108 1.8852439 17 0 0 0 61.663673
11.543208 -9.9987106 1.6612185 100 0 0 0 60.889328
55.605564 -9.6673756 1.8599677 19 0 0 0 52.300781
13.364244 -9.4474125 1.7777629 209 0 0 0 59.321087
13.853583 -9.29041 1.811125 171 0 0 0 58.938622
14.361597 -9.1266584 1.8467925 115 0 0 0 58.537201
8.7491817 -8.7934523 1.6617391 72 0 0 0 62.063461
9.098855 -8.7050524 1.9986993 32 0 0 0 61.663673
11.064378 -8.6735487 1.532384 117 0 0 0 60.104126
14.950836 -8.9919796 1.892473 90 0 0 0 58.14761
27.628447 -8.402915 1.6808045 8 0 0 0 54.244202
10.659165 -7.9398413 1.7784593 100 0 0 0 59.71114
13.62093 -7.7460189 1.7035093 73 0 0 0 57.76524
30.009941 -7.5365191 1.7969491 14 0 0 0 53.47607
10.117527 -7.1588631 1.9686016 157 0 0 0 59.321087
13.622107 -7.3097119 1.6811078 113 0 0 0 57.372238
16.403715 -7.295589 1.5084479 54 0 0 0 56.200752
13.525826 -6.835588 1.648657 68 0 0 0 56.977638
15.398361 -6.8498054 1.8287835 47 0 0 0 56.200752
13.310404 -6.3213439 1.6039426 122 0 0 0 56.589752
15.586022 -6.4787741 1.8313341 16 0 0 0 55.813179
32.91124 -3.2525446 1.9120599 23 0 0 0 51.12772
32.918388 -1.6250511 1.9029415 21 0 0 0 50.350368
11.705435 6.3016572 1.7610192 256 0 0 0 41.766113
12.067005 6.1162744 1.791909 417 0 0 0 42.149326
12.585997 6.3745141 1.5185953 323 0 0 0 42.149326
11.676066 6.6623631 1.7797964 157 0 0 0 41.372406
12.538312 6.7439246 1.5315419 197 0 0 0 41.766113
13.784724 6.5565629 1.6406004 293 0 0 0 42.538048
9.6795483 7.2423511 1.7530453 456.5 0 0 0 39.42363
10.91659 7.3515205 1.7417762 498 0 0 0 40.204449
9.5348492 7.5089717 1.9095173 449 0 0 0 39.031631
10.814157 7.6769347 1.7542942 404 0 0 0 39.81562
11.78367 7.5146093 1.6748465 234 0 0 0 40.593166
13.218122 7.5330873 1.6333591 206 0 0 0 41.372406
17.02496 7.5815196 1.995201 155 0 0 0 42.939392
-0.10547242 8.4921417 1.7530093 837.33331 0 0 0 24.58078
0.20418517 8.3925772 1.734008 950.5 0 0 0 25.16419
0.71390176 8.2949839 1.7211106 982.33331 0 0 0 26.138868
1.2346842 8.3043804 1.7362293 937.5 0 0 0 27.117682
1.6754017 8.38729 1.7690283 873.33331 0 0 0 27.89344
2.0266767 8.4885054 1.6977264 850 0 0 0 28.486389
9.7060738 8.0375872 1.9806327 175 0 0 0 38.64204
-0.64773262 8.7927818 1.7100105 726.5 0 0 0 23.60474
-0.31686679 8.5870895 1.7729378 859.33331 0 0 0 24.18926
2.2680044 8.5536184 1.7214997 888.5 0 0 0 28.869949
2.6510515 8.6757812 1.7646368 804.5 0 0 0 29.447819
3.183352 8.8231325 1.8242562 770.25 0 0 0 30.234758
3.609504 8.9477596 1.7562662 644.66669 0 0 0 30.818762
8.4705725 8.9914846 1.9398191 500 0 0 0 36.683289
8.7101936 8.7997522 1.9447021 537 0 0 0 37.070179
10.545388 8.7265158 1.8077496 295 0 0 0 38.64204
57.506279 8.5322704 1.8826965 6 0 0 0 47.220058
-1.1371424 9.2631321 1.8077389 583.5 0 0 0 22.818735
3.9138217 9.0467491 1.6724559 634 0 0 0 31.20503
4.2199087 9.1250019 1.7053654 685.5 0 0 0 31.59869
4.7169662 9.271944 1.7640948 668.5 0 0 0 32.184464
8.3375502 9.2988625 1.8050213 403 0 0 0 36.291569
8.5342865 9.0581055 1.6448961 446 0 0 0 36.683289
10.362835 9.2430019 1.8326921 390 0 0 0 38.049232
5.6266065 9.5445271 1.7399358 525 0 0 0 33.159801
6.2341881 9.722805 1.6695352 532.5 0 0 0 33.746323
6.8745222 9.8929386 1.7402526 460.5 0 0 0 34.334541
10.194582 9.7894287 1.6894102 393 0 0 0 37.472126
-1.6093944 10.114772 1.7287356 377.5 0 0 0 22.226851
7.3839564 10.080905 1.804949 239 0 0 0 34.719688
7.8544035 10.182455 1.6965061 386 0 0 0 35.111401
8.3905516 10.335695 1.7553653 301 0 0 0 35.508919
10.096368 10.18657 1.890154 378 0 0 0 37.070179
9.0398302 10.585758 1.8342062 92 0 0 0 35.8964
26.844854 11.14622 1.6582947 27 0 0 0 43.32246
-7.4028292 15.413875 1.8151748 487 0 0 0 17.55369
-6.8002787 15.601916 1.8065767 534.5 0 0 0 18.134884
-6.199367 15.782162 1.7994825 449 0 0 0 18.7206
-5.7987905 15.89591 1.7955817 527 0 0 0 19.11087
-5.2047491 16.080006 1.7934663 502.5 0 0 0 19.699409
-4.6102333 16.261719 1.7932664 506 0 0 0 20.28763
-4.2125716 16.379839 1.7942359 488 0 0 0 20.67478
-3.8140054 16.497959 1.7962661 498 0 0 0 21.06032
-3.2137775 16.678726 1.8017952 472.5 0 0 0 21.649624
-42.849922 17.718487 1.5272385 4 0 0 0 5.8456998
-12.727085 25.070396 1.5886245 43 0 0 0 17.15974
-14.415184 26.768408 1.7164277 29 0 0 0 16.764339
-17.361921 28.78936 1.8971453 82 0 0 0 15.99415
-16.333214 28.644264 1.8601832 39 0 0 0 16.374701
-19.671282 29.282145 1.9916813 40 0 0 0 15.20961
-18.532787 29.099201 1.9472506 48 0 0 0 15.60218
-33.310165 34.88224 1.5480717 12 0 0 0 12.4817
-33.884502 37.276505 1.6133537 20 0 0 0 12.86875
-34.949257 46.991619 1.8609128 17 0 0 0 14.43383
-15.52833 -40.185387 2.4805944 43 0 0 0 80.431137
-16.716938 -35.290516 2.2509148 24 0 0 0 81.616234
-18.5319 -30.879246 2.0767326 54 0 0 0 83.172592
-29.148666 -23.907833 2.1656938 42 0 0 0 88.649689
-30.692656 -19.426727 2.0864394 61 0 0 0 90.606224
-18.656395 -16.08502 2.0400341 92 0 0 0 88.257904
6.5265603 -15.840523 2.2769899 5 0 0 0 68.323006
7.3270426 -15.56723 2.287173 7 0 0 0 67.543404
7.7415471 -15.451615 2.2975724 9 0 0 0 67.147964
4.7337546 -14.432636 2.3977044 13 0 0 0 69.497246
5.2616558 -14.247818 2.2107334 309.5 0 0 0 68.9048
5.8069973 -14.105274 2.4088061 573 0 0 0 68.323006
6.1800203 -14.02322 2.0407276 232 0 0 0 67.92971
-1.0568848 -13.968464 2.2097821 240 0 0 0 75.745033
-0.71240002 -13.950948 2.2038724 10 0 0 0 75.355148
-0.36917391 -13.916041 2.1965797 11 0 0 0 74.969887
6.1556478 -13.96831 2.4107988 193 0 0 0 67.92971
7.2781162 -13.686355 2.2567759 262 0 0 0 66.754082
8.3858509 -13.303701 2.2898619 416.5 0 0 0 65.588593
8.056365 -12.11649 2.3017039 165 0 0 0 65.192703
7.8434796 -11.194394 2.1646953 423 0 0 0 64.796432
8.1670971 -11.067194 2.1782773 440 0 0 0 64.405327
8.6830368 -10.899353 2.2069373 493.5 0 0 0 63.823311
9.2233582 -10.741021 2.2417331 390 0 0 0 63.231194
9.5958071 -10.633899 2.2677352 366 0 0 0 62.841526
9.952158 -10.497697 2.2900336 199 0 0 0 62.4519
11.12834 -10.12541 2.1946826 155 0 0 0 61.27422
11.564091 -10.012866 2.2304001 207.5 0 0 0 60.889328
11.999943 -9.8842154 2.0735984 172 0 0 0 60.50116
12.226157 -9.8186541 2.2844453 156.5 0 0 0 60.302643
9.3807039 -9.4242697 2.1083138 58 0 0 0 62.063461
13.368041 -9.4463158 2.1814148 201 0 0 0 59.321087
13.882206 -9.305728 2.2264373 205 0 0 0 58.938622
14.399029 -9.1465197 2.271699 190 0 0 0 58.537201
63.48946 -9.4361734 2.1083753 26 0 0 0 51.9081
14.921379 -8.9704657 2.3177111 192 0 0 0 58.14761
15.693874 -8.9157782 2.4013293 67 0 0 0 57.76524
9.3246651 -8.0825653 2.2659154 97 0 0 0 60.889328
15.841732 -8.4916201 2.3913567 39 0 0 0 57.372238
27.248737 -8.2818222 2.3684301 5 0 0 0 54.244202
63.064548 -7.7950492 2.0851314 27 0 0 0 51.522419
14.366934 -7.2552762 2.1453559 106 0 0 0 56.977638
13.615677 -6.4622684 2.1992686 51 0 0 0 56.589752
13.401105 -5.9615188 2.3224103 26 0 0 0 56.200752
-36.063175 -1.7699555 2.0732298 20 0 0 0 98.797035
64.564682 -1.5955273 2.1079118 25 0 0 0 49.953159
-36.591709 0.90028334 2.1009271 64 0 0 0 0
63.699799 1.5565516 2.0745881 29 0 0 0 49.177166
63.145725 3.0966802 2.0558524 21 0 0 0 48.783089
62.711273 4.6221189 2.042145 8 0 0 0 48.393272
11.817413 6.3622103 2.2774181 282.5 0 0 0 41.766113
12.233473 6.2005849 2.1568646 242 0 0 0 42.149326
11.42193 6.7074437 2.412576 378 0 0 0 41.175819
11.9279 6.8055811 2.1584897 149 0 0 0 41.372406
13.827781 6.5808949 2.4041564 254 0 0 0 42.538048
14.093669 6.7062654 2.0618308 276 0 0 0 42.538048
9.781847 7.3193164 2.226088 477 0 0 0 39.423634
10.049984 7.1391063 2.2463584 462 0 0 0 39.81562
10.932114 7.3625212 2.2356496 371 0 0 0 40.204449
11.617247 7.4114628 2.3341875 216 0 0 0 40.593166
17.6777 7.3548536 2.0496573 29 0 0 0 43.32246
9.674716 7.6185884 2.2429438 488 0 0 0 39.031631
12.95003 7.8141026 2.3724165 80 0 0 0 40.979233
13.040134 7.8676705 2.0103159 192 0 0 0 40.979233
-0.10625648 8.4950962 2.1697803 810 0 0 0 24.58078
0.20329149 8.3890238 2.2485609 782.75 0 0 0 25.16419
0.71288997 8.2941017 2.2325976 767.16669 0 0 0 26.13887
1.23146 8.2901917 2.2486584 786.25 0 0 0 27.11768
1.6708016 8.3703022 2.2906115 729.5 0 0 0 27.89344
2.0200498 8.4681778 2.2288797 750 0 0 0 28.486389
-0.64969867 8.8035154 2.2531316 614.33331 0 0 0 23.604738
-0.2473024 8.5658941 2.3294432 697.66669 0 0 0 24.319769
2.2629569 8.5411444 2.262105 668.33331 0 0 0 28.869949
2.642843 8.6552696 2.2050745 733.25 0 0 0 29.447819
3.1757977 8.8079138 2.2812116 660.5 0 0 0 30.234758
3.5988879 8.9268475 2.3447232 678 0 0 0 30.81876
9.2139053 8.8573618 2.0066056 251 0 0 0 37.472126
10.585756 8.7605009 2.4972043 298 0 0 0 38.64204
-1.1422049 9.293869 2.2717459 505 0 0 0 22.818735
3.902072 9.0226536 2.1528215 589.5 0 0 0 31.20503
4.2151065 9.1172514 2.1994829 609.5 0 0 0 31.59869
4.7096767 9.2602959 2.2745328 551.5 0 0 0 32.184464
8.7056513 9.2389431 2.3076243 418 0 0 0 36.683289
10.374973 9.2541828 2.1801023 207.5 0 0 0 38.049232
5.618576 9.5314884 2.1485977 560 0 0 0 33.159801
6.2202716 9.7017612 2.2374101 473.75 0 0 0 33.746323
6.8599677 9.8728552 2.3329377 405 0 0 0 34.334541
8.546402 9.5300035 2.3261032 360 0 0 0 36.291569
-1.6283641 10.238897 2.2582641 218.5 0 0 0 22.226851
7.9164553 10.262535 2.1921668 153 0 0 0 35.111401
8.9186764 10.445768 2.3219514 17.5 0 0 0 35.8964
-7.3988323 15.399674 2.2323418 493 0 0 0 17.55369
-6.7948771 15.582726 2.2212329 461 0 0 0 18.134884
-6.1955318 15.765315 2.2129896 448 0 0 0 18.7206
-5.7977548 15.885606 2.2091904 404 0 0 0 19.11087
-5.2027907 16.06546 2.2061617 386.5 0 0 0 19.699409
-4.6081696 16.24472 2.2057385 464 0 0 0 20.28763
-4.2121439 16.367577 2.2076614 455 0 0 0 20.67478
-3.8121476 16.47789 2.2092228 440 0 0 0 21.06032
-3.2118192 16.653564 2.2155108 483.5 0 0 0 21.649624
-12.788765 25.184042 2.2975204 30 0 0 0 17.15974
-14.458814 26.840906 2.4786155 25 0 0 0 16.764339
-30.493948 28.938173 2.3835354 9 0 0 0 11.69385
-29.377792 29.277554 2.350162 39 0 0 0 12.08588
-28.233255 29.548103 2.3143544 39 0 0 0 12.4817
-27.201214 29.899569 2.2876337 45 0 0 0 12.86875
-22.238289 29.843908 2.1025484 33 0 0 0 14.43383
-20.987598 29.650923 2.051506 35 0 0 0 14.82337
-26.164465 30.213116 2.2605979 47 0 0 0 13.25339
-23.712688 30.252014 2.1720326 30 0 0 0 14.04231
-25.137033 30.504059 2.2343593 38 0 0 0 13.64351
-10.993965 -48.8269 2.8782885 15 0 0 0 78.093536
-13.690441 -45.037785 2.7081769 13 0 0 0 79.258209
-24.552305 -43.295925 2.8578835 13 0 0 0 82.782509
-25.027531 -37.421185 2.5861683 47 0 0 0 83.950447
-7.8650055 -34.923046 2.9593875 14 0 0 0 78.093536
-6.9764709 -34.956306 2.9472263 17 0 0 0 77.697647
-18.6539 -31.09449 2.9931087 21 0 0 0 83.172592
-20.322227 -26.022921 2.726064 28 0 0 0 85.122368
-41.82769 -23.686298 2.7492237 18 0 0 0 91.385674
-17.744312 -21.604601 2.9916763 13 0 0 0 85.525276
-30.54945 -19.343304 2.9769125 76 0 0 0 90.606224
-20.524992 -16.837305 2.8401144 106 0 0 0 88.649689
-18.564865 -16.816929 2.6821668 87 0 0 0 87.871635
-18.640898 -16.071451 2.6357424 105 0 0 0 88.257904
4.7432127 -14.461343 2.7792172 98 0 0 0 69.497246
5.4487658 -14.216516 2.7809758 9 0 0 0 68.711639
5.7845244 -14.051116 2.7759821 4 0 0 0 68.323006
-1.0580684 -13.982761 2.7312441 463.5 0 0 0 75.745033
-0.71266776 -13.953772 2.7215223 13 0 0 0 75.355148
-0.36925784 -13.914285 2.7114453 17.5 0 0 0 74.969887
3.7464013 -13.659208 2.7623482 89 0 0 0 70.26889
2.8873971 -13.004723 2.7632029 4 0 0 0 71.05928
8.203454 -13.374533 2.8676696 394.5 0 0 0 65.779221
2.5462859 -12.964054 2.7403359 6 0 0 0 71.453674
6.7836399 -12.76205 2.9993615 103 0 0 0 66.754082
7.0507545 -12.513927 2.9813819 94 0 0 0 66.368057
4.3288755 -12.194613 2.8450956 484 0 0 0 69.097961
4.7890019 -12.065948 2.6962533 420 0 0 0 68.517319
7.3299718 -12.294001 2.9714293 102 0 0 0 65.969856
7.6090012 -12.077837 2.9638715 88 0 0 0 65.588593
8.1003056 -12.182101 2.6765313 150 0 0 0 65.192703
5.2454543 -11.917123 2.7045751 268 0 0 0 67.92971
5.715456 -11.78685 2.7215135 481 0 0 0 67.345688
-33.525341 -11.077992 2.9063015 12 0 0 0 94.517433
7.7537999 -11.261289 2.7288158 261 0 0 0 64.92852
8.1791077 -11.083216 2.6926572 390 0 0 0 64.405327
8.7061424 -10.928274 2.7314327 365 0 0 0 63.823311
9.2303486 -10.74891 2.7695732 402.5 0 0 0 63.231194
9.7348604 -10.610309 2.7549286 197.33333 0 0 0 62.711651
10.398832 -10.44132 2.6978214 25 0 0 0 62.063461
11.162222 -10.155794 2.7621791 256 0 0 0 61.27422
28.788027 -10.318691 2.5415535 9 0 0 0 55.031849
12.318377 -9.8092785 2.7500794 189.66667 0 0 0 60.236469
12.905016 -9.6036358 2.7427721 200.5 0 0 0 59.71114
13.872649 -9.2990618 2.6391284 185 0 0 0 58.938622
14.401668 -9.1478844 2.6952562 189 0 0 0 58.537201
-87.476517 -8.6104546 2.8441052 8 0 0 0 98.01516
14.940816 -8.9817829 2.7530472 177 0 0 0 58.14761
15.382307 -8.7391071 2.7932777 34 0 0 0 57.76524
32.127098 -8.9047461 2.7653282 17 0 0 0 53.859459
7.9156747 -8.3572989 2.6817238 59 0 0 0 62.4519
13.495867 -7.6712022 2.8411653 16 0 0 0 57.76524
14.107284 -7.5649576 2.7299149 15 0 0 0 57.372238
14.365636 -7.2542977 2.544461 37 0 0 0 56.977638
13.358897 -6.7477694 2.7406118 52 0 0 0 56.977638
13.679162 -6.4917917 2.7721479 18 0 0 0 56.589752
-35.894924 -3.5398433 2.9686322 64 0 0 0 98.01516
-36.08374 -2.6662769 2.977982 84 0 0 0 98.412354
32.975277 -2.4351509 2.7350137 6 0 0 0 50.735168
-80.447266 -1.9702889 2.6076257 7 0 0 0 99.18927
-36.31197 -1.7885321 2.9922938 93 0 0 0 98.797035
-83.47731 0.0047783642 2.7040715 7 0 0 0 99.579643
11.777725 6.7213011 2.8039875 317 0 0 0 41.372406
13.604666 6.891922 2.7725081 286 0 0 0 42.149326
10.953042 7.3771377 2.7300799 414 0 0 0 40.204449
11.651909 7.4340878 2.8558836 253 0 0 0 40.593166
10.866652 7.7151747 2.7541602 353 0 0 0 39.81562
-0.10673906 8.493042 2.6933045 602 0 0 0 24.58078
0.20186074 8.3840418 2.763797 633.5 0 0 0 25.16419
0.7096467 8.2746038 2.7394185 646.22223 0 0 0 26.138868
1.2272717 8.2722845 2.7596614 641.5 0 0 0 27.117682
1.6416531 8.3391628 2.7633681 633.79999 0 0 0 27.854191
2.014112 8.4474487 2.7599587 558.5 0 0 0 28.486389
10.720103 8.224885 2.7910814 354 0 0 0 39.227631
-0.53701854 8.7350216 2.7727928 427.5 0 0 0 23.801109
-0.31813186 8.5880833 2.7240899 643 0 0 0 24.18926
2.2551913 8.5159149 2.7999554 568 0 0 0 28.869949
2.6101894 8.6278496 2.7088692 616.40002 0 0 0 29.408899
3.1677134 8.7884941 2.7386746 611 0 0 0 30.234758
3.739902 8.9538755 2.8445735 541.5 0 0 0 31.011894
10.628999 8.7964325 2.8479257 8 0 0 0 38.64204
-1.0167336 9.2131805 2.7060552 277.5 0 0 0 23.01367
3.8922737 9.0028782 2.509855 603 0 0 0 31.20503
4.2018147 9.0915203 2.6872258 594.5 0 0 0 31.59869
4.6957927 9.2356968 2.7796605 527.75 0 0 0 32.184464
5.5951324 9.4967108 2.818681 508 0 0 0 33.159801
10.411594 9.2867785 2.7066007 314.5 0 0 0 38.049232
-1.2940907 9.6002092 2.8265474 54 0 0 0 22.6238
5.8027411 9.5708447 2.7260995 440 0 0 0 33.357941
6.2763233 9.7055864 2.7658904 406.33334 0 0 0 33.809738
6.8480153 9.8599644 2.7724173 378 0 0 0 34.334541
10.228933 9.8251038 2.7497449 365.5 0 0 0 37.472126
7.3809686 10.081659 2.8844514 96 0 0 0 34.719688
7.8887835 10.229547 2.8216896 53.5 0 0 0 35.111401
10.118458 10.209707 2.7857125 305 0 0 0 37.070179
8.9699545 10.505824 2.8473201 105 0 0 0 35.8964
49.007545 13.576146 2.8856838 15 0 0 0 45.270729
-7.398335 15.399833 2.6536512 391 0 0 0 17.55369
45.731995 15.126105 2.7306831 17 0 0 0 44.498886
-6.7882938 15.56859 2.6381743 443.5 0 0 0 18.134884
-6.1920547 15.7576 2.6295912 396 0 0 0 18.7206
-5.7908559 15.86766 2.6234951 403 0 0 0 19.11087
-5.3950529 15.989151 2.6209192 427 0 0 0 19.506559
-5.0018878 16.117832 2.621103 420 0 0 0 19.89226
-4.6042643 16.232105 2.6205485 406 0 0 0 20.28763
-4.2051897 16.341394 2.6207769 452 0 0 0 20.67478
-3.8088791 16.465004 2.624826 423 0 0 0 21.06032
45.961334 16.465618 2.7648332 4 0 0 0 44.102768
-3.2094951 16.643324 2.632843 496.5 0 0 0 21.649624
-12.761583 25.13195 2.9759996 29 0 0 0 17.15974
-17.34255 28.74786 2.7288294 44 0 0 0 15.99415
-16.336479 28.640596 2.6793938 58 0 0 0 16.374701
-19.713787 29.336983 2.8737359 32 0 0 0 15.20961
-18.519669 29.06949 2.8018715 52 0 0 0 15.60218
-20.944426 29.580898 2.9474726 33 0 0 0 14.82337
-40.187862 -36.406193 3.1011343 20 0 0 0 87.871635
-19.565983 -30.872923 3.0162399 28 0 0 0 83.566513
-27.52494 -28.899567 3.2860417 33 0 0 0 86.702316
-9.1180582 -27.534027 3.1075087 17 0 0 0 79.653183
-17.280472 -27.262598 3.4511948 9 0 0 0 83.566513
-18.784115 -26.64959 3.484807 44 0 0 0 84.342873
-17.739407 -26.524883 3.4117718 15 0 0 0 83.950447
-49.284431 -26.334259 3.1899567 29 0 0 0 91.76841
-19.369741 -26.097206 3.4733009 35 0 0 0 84.734001
-29.135735 -23.905424 3.1029239 39 0 0 0 88.649689
-16.766193 -20.419529 3.478338 32 0 0 0 85.525276
-16.560486 -19.189037 3.3379457 39 0 0 0 85.911644
-16.936895 -17.782434 3.2344019 23 0 0 0 86.702316
-17.887049 -17.025181 3.2516785 55 0 0 0 87.485794
-18.567709 -16.01375 3.2284079 107 0 0 0 88.257904
-18.89786 -15.507051 3.2185993 53 0 0 0 88.649689
-20.766403 -14.625929 3.3423638 16 0 0 0 89.832428
-19.205755 -14.987082 3.2073822 113 0 0 0 89.038765
-16.472422 -14.924986 3.4795969 14 0 0 0 87.871635
4.255878 -14.141497 3.0608714 220 0 0 0 69.882492
4.6392422 -14.147123 3.0859432 73 0 0 0 69.497246
-1.2272252 -13.967438 3.2462668 127.5 0 0 0 75.941994
-0.70617336 -13.867759 3.2153203 503 0 0 0 75.355148
-0.13855283 -13.648918 3.2724278 406.66666 0 0 0 74.701477
0.30621418 -13.556296 3.1413479 462 0 0 0 74.178802
0.30302849 -13.432136 3.4425647 152 0 0 0 74.178802
0.95323849 -13.298477 3.2528508 392.5 0 0 0 73.401047
1.2710396 -13.191928 3.2337012 335.5 0 0 0 73.008781
1.6933259 -13.082385 3.1659119 464.66666 0 0 0 72.492493
1.8906885 -12.943805 3.3540907 219 0 0 0 72.233009
2.2089117 -12.901543 3.1951942 411 0 0 0 71.845551
2.6759579 -12.783298 3.1885891 256.25 0 0 0 71.256477
3.2431881 -12.633183 3.1321983 157.66667 0 0 0 70.536255
3.4077611 -12.429221 3.3071256 203 0 0 0 70.26889
3.7262843 -12.390383 3.1612 127 0 0 0 69.882492
4.1500554 -12.319408 3.2308674 185.66667 0 0 0 69.364151
4.6645155 -12.179531 3.1890907 146.5 0 0 0 68.711639
5.165513 -12.130436 3.3851027 68 0 0 0 68.126358
4.9183011 -11.956306 3.0019445 210 0 0 0 68.323006
5.246459 -11.913797 3.0228705 168 0 0 0 67.92971
5.787941 -11.930542 3.2420936 272.25 0 0 0 67.345688
6.3293033 -11.678638 3.3024957 117.66666 0 0 0 66.625404
6.7388864 -11.623564 3.1207519 228 0 0 0 66.168961
6.7944269 -11.39671 3.4084427 147 0 0 0 65.969856
7.2646403 -11.324683 3.2364814 99 0 0 0 65.456627
7.8573432 -11.209629 3.1799414 316 0 0 0 64.796432
8.1951828 -11.100668 3.2052698 282 0 0 0 64.405327
8.7140656 -10.934036 3.2481642 291 0 0 0 63.823311
9.2592373 -10.778364 3.3006623 257 0 0 0 63.231194
9.8099976 -10.60224 3.1772907 242 0 0 0 62.646713
10.474953 -10.513362 3.4465249 26 0 0 0 62.063461
10.435121 -10.477404 3.0715764 8 0 0 0 62.063461
10.858684 -10.376781 3.3037539 10.5 0 0 0 61.663673
11.192512 -10.183024 3.142586 290 0 0 0 61.27422
11.585368 -10.030677 3.1823101 258 0 0 0 60.889328
12.248041 -9.8353071 3.2615499 251 0 0 0 60.302643
12.929078 -9.6210823 3.3451715 187 0 0 0 59.71114
27.193045 -9.7476397 3.1057899 7 0 0 0 55.031849
13.412051 -9.4766064 3.2056437 181.5 0 0 0 59.321087
13.889067 -9.3095913 3.2631721 177.5 0 0 0 58.938622
14.400022 -9.1465397 3.1181736 184 0 0 0 58.537201
28.055204 -9.2845974 3.1758091 9 0 0 0 54.644249
14.93786 -8.9796925 3.1849191 172 0 0 0 58.14761
29.301779 -8.9035416 3.2891445 5 0 0 0 54.244202
13.437901 -6.7871914 3.128021 34 0 0 0 56.977638
31.823027 -5.5299659 3.4633989 17 0 0 0 52.300781
-36.509773 -0.90093958 3.0058987 74 0 0 0 99.18927
30.492075 -0.74750692 3.2657592 14 0 0 0 49.953159
-36.784458 -0.0046976698 3.0275502 76 0 0 0 99.579643
-36.88221 0.90099549 3.0356584 52 0 0 0 0
29.305984 0.72361463 3.1377909 18 0 0 0 49.177166
41.666813 1.0277749 3.4304595 10 0 0 0 49.177166
41.025284 2.0219865 3.3794506 8 0 0 0 48.783089
10.974571 7.3949413 3.2241502 328.5 0 0 0 40.204449
11.634296 7.426218 3.1911356 235 0 0 0 40.593166
10.881416 7.7290611 3.2507739 333.5 0 0 0 39.81562
12.923374 7.8008456 3.3005681 198.5 0 0 0 40.979233
-0.10880543 8.4930439 3.0060251 595 0 0 0 24.58078
0.20016599 8.3743916 3.1713634 519.5 0 0 0 25.16419
0.70817095 8.2738266 3.1465843 489 0 0 0 26.13887
1.2233758 8.2566271 3.1642983 519 0 0 0 27.11768
1.698548 8.3461342 3.1600993 468.66666 0 0 0 27.958857
2.087635 8.4530869 3.2317798 448.66666 0 0 0 28.614243
10.742068 8.2452774 3.2968144 214.5 0 0 0 39.227631
-0.53985143 8.7509308 3.2077262 240 0 0 0 23.801109
-0.24978311 8.5639734 3.1709471 472 0 0 0 24.319769
2.3725557 8.5361538 3.1435022 442.5 0 0 0 29.061584
2.6916442 8.6335573 3.2634211 430.75 0 0 0 29.545118
3.1312094 8.7598286 3.2546184 460.60001 0 0 0 30.19569
3.730516 8.9343357 3.3165379 427.75 0 0 0 31.011896
-1.0183561 9.2197485 3.2768917 264.33334 0 0 0 23.01367
4.1920929 9.0733404 3.1765912 428.5 0 0 0 31.59869
4.6856446 9.2185173 3.2864995 427.25 0 0 0 32.184464
5.2152877 9.382205 3.2775662 389 0 0 0 32.766479
5.5895038 9.4895554 3.2265203 408.5 0 0 0 33.159801
10.358194 9.4738054 3.2403207 305 0 0 0 37.856129
10.51797 9.1541185 3.2196298 104 0 0 0 38.24234
-1.2973417 9.6223354 3.3099203 43 0 0 0 22.6238
5.9752598 9.5909309 3.3098421 375 0 0 0 33.55608
6.3878798 9.7048674 3.2595558 350 0 0 0 33.936569
6.8413525 9.8509388 3.2144918 307.5 0 0 0 34.334541
10.254004 9.8530474 3.2814386 268 0 0 0 37.472126
7.9044766 10.252037 3.3063588 82 0 0 0 35.111401
8.9339714 10.468136 3.1746016 113 0 0 0 35.8964
10.144276 10.239732 3.324774 248 0 0 0 37.070179
9.8609009 10.984029 3.2214141 52.5 0 0 0 36.291569
10.011454 10.614038 3.1854405 269 0 0 0 36.683289
10.598843 13.029615 3.2447534 18.5 0 0 0 35.508919
10.281614 13.991631 3.137866 71 0 0 0 34.719688
-7.3708696 15.342969 3.0637763 8 0 0 0 17.55369
-7.5730324 16.827717 3.3195469 26 0 0 0 17.935089
-3.9264939 16.990099 3.1382694 25 0 0 0 21.06032
-3.5046253 17.061352 3.134762 163 0 0 0 21.459259
-3.0879784 17.159021 3.1379533 244 0 0 0 21.839991
-50.467854 26.939346 3.2633133 35 0 0 0 7.4120002
-14.395576 26.724596 3.2037952 35 0 0 0 16.764339
-46.230808 27.663309 3.0692203 22 0 0 0 8.1917801
-31.542688 28.491951 3.4673216 36 0 0 0 11.30501
-30.424633 28.864422 3.4197059 47 0 0 0 11.69385
-16.333246 28.637054 3.4782448 70 0 0 0 16.374701
-29.33493 29.226835 3.3751845 47 0 0 0 12.08588
-28.243881 29.551325 3.3304424 40 0 0 0 12.4817
-27.162746 29.849001 3.2867558 31 0 0 0 12.86875
-22.190792 29.771267 3.0202765 38 0 0 0 14.43383
-26.128399 30.163013 3.2486277 43 0 0 0 13.25339
-25.080555 30.426743 3.20872 22 0 0 0 13.64351
-23.669607 30.188251 3.1208632 31 0 0 0 14.04231
-92.270943 -68.414078 3.7143159 8 0 0 0 89.43351
-96.234528 -64.285095 3.7399848 8 0 0 0 90.215759
-96.647552 -57.913601 3.6402895 6 0 0 0 91.007088
-99.022263 -49.831276 3.5800371 5 0 0 0 92.156807
-99.925667 -47.24966 3.5692048 8 0 0 0 92.553131
-24.906534 -37.253571 3.6897678 25 0 0 0 83.950447
-18.640753 -31.072006 3.8707736 18 0 0 0 83.172592
-17.385984 -30.659481 3.7666044 34 0 0 0 82.782509
-9.9707165 -27.820759 3.8919075 27 0 0 0 80.047119
-8.4248343 -27.715439 3.8158495 25 0 0 0 79.258209
-9.0986176 -27.490583 3.8142521 51 0 0 0 79.653183
-20.269335 -25.954739 3.5185423 34 0 0 0 85.122368
-23.48621 -23.475533 3.5456107 20 0 0 0 87.093109
-42.278385 -22.599384 3.9348781 20 0 0 0 91.76841
-21.12151 -21.117544 3.9264333 37 0 0 0 87.093109
-30.896513 -20.641661 3.9607065 7 0 0 0 90.215759
-28.283617 -19.915846 3.6898038 11 0 0 0 89.832428
-30.401882 -19.249628 3.8363957 47 0 0 0 90.606224
-17.471214 -18.343666 3.9618971 38 0 0 0 86.702316
-17.633366 -17.627443 3.899668 76 0 0 0 87.093109
-16.149878 -17.810036 3.7619631 27 0 0 0 86.302223
-32.582058 -17.415241 3.9372804 18 0 0 0 91.76841
-17.693764 -16.840841 3.8209028 68 0 0 0 87.485794
-28.865322 -16.350824 3.5391214 7 0 0 0 91.385674
-23.000572 -15.370418 3.63713 42 0 0 0 90.215759
-18.287434 -15.005645 3.7006023 166 0 0 0 88.649689
-19.183958 -14.96988 3.8055048 19 0 0 0 89.038765
-14.901261 -14.893829 3.8211372 44 0 0 0 87.093109
-15.858032 -14.367678 3.8801584 63 0 0 0 87.871635
-1.2411461 -14.1288 3.9835482 161.5 0 0 0 75.941994
-1.2279677 -13.976341 3.5925632 47.5 0 0 0 75.941994
-0.7051686 -13.84446 3.7232635 89 0 0 0 75.355148
-0.25114706 -13.784916 3.7607613 102 0 0 0 74.835686
0.30946037 -13.692286 3.8487148 34 0 0 0 74.178802
0.64102387 -13.60181 3.8270419 39 0 0 0 73.795448
0.96548611 -13.464905 3.7946262 68 0 0 0 73.401047
1.2888601 -13.373032 3.7769783 31 0 0 0 73.008781
1.7674832 -13.229797 3.7533236 66.5 0 0 0 72.427628
-19.935719 -12.625326 3.6907024 11 0 0 0 90.606224
-19.111906 -12.770514 3.5960388 37 0 0 0 90.215759
2.7042029 -12.918398 3.7130382 36.5 0 0 0 71.256477
3.1710598 -12.784374 3.706053 131 0 0 0 70.669937
3.7866831 -12.589294 3.6999385 55 0 0 0 69.882492
-20.380526 -12.217444 3.7161188 67 0 0 0 91.007088
-18.33395 -12.250282 3.9963102 23 0 0 0 90.215759
4.2781539 -12.36604 3.7902496 232 0 0 0 69.231056
4.8228197 -12.141482 3.8384647 538.25 0 0 0 68.517319
-20.655638 -11.703646 3.7127464 25 0 0 0 91.385674
-18.474716 -11.699512 3.9634047 30 0 0 0 90.606224
5.2825975 -11.995229 3.6912327 68 0 0 0 67.92971
5.6959467 -11.742057 3.6764882 161.5 0 0 0 67.345688
6.1657991 -11.602303 3.7014964 128 0 0 0 66.754082
6.7493563 -11.641201 3.7909756 85.5 0 0 0 66.168961
7.2056723 -11.436872 3.8084214 58 0 0 0 65.588593
7.6838336 -11.254205 3.6697669 122.5 0 0 0 64.994568
8.167448 -11.063163 3.7030377 196.5 0 0 0 64.405327
8.5501251 -11.004359 3.5798941 282 0 0 0 64.020119
64.163269 -11.151453 3.7363465 16 0 0 0 52.300781
-33.261166 -10.990602 3.7342992 21 0 0 0 94.517433
8.4657764 -10.896297 3.8884349 51 0 0 0 64.020119
