# .PCD v0.7 - Point Cloud Data file format
VERSION 0.7
FIELDS x y z intensity normal_x normal_y normal_z curvature
SIZE 4 4 4 4 4 4 4 4
TYPE F F F F F F F F
COUNT 1 1 1 1 1 1 1 1
WIDTH 942
HEIGHT 1
VIEWPOINT 0 0 0 1 0 0 0
POINTS 942
DATA ascii
18.644802 -9.3956375 0.16472356 117 0 0 0 57.01004
37.185036 -9.3128014 0.27184978 45 0 0 0 53.49585
-12.498486 -8.8086815 0.1421908 189 0 0 0 89.874413
26.163189 -8.6471376 0.20538762 47 0 0 0 54.672421
14.725811 -8.3556557 0.14054734 193 0 0 0 57.7883
-12.248638 -7.7594366 0.49832034 129 0 0 0 90.661072
-11.540574 -7.7173519 0.13233429 171 0 0 0 90.273102
4.539772 -7.6098499 0.20405391 353 0 0 0 66.008438
-11.390613 -7.219151 0.12948316 246 0 0 0 90.661072
-11.590282 -6.75982 0.29611957 177.5 0 0 0 91.248184
-13.033171 -6.1697345 0.13532484 209 0 0 0 92.599823
-12.095465 -6.2804985 0.30067691 219 0 0 0 92.016922
-11.796748 -6.3113213 0.12841842 337 0 0 0 91.822678
-11.361227 -6.442008 0.12633412 334 0 0 0 91.443604
3.3833742 -6.3696237 0.26160645 195 0 0 0 66.799057
3.5285311 -6.2667279 0.17203312 387 0 0 0 66.397461
31.020512 -6.1696124 0.23066469 43 0 0 0 52.71928
-13.46631 -5.9745102 0.13732457 198 0 0 0 92.989365
-48.570869 -4.7812462 0.36294788 49 0 0 0 98.071434
-61.053261 -4.4989734 0.44510832 15 0 0 0 98.459648
39.415173 2.9197679 0.28282499 22 0 0 0 48.427181
53.887646 2.6623325 0.37259954 26 0 0 0 48.812714
15.406658 3.4735055 0.13543807 313 0 0 0 46.071281
16.108599 3.2168391 0.13920666 344 0 0 0 46.469662
18.669916 3.2514703 0.15492025 207 0 0 0 46.860722
21.673416 3.2263381 0.17332637 174 0 0 0 47.25407
26.585695 3.2904046 0.20371169 50 0 0 0 47.647568
31.725227 3.136152 0.23532726 31 0 0 0 48.035168
15.029114 3.7797289 0.1338111 321 0 0 0 45.685139
14.67305 4.2714977 0.13284783 366.5 0 0 0 45.102448
14.512991 4.8140054 0.13331714 87 0 0 0 44.516201
14.174882 5.2899017 0.13245712 315.5 0 0 0 43.931137
-13.614719 5.9751954 0.16109686 265 0 0 0 6.2406301
-12.239876 5.7296166 0.48426366 400 0 0 0 6.6296301
-11.601156 5.7775812 0.46580818 590 0 0 0 7.01438
-6.2277336 5.9734545 0.3208552 954.5 0 0 0 11.897949
-4.5455074 5.994256 0.09724874 810 0 0 0 14.44185
-4.3099775 5.9791245 0.095855013 1045 0 0 0 14.83228
13.991246 5.8197684 0.13277729 466 0 0 0 43.350121
-13.383767 6.2675238 0.16054399 122 0 0 0 6.6296301
-11.718914 6.1977692 0.30888531 125.5 0 0 0 7.40903
-11.308016 6.3370752 0.30824351 332.5 0 0 0 7.8039498
-10.636744 6.3027487 0.14004429 333 0 0 0 8.1871204
-9.9103088 6.200304 0.1342286 541 0 0 0 8.5763597
-9.3527813 6.1711521 0.13004297 592 0 0 0 8.9740295
-8.8380146 6.1432915 0.12621409 641 0 0 0 9.3684597
-8.3947115 6.1416731 0.12307086 681 0 0 0 9.7493
-7.6450706 6.0788589 0.19718008 735 0 0 0 10.403647
-7.1551151 6.0787764 0.23042119 703 0 0 0 10.92306
-6.7986183 6.0649996 0.22472411 768 0 0 0 11.31688
-6.29636 6.0377398 0.10826729 766 0 0 0 11.897949
-5.7176242 6.0429044 0.20734879 805.75 0 0 0 12.67456
-5.394619 6.1358576 0.20381311 870.5 0 0 0 13.26821
-4.103529 6.1049457 0.15575999 884.66669 0 0 0 15.35699
3.0557277 6.2073326 0.25414434 1189 0 0 0 32.013741
13.984434 6.2250524 0.13388781 222 0 0 0 42.954288
-13.642524 6.8014021 0.16481216 189 0 0 0 7.01438
-11.335829 6.7236943 0.47375467 247 0 0 0 8.1871204
-4.7861671 6.6573372 0.30602887 792 0 0 0 14.83228
-4.0554276 6.6059484 0.19400527 886.5 0 0 0 16.004311
-3.9703825 6.8420606 0.29593867 917 0 0 0 16.39193
2.9939957 6.9110351 0.27533606 772 0 0 0 31.232679
3.1311524 6.9137435 0.1504813 450.33334 0 0 0 31.49412
12.719681 6.8304992 0.12861216 552 0 0 0 41.77586
13.176055 6.6620474 0.13061707 285 0 0 0 42.174858
13.692225 6.5039048 0.13304451 259 0 0 0 42.561619
-10.702404 7.4575286 0.46952543 372 0 0 0 9.3684597
-10.125278 7.4263873 0.4531486 387 0 0 0 9.7493
-9.6012068 7.4066429 0.43866953 506 0 0 0 10.1461
-6.0624228 7.2634716 0.23133409 744.5 0 0 0 13.65168
-5.7574072 7.2486601 0.22692278 812.5 0 0 0 14.0404
-5.4698906 7.2424316 0.33551988 915 0 0 0 14.44185
-4.6525321 7.1954985 0.31822175 926 0 0 0 15.61769
-4.0708556 7.0162749 0.10158475 901 0 0 0 16.39193
-3.9305038 7.176507 0.2033655 926 0 0 0 16.777399
2.9904182 7.3907094 0.18998316 654.5 0 0 0 30.83803
3.2108874 7.1641216 0.47806549 739.5 0 0 0 31.428761
7.8022089 7.488029 0.10620984 178 0 0 0 37.481209
9.2254305 7.4304986 0.11259839 272.5 0 0 0 38.85054
9.8991461 7.3867812 0.11573195 263 0 0 0 39.436039
10.460546 7.4097376 0.11867604 137 0 0 0 39.829399
10.96398 7.3661146 0.12109836 133 0 0 0 40.214672
11.583768 7.3733149 0.12438601 119 0 0 0 40.602821
12.376303 7.2477989 0.12819186 190 0 0 0 41.19622
12.631007 7.1857309 0.49306899 224 0 0 0 41.39418
-11.350888 7.5073929 0.48847985 365 0 0 0 8.9740295
-3.869041 7.7408886 0.21317574 882.75 0 0 0 17.366995
4.9938927 7.9931102 0.098515958 258 0 0 0 33.575401
5.3574147 7.9051981 0.098948136 220 0 0 0 34.151268
5.735487 7.8223968 0.099675544 323 0 0 0 34.746288
6.1382256 7.74968 0.10072851 224.5 0 0 0 35.32515
6.7102742 7.6598778 0.10246126 209.5 0 0 0 36.115513
7.3034992 7.5484509 0.10433958 210 0 0 0 36.897186
8.2530794 7.5366163 0.10848916 194 0 0 0 37.87933
8.6344242 7.5014901 0.1100908 266 0 0 0 38.266739
-3.8388176 8.4513474 0.22595833 792.5 0 0 0 17.94577
3.0338511 8.0503101 0.20244601 516.5 0 0 0 30.44841
4.3865886 8.3367662 0.099307835 241 0 0 0 32.40369
4.6920466 8.1687422 0.098898247 215.5 0 0 0 32.98555
-3.8143952 8.9843063 0.11423278 672 0 0 0 18.33658
-0.51726162 8.8405857 0.10172671 194 0 0 0 23.806311
3.1018367 8.8705368 0.21829054 455.5 0 0 0 30.04738
-3.822571 9.0089951 0.35762829 703 0 0 0 18.33658
-2.2089953 9.4546032 0.35296148 1951 0 0 0 21.072029
0.26782292 9.4673977 0.10513226 303 0 0 0 25.176609
0.72761405 9.3727236 0.10400575 332 0 0 0 25.955669
1.1876175 9.3204174 0.10337031 321.5 0 0 0 26.736385
1.6549656 9.3006554 0.1031473 554.5 0 0 0 27.52059
2.2364957 9.2304373 0.10277679 489.33334 0 0 0 28.492752
2.8000097 9.072319 0.10199998 306.5 0 0 0 29.468769
5.2970576 9.4677839 0.38023198 202 0 0 0 32.790199
5.729517 9.4031754 0.38498491 176.5 0 0 0 33.378151
6.3404498 9.333498 0.39302677 168 0 0 0 34.151268
6.8164153 9.2759647 0.39992279 149 0 0 0 34.746288
7.3254671 9.2287903 0.40834054 155 0 0 0 35.32515
7.9015627 9.231267 0.4197697 153 0 0 0 35.916153
8.3450909 9.2744493 0.42991912 318 0 0 0 36.314873
8.8222742 9.3295355 0.44129178 173 0 0 0 36.704487
9.2780848 9.3376837 0.45136121 127 0 0 0 37.08989
9.7518215 9.3406868 0.46196738 210 0 0 0 37.481209
10.315624 9.402462 0.47617266 108 0 0 0 37.87933
10.901774 9.4537859 0.49093226 116 0 0 0 38.266739
-3.7285137 9.6644087 0.20455818 469.33334 0 0 0 18.865602
-3.1923995 9.7896109 0.11746997 331 0 0 0 19.707005
-2.6580019 9.7446537 0.11509093 310 0 0 0 20.495384
-2.1499791 9.7414379 0.11327676 345 0 0 0 21.266041
-1.6524155 9.7313538 0.11159223 269 0 0 0 22.048664
-1.1634786 9.7251434 0.11011664 231 0 0 0 22.823776
-0.79564923 9.6509237 0.1085711 235 0 0 0 23.41198
-0.20007126 9.5758629 0.10661177 300.5 0 0 0 24.38656
3.1820173 9.848608 0.36660832 255 0 0 0 29.66029
5.0403352 9.5551901 0.37906694 185 0 0 0 32.40369
-3.7730308 10.294699 0.39623138 564 0 0 0 19.12043
-2.9132311 10.211571 0.38374031 458 0 0 0 20.302811
2.8101642 10.417379 0.38134354 584 0 0 0 28.8773
3.0081089 10.154099 0.37462667 705 0 0 0 29.27725
-3.6963654 10.920189 0.41463122 264 0 0 0 19.510071
-2.8352225 10.973067 0.40700063 606 0 0 0 20.68796
-2.2636325 10.951768 0.40122044 651 0 0 0 21.460051
-1.8423791 10.925578 0.39719495 636 0 0 0 22.048664
-3.4280262 11.010327 0.41434908 553 0 0 0 19.90394
-1.4953449 11.450559 0.41186732 311 0 0 0 22.63097
2.7998972 11.470024 0.41442013 206 0 0 0 28.4951
-0.67575049 12.10854 0.42933026 1139 0 0 0 23.806311
-0.24525024 13.450447 0.47175777 144 0 0 0 24.38656
0.24992591 13.385601 0.46891865 137 0 0 0 24.978861
0.74820787 13.432219 0.47047919 116 0 0 0 25.565796
1.9135052 13.408805 0.47202352 127 0 0 0 26.932751
2.2472267 13.382526 0.47243798 109 0 0 0 27.328119
2.750288 13.33921 0.47347668 129 0 0 0 27.90946
-1.2569244 13.639699 0.48159575 118.5 0 0 0 23.214279
1.2716265 13.690196 0.4794569 89 0 0 0 26.15411
1.5906748 13.5141 0.47445738 25 0 0 0 26.54002
67.192375 -63.951057 0.62078208 8 0 0 0 61.700314
0.66857404 -27.664997 0.91432917 29 0 0 0 74.227989
-0.010229883 -27.393528 0.90579712 36 0 0 0 74.614197
1.297834 -26.642647 0.88225627 47 0 0 0 73.82917
-13.216689 -24.720806 0.93090433 16 0 0 0 82.438118
-12.107109 -24.045883 0.89533144 5 0 0 0 82.049477
-10.678072 -24.080107 0.87653589 29 0 0 0 81.269745
-14.904201 -23.532818 0.92552119 9 0 0 0 83.608528
-15.487404 -23.175674 0.92617553 53 0 0 0 84.000259
-14.082067 -23.490366 0.91051549 4 0 0 0 83.220818
-11.117987 -23.499107 0.86565822 20 0 0 0 81.665993
-16.541433 -22.301739 0.92280644 67 0 0 0 84.785378
-16.511446 -21.156206 0.89310765 83 0 0 0 85.172241
5.4580269 -19.777887 0.68420434 113 0 0 0 70.316246
6.160058 -18.695726 0.65728927 139 0 0 0 69.528946
3.6202478 -16.188515 0.76269132 91.5 0 0 0 71.094116
4.0784616 -16.343315 0.9804495 46 0 0 0 70.708992
-14.312965 -15.792488 0.71660233 116 0 0 0 86.356979
-0.79093415 -15.890093 0.93044412 125 0 0 0 75.405296
-0.27137905 -15.906723 0.80081695 93 0 0 0 74.876549
-3.860358 -15.384057 0.92899948 27 0 0 0 78.529312
-14.07709 -12.760555 0.6425187 169 0 0 0 87.916641
-14.0109 -12.08793 0.62663907 195 0 0 0 88.299767
14.854166 -12.211794 0.63651496 99 0 0 0 60.530048
-13.870166 -11.385203 0.60867959 120 0 0 0 88.69133
18.721861 -11.238152 0.71668422 79 0 0 0 58.186352
75.793777 -11.22711 0.50921297 14 0 0 0 51.934921
-13.798982 -10.771254 0.59457588 113 0 0 0 89.090149
19.798771 -10.597881 0.73573601 42 0 0 0 57.407192
-13.887424 -9.7832298 0.57787013 52 0 0 0 89.874413
19.115673 -9.6367655 0.70290911 64 0 0 0 57.01004
-14.41451 -9.1303692 0.99760622 146 0 0 0 90.661072
-13.950812 -9.3242836 0.57115012 176 0 0 0 90.273102
-11.974407 -9.3476925 0.89237148 132 0 0 0 89.090149
19.587988 -9.2784243 0.71111459 47 0 0 0 56.612648
129.06549 -9.4881277 0.83827507 107 0 0 0 50.767689
-17.823257 -8.9730644 0.67165101 101 0 0 0 92.211166
-12.268313 -8.6432276 0.88187963 90 0 0 0 89.874413
-11.927835 -8.8492546 0.50981957 113 0 0 0 89.487778
26.108601 -8.6344643 0.89218742 36 0 0 0 54.672421
14.793501 -8.3975163 0.77437472 158.5 0 0 0 57.7883
18.676966 -8.2924404 0.67242831 79 0 0 0 56.223881
-12.64238 -7.5805345 0.5059157 126 0 0 0 91.052757
-11.875987 -7.9383421 0.84107482 175 0 0 0 90.273102
4.3808436 -7.7699785 0.75695455 302.5 0 0 0 66.397461
26.33683 -7.9979053 0.89288932 5 0 0 0 54.280567
-14.954118 -7.074894 0.76577169 62 0 0 0 92.599823
-13.735355 -7.3442593 0.91346014 143 0 0 0 91.822678
-12.81817 -7.2642431 0.86610889 176 0 0 0 91.443604
4.4658532 -7.4848485 0.95164627 645 0 0 0 66.008438
-15.457601 -6.8538032 0.57433045 64 0 0 0 92.989365
-15.429523 -6.3927913 0.97635204 29 0 0 0 93.393211
-14.501682 -6.430212 0.92930436 60 0 0 0 92.989365
3.3698115 -6.3423014 0.70324802 220.5 0 0 0 66.799057
3.5757074 -6.229073 0.84963733 253.33333 0 0 0 66.267784
-72.99128 -3.5791092 0.52317482 6 0 0 0 98.859665
24.018501 2.9683802 0.79251778 64 0 0 0 47.647568
15.441046 3.4780161 0.53171325 197 0 0 0 46.071281
15.525976 3.4967129 0.92491293 311 0 0 0 46.071281
16.290451 3.24951 0.76162624 237.5 0 0 0 46.469662
18.238321 3.1727765 0.6152091 148 0 0 0 46.860722
21.828981 3.2450671 0.72617 110 0 0 0 47.25407
30.412899 3.0005844 0.9909004 43 0 0 0 48.035168
15.161538 3.8095279 0.71944261 363.5 0 0 0 45.685139
14.707941 4.2795715 0.51644313 374.5 0 0 0 45.102448
15.066082 4.1822906 0.90989339 558 0 0 0 45.302719
14.658381 4.7244964 0.77192187 161 0 0 0 44.644863
-7.0825353 5.4422798 0.54737788 465 0 0 0 10.1461
-6.6449747 5.3640947 0.62902832 736 0 0 0 10.53242
-6.2968526 5.4253159 0.78419131 839.66669 0 0 0 11.054334
-5.8534822 5.4716768 0.69165379 785 0 0 0 11.70198
14.253207 5.2492499 0.6382699 94.666664 0 0 0 43.996643
-13.625857 5.9826012 0.53005165 333 0 0 0 6.2406301
-12.606409 5.9024839 0.83611029 270 0 0 0 6.6296301
-10.193508 5.7059894 0.85037923 424.5 0 0 0 7.8039498
-9.7666893 5.781352 0.9675948 674 0 0 0 8.1871204
-8.1311531 5.6467562 0.72600925 770 0 0 0 9.3684597
-7.7624283 5.7713752 0.74968553 580.66669 0 0 0 9.881567
-6.7069201 5.6922088 0.68513519 662 0 0 0 10.924121
-5.7604165 5.6557546 0.84291679 952.5 0 0 0 12.092917
13.940536 5.7954583 0.51025242 367 0 0 0 43.350121
14.248516 5.7192502 0.89507043 173.5 0 0 0 43.542374
-12.406259 6.1821361 0.83297747 216 0 0 0 7.01438
-11.56852 6.118413 0.78815484 259 0 0 0 7.40903
-10.2099 6.0492344 0.71758658 290 0 0 0 8.1871204
-9.654213 6.2044115 0.97849822 335 0 0 0 8.7751942
-6.152813 6.3523183 0.76088154 384 0 0 0 12.48185
3.0531635 6.2033348 0.76658773 1077 0 0 0 32.013741
14.138311 6.2896514 0.71253085 223.5 0 0 0 42.954288
-6.3564744 6.5683227 0.55987519 800 0 0 0 12.48185
-4.7760139 6.6415462 0.70427799 857.66669 0 0 0 14.83228
13.262766 6.7021189 0.68588293 328.5 0 0 0 42.174858
13.812538 6.557188 0.70445091 238.5 0 0 0 42.561619
-11.942375 7.488059 0.8475033 319 0 0 0 8.5763597
-11.308465 7.4788923 0.81634247 347 0 0 0 8.9740295
-7.7964563 7.3224483 0.65032512 499 0 0 0 11.70198
-7.4188542 7.314527 0.63419586 569 0 0 0 12.09392
-6.6901951 7.2674484 0.7247473 662.5 0 0 0 12.86727
-6.2015524 7.2472653 0.70082343 730.75 0 0 0 13.459946
-5.7418022 7.2288771 0.67902541 898 0 0 0 14.0404
-5.4402366 7.2009521 0.77401805 932.33331 0 0 0 14.44185
-4.7670965 7.1760325 0.74025559 934.16669 0 0 0 15.422165
-4.2696362 7.1600533 0.71730453 995.83331 0 0 0 16.19812
-3.9198263 7.1567178 0.70274657 987 0 0 0 16.777399
3.210804 7.1662478 0.76952499 832.5 0 0 0 31.428759
13.123097 7.1820502 0.75210953 238 0 0 0 41.648636
-12.002872 7.5265417 0.50720769 317 0 0 0 8.5763597
-3.8798923 7.7636356 0.74573421 804.5 0 0 0 17.366995
3.1624651 7.8029475 0.51041067 172 0 0 0 30.83803
12.801903 7.7053227 0.68982363 267.5 0 0 0 40.99826
-3.8476911 8.4722376 0.68363285 711.5 0 0 0 17.94577
3.2500842 8.2079573 0.75077981 80.333336 0 0 0 30.708155
12.438443 8.3476601 0.6916284 268.5 0 0 0 40.214672
12.610096 8.0195694 0.68997389 249 0 0 0 40.602821
3.2902839 8.715003 0.79352736 288 0 0 0 30.44841
12.249716 8.6661224 0.69316733 213 0 0 0 39.829399
-3.8300092 9.0255051 0.71876413 645 0 0 0 18.33658
-1.0060225 9.3664541 0.80584317 252 0 0 0 23.016581
11.976006 9.3903551 0.51551378 276 0 0 0 39.043221
12.089906 9.1637335 0.76261252 320 0 0 0 39.305099
-3.8023827 9.6218681 0.75648546 579 0 0 0 18.73819
3.3505232 9.9446201 0.62829947 298.5 0 0 0 29.853836
11.784632 9.7179871 0.70637619 156 0 0 0 38.65786
-3.7809148 10.314993 0.80138361 454.5 0 0 0 19.12043
2.9056172 10.273123 0.63914037 409.5 0 0 0 29.077274
11.724332 10.162561 0.90586168 234 0 0 0 38.266739
-3.6769741 10.859617 0.83430701 455 0 0 0 19.510071
-3.2701154 10.969615 0.83273 383.75 0 0 0 20.103374
-2.6861105 10.943002 0.81961209 574 0 0 0 20.879993
-2.2575009 10.918392 0.81076229 618.5 0 0 0 21.460051
-1.8396132 10.905525 0.80399615 561 0 0 0 22.048664
3.4636462 10.704468 0.95163822 573 0 0 0 29.66029
5.7329144 10.849537 0.72675914 140 0 0 0 32.40369
6.2625971 10.855476 0.74106336 104.5 0 0 0 32.98555
6.8281603 10.884181 0.75833172 76 0 0 0 33.575401
7.1814671 10.842822 0.76681834 84 0 0 0 33.956791
11.487453 10.992073 0.92767668 132 0 0 0 37.481209
11.592956 10.559261 0.91528404 250 0 0 0 37.87933
-1.5008271 11.484345 0.98386341 294 0 0 0 22.63097
-1.496009 11.45882 0.69451189 316 0 0 0 22.63097
11.361993 11.420357 0.93963891 202 0 0 0 37.08989
2.8199968 11.548519 0.70819801 240 0 0 0 28.4951
8.0543966 11.525178 0.82577986 76 0 0 0 34.345741
8.5524559 11.615144 0.84604162 83 0 0 0 34.746288
9.0860882 11.7213 0.8686983 72 0 0 0 35.129501
9.6515179 11.834334 0.89326 84 0 0 0 35.520802
10.231753 11.931041 0.91815376 73 0 0 0 35.916153
11.251995 11.88013 0.95402724 144 0 0 0 36.704487
10.875389 12.064657 0.94747013 74 0 0 0 36.314873
-1.0220349 12.755074 0.76457989 201 0 0 0 23.41198
-1.4289818 13.677938 0.81986314 154 0 0 0 23.016581
2.9619443 13.515553 0.8190605 139 0 0 0 28.10586
0.3224431 16.306307 0.96303171 131 0 0 0 24.978861
3.1721568 16.315941 0.9775629 87 0 0 0 27.71306
2.3832381 16.569155 0.98522258 61 0 0 0 26.932751
2.7921679 16.517595 0.9854458 33 0 0 0 27.328119
3.9717379 -40.428848 1.3239899 37 0 0 0 73.051674
10.039524 -40.126442 1.3438925 9 0 0 0 70.708992
6.8103895 -39.313007 1.2993149 13 0 0 0 71.882561
7.7960439 -39.250256 1.3024853 15 0 0 0 71.489159
14.107585 -39.46286 1.3586049 12 0 0 0 69.13961
5.6474395 -38.145889 1.2575134 39 0 0 0 72.266563
23.879356 -37.730389 1.4390825 9 0 0 0 65.626526
4.5955014 -37.346897 1.2284715 21 0 0 0 72.655602
-4.4452772 -35.977638 1.1893535 14 0 0 0 76.576683
30.643711 -30.659988 1.392149 5 0 0 0 62.089859
11.690393 -30.343702 1.0616473 11 0 0 0 68.75396
12.490499 -30.190231 1.0660199 19 0 0 0 68.366554
-10.456679 -29.210115 1.0255083 13 0 0 0 80.097351
30.564482 -29.116064 1.3560505 9 0 0 0 61.700314
25.134317 -27.750425 1.2083859 30 0 0 0 62.87878
18.058043 -27.050587 1.0574319 11 0 0 0 65.23243
31.282831 -27.000477 1.3271707 55 0 0 0 60.916447
18.229586 -25.908161 1.0304111 39 0 0 0 64.838562
35.290302 -23.593399 1.3600981 6 0 0 0 58.96632
31.432007 -23.326506 1.2576616 43 0 0 0 59.74778
35.55064 -22.524967 1.3483442 11 0 0 0 58.573719
28.218472 -22.038198 1.1538723 22 0 0 0 60.140751
31.48275 -22.187252 1.2377163 15 0 0 0 59.36124
5.9855356 -19.782703 1.1944389 115 0 0 0 69.928551
6.6762362 -18.704681 1.1485604 184 0 0 0 69.13961
-3.9766121 -17.676594 1.056065 21 0 0 0 78.130554
-3.0093794 -17.315477 1.4623291 7 0 0 0 77.361374
3.7668726 -16.82658 1.4321185 94 0 0 0 71.094116
-0.79366642 -16.004585 1.3355064 55 0 0 0 75.405296
4.4846206 -16.250809 1.4005003 37 0 0 0 70.316246
-14.326386 -15.807248 1.2392108 123 0 0 0 86.356979
-0.0083496384 -15.796459 1.3166521 201 0 0 0 74.614197
-4.6943011 -15.465199 1.3482577 20 0 0 0 79.315002
-1.0809251 -14.554104 1.2195706 14 0 0 0 75.791672
35.020664 -14.515678 1.2165303 117 0 0 0 55.839729
-14.193557 -14.194772 1.1680665 3 0 0 0 87.135521
1.7711883 -14.448584 1.2151711 41 0 0 0 72.655602
-14.21394 -13.534286 1.1428196 10 0 0 0 87.529121
35.084099 -13.542482 1.2069954 69 0 0 0 55.448551
1.3120885 -13.430292 1.4566784 47 0 0 0 73.051674
-14.078219 -12.761516 1.1074833 181 0 0 0 87.916641
35.011875 -12.535913 1.1938819 36 0 0 0 55.05611
-14.071437 -12.140069 1.0839138 177 0 0 0 88.299767
14.970371 -12.307134 1.1158706 146 0 0 0 60.530048
-13.900788 -11.410259 1.0499753 19 0 0 0 88.69133
42.063408 -10.541428 1.3862052 15 0 0 0 53.49585
-14.00347 -10.389954 1.2360067 108.5 0 0 0 89.487778
18.999222 -10.170822 1.2354614 79 0 0 0 57.407192
-12.246272 -9.5631666 1.2985959 40 0 0 0 89.090149
19.174717 -9.6666107 1.231084 78 0 0 0 57.01004
-17.926306 -9.0247946 1.1665423 46 0 0 0 92.211166
-15.261901 -9.1516685 1.2600698 65 0 0 0 91.052757
-13.937012 -9.3184195 1.3981856 75 0 0 0 90.273102
19.897528 -9.4249134 1.2612171 62 0 0 0 56.612648
4.365272 -8.7054062 1.2987816 30 0 0 0 67.184525
22.559521 -8.7137594 1.3815879 38 0 0 0 55.448551
-11.688555 -8.2380352 1.197852 103 0 0 0 89.874413
4.3112917 -8.098424 1.3396554 311 0 0 0 66.799057
14.775525 -8.384058 1.4050835 134 0 0 0 57.7883
18.503736 -8.2158413 1.1626256 68 0 0 0 56.223881
36.174438 -8.1285486 1.1905342 14 0 0 0 53.104809
-13.784625 -7.8145881 1.3231887 79 0 0 0 91.443604
-12.228476 -7.7495151 1.2121451 81 0 0 0 90.661072
43.899864 -7.6203709 1.4238303 24 0 0 0 52.331841
-14.996506 -7.0979877 1.3834642 90 0 0 0 92.599823
-13.951991 -7.0282302 1.3048419 48 0 0 0 92.211166
-13.449649 -7.1945467 1.2749447 79 0 0 0 91.822678
4.6626477 -7.3929806 1.3853438 108 0 0 0 65.626526
-14.912389 -6.6151767 1.3607877 67 0 0 0 92.989365
-15.145261 -6.2781119 1.3672459 39 0 0 0 93.393211
3.4751472 -6.1683493 1.3040246 330 0 0 0 66.397461
31.057838 -6.1830797 1.0222168 49 0 0 0 52.71928
3.4471798 -5.7843709 1.3244965 20.5 0 0 0 66.008438
3.5205977 -5.9067893 1.0974174 26 0 0 0 66.008438
37.89212 2.7996311 1.2227315 40 0 0 0 48.427181
15.499149 3.4931545 1.3198858 305 0 0 0 46.071281
22.005323 3.270752 1.2772185 123 0 0 0 47.25407
25.198986 3.1134984 1.4521234 67 0 0 0 47.647568
15.269931 3.8389368 1.3086407 391 0 0 0 45.685139
21.124956 3.6732619 1.2326545 127 0 0 0 46.860722
15.037996 4.1769528 1.297806 517 0 0 0 45.302719
14.690839 4.6707296 1.28285 530.5 0 0 0 44.70919
14.271236 5.3250179 1.2683865 287.5 0 0 0 43.931137
-11.897103 5.9232807 1.1281009 418 0 0 0 7.01438
-10.212847 5.7154622 1.2786953 451 0 0 0 7.8039498
-9.7728033 5.784832 1.2417221 580 0 0 0 8.1871204
-8.6000547 5.6682239 1.1287129 615 0 0 0 8.9740295
-8.1876926 5.6853175 1.0932752 825 0 0 0 9.3684597
-7.825223 5.8671522 1.0735223 810 0 0 0 9.9477005
-6.8222756 5.7886167 1.2023835 745 0 0 0 10.92306
-6.2873583 5.7392149 1.3541875 614.5 0 0 0 11.50943
-5.0032578 5.679709 1.2072331 1044 0 0 0 13.26821
-4.6303878 5.6565037 1.1670461 960.5 0 0 0 13.84604
-4.2542305 5.8368349 1.2607399 974 0 0 0 14.75498
-11.447437 6.0508504 1.2562857 429 0 0 0 7.40903
-9.7599888 6.1045556 1.2586684 372 0 0 0 8.5763597
-6.9903398 6.2374272 1.0298269 343 0 0 0 11.31688
-6.1249237 6.0170827 1.3659325 534 0 0 0 12.09392
-4.1262569 6.1934271 1.188585 727 0 0 0 15.422165
-3.9173222 6.2579465 1.2999643 1127.6666 0 0 0 15.875438
3.0409756 6.1793218 1.2745275 1134.6666 0 0 0 32.013741
14.229402 6.3323226 1.2962683 362 0 0 0 42.954288
14.597442 6.0696268 1.3150785 155 0 0 0 43.350121
-8.2067337 6.6410065 1.4147387 299 0 0 0 10.53242
-6.3619719 6.5695724 1.3413099 490.5 0 0 0 12.48185
-4.7643514 6.6219854 1.0999637 786 0 0 0 14.83228
-3.8403485 6.6085548 1.4083357 1010 0 0 0 16.39193
3.2292278 6.9762936 1.2277191 1340.6666 0 0 0 31.62484
13.368929 6.7577987 1.2484213 242 0 0 0 42.174858
13.846614 6.5755835 1.276493 205 0 0 0 42.561619
-8.1416178 7.2773161 1.4630591 525 0 0 0 11.31688
-7.7407613 7.2643228 1.4230598 572 0 0 0 11.70198
-7.3539362 7.2445946 1.3846183 562 0 0 0 12.09392
-6.6654167 7.2376719 1.2008429 648 0 0 0 12.86727
-6.1805229 7.2199783 1.1610303 717 0 0 0 13.459946
-5.7237105 7.2033119 1.1248592 870.5 0 0 0 14.0404
-5.4296837 7.1834764 1.2114916 861 0 0 0 14.44185
-4.7560101 7.155724 1.1574903 899 0 0 0 15.422165
-4.2141209 7.1287332 1.1840954 970.33331 0 0 0 16.262724
-3.9196086 7.1529865 1.2005787 880.5 0 0 0 16.777399
3.1699636 7.3113136 1.2717032 189.66667 0 0 0 31.232679
13.184114 7.2874765 1.255502 178.5 0 0 0 41.585022
-3.8774595 7.7550564 1.2748504 820.25 0 0 0 17.366995
12.86633 7.7462578 1.2518754 199 0 0 0 40.99826
-3.8529375 8.4809551 1.139045 669 0 0 0 17.94577
3.3036628 8.1488829 1.2902651 22.5 0 0 0 30.83803
12.487031 8.3825045 1.2538524 231 0 0 0 40.214672
12.6937 8.0748587 1.2541083 156 0 0 0 40.602821
-3.8743834 8.5279617 1.4905083 770 0 0 0 17.94577
3.2787151 8.6862288 1.2462643 197.66667 0 0 0 30.44841
12.328362 8.7239285 1.2590867 271 0 0 0 39.829399
-3.8319354 9.0267429 1.1974716 616 0 0 0 18.33658
-0.9958418 9.2660923 1.0234953 852 0 0 0 23.016581
12.129303 9.2743549 1.2727907 236.5 0 0 0 39.239632
-3.8066387 9.6291256 1.2629793 560.5 0 0 0 18.73819
2.9584212 9.9978867 1.3948489 648 0 0 0 29.27725
3.2660923 9.8390608 1.3008035 498 0 0 0 29.789322
11.938875 9.847147 1.2896631 198 0 0 0 38.65786
-3.7835715 10.318213 1.3384378 445.5 0 0 0 19.12043
2.869225 10.153283 1.2825644 486.5 0 0 0 29.077274
11.805543 10.235576 1.3018627 224 0 0 0 38.266739
2.6007171 10.684728 1.4695576 412 0 0 0 28.4951
11.645541 10.609972 1.3124609 199 0 0 0 37.87933
-3.7386529 11.044332 1.2752591 269 0 0 0 19.510071
11.42909 11.490723 1.3494186 211 0 0 0 37.08989
11.539933 11.045194 1.3304061 197 0 0 0 37.481209
-2.7530932 11.872396 1.3305609 473 0 0 0 21.072029
11.319774 11.954713 1.3703868 169 0 0 0 36.704487
1.412562 12.081669 1.0282402 4828 0 0 0 26.54002
-1.0167106 12.660997 1.2286687 200 0 0 0 23.41198
3.7319615 12.543896 1.1016237 124 0 0 0 29.27725
11.300926 12.537595 1.4042073 153 0 0 0 36.314873
2.9411128 13.431578 1.1566405 178 0 0 0 28.10586
3.6174641 13.338544 1.1617347 414 0 0 0 28.8773
4.691011 13.311504 1.1846396 376 0 0 0 30.04738
11.297915 13.170361 1.4427261 139 0 0 0 35.916153
0.93864357 13.790435 1.331903 173.5 0 0 0 25.757231
3.3101845 13.512099 1.1695182 430 0 0 0 28.4951
11.381174 13.945168 1.4954082 132 0 0 0 35.520802
7.682858 14.500826 1.3691899 56 0 0 0 32.40369
8.1696796 14.540377 1.3905367 54 0 0 0 32.790199
8.7655325 14.735633 1.428059 50 0 0 0 33.180901
9.3197956 14.821771 1.4570632 55 0 0 0 33.575401
9.9394093 14.973122 1.4942172 38 0 0 0 33.956791
3.17133 16.323639 1.3921301 125 0 0 0 27.71306
-0.76801932 18.690578 1.1016024 261.5 0 0 0 23.998631
-0.07830137 18.668276 1.098089 675 0 0 0 24.58217
0.8385756 18.634924 1.0961823 192 0 0 0 25.374359
1.2972962 18.620773 1.0963391 225 0 0 0 25.757231
1.7562855 18.599329 1.0967219 192 0 0 0 26.15411
-9.0137835 -60.724285 1.9901689 5 0 0 0 76.962097
-2.9752009 -60.421139 1.9589577 9 0 0 0 75.405296
6.1259742 -30.859362 1.8015658 15 0 0 0 71.489159
12.81751 -30.978802 1.9135447 5 0 0 0 68.366554
9.9733562 -30.23163 1.8201849 29 0 0 0 69.528946
-11.716693 -28.275963 1.7615002 14 0 0 0 80.87632
-14.670447 -27.440462 1.7908081 15 0 0 0 82.438118
0.65522718 -27.117264 1.5606505 6 0 0 0 74.227989
1.2948103 -26.578142 1.5313143 27 0 0 0 73.82917
18.797428 -26.713806 1.8610324 26 0 0 0 64.838562
20.384527 -26.142017 1.887136 23 0 0 0 64.059288
22.196573 -25.75247 1.9334788 23 0 0 0 63.276798
-11.711723 -24.754509 1.5800598 18 0 0 0 81.665993
-12.035212 -23.903152 1.5450307 5 0 0 0 82.049477
-16.540255 -22.300133 1.6021377 90 0 0 0 84.785378
-14.237469 -22.480082 1.5367986 27 0 0 0 83.608528
-16.512693 -21.15778 1.5499065 75 0 0 0 85.172241
-14.094373 -19.009657 1.9596826 16 0 0 0 84.785378
7.2163291 -18.740967 1.6605679 238 0 0 0 68.75396
-14.302415 -18.332598 1.926121 73 0 0 0 85.172241
-2.2701635 -18.362164 1.9863669 14 0 0 0 76.576683
-0.88709438 -17.918537 1.9265534 29 0 0 0 75.405296
28.233849 -17.893751 1.8969676 13 0 0 0 58.573719
-14.229171 -17.34412 1.859633 22 0 0 0 85.564522
4.718173 -17.093245 1.9018599 22 0 0 0 70.316246
28.717833 -17.227102 1.9001731 4 0 0 0 58.186352
3.3531587 -16.913536 1.8509306 20 0 0 0 71.489159
-14.108512 -16.361582 1.7921611 50 0 0 0 85.96524
-1.2227916 -16.485243 1.7780108 91 0 0 0 75.791672
-14.206203 -15.680125 1.7558894 195 0 0 0 86.356979
-4.8017149 -15.819741 1.779618 20 0 0 0 79.315002
-4.3242044 -15.613519 1.7445202 22 0 0 0 78.920311
-3.5511315 -15.79498 1.7429677 23 0 0 0 78.130554
-0.0082787229 -15.742145 1.6943285 101 0 0 0 74.614197
2.3391466 -15.841681 1.7218206 55 0 0 0 72.266563
0.73986495 -15.249207 1.6438931 113 0 0 0 73.82917
1.1065409 -15.132909 1.633829 32 0 0 0 73.446671
1.8874849 -15.388373 1.6682906 54 0 0 0 72.655602
2.6295214 -15.21966 1.6617568 21 0 0 0 71.882561
-14.072959 -14.787333 1.6952891 153 0 0 0 86.74881
1.0979899 -14.980822 1.9868797 121 0 0 0 73.446671
-3.8960466 -14.074854 1.9347056 72 0 0 0 78.920311
-2.0996213 -14.131321 1.8927044 18 0 0 0 76.962097
-15.963827 -13.107454 1.714752 9 0 0 0 88.69133
-14.076226 -13.407823 1.6160549 33 0 0 0 87.529121
-2.3420086 -13.478724 1.8140125 23 0 0 0 77.361374
-0.0065902672 -13.265764 1.7590954 61 0 0 0 74.614197
1.6431537 -13.392659 1.787943 82 0 0 0 72.655602
-14.07419 -12.762271 1.5801553 162 0 0 0 87.916641
-0.0068024313 -12.653811 1.9923353 33 0 0 0 74.614197
-14.08161 -12.153022 1.7735363 163.5 0 0 0 88.299767
15.056653 -12.373525 1.6074095 79 0 0 0 60.530048
-14.246807 -11.698165 1.9817557 31 0 0 0 88.69133
-14.007979 -10.395075 1.8770567 117 0 0 0 89.487778
19.158785 -10.251898 1.7868607 59 0 0 0 57.407192
19.7887 -9.9713421 1.8213835 60 0 0 0 57.01004
-15.254416 -9.1488543 1.9130815 110 0 0 0 91.052757
-13.959483 -9.333353 1.808152 97 0 0 0 90.273102
4.537025 -9.0458994 1.8489995 37 0 0 0 67.184525
-12.133086 -8.5510492 1.602463 95 0 0 0 89.874413
4.4561124 -8.8855 1.5708442 212 0 0 0 67.184525
26.593765 -8.79494 1.5943677 47 0 0 0 54.672421
4.4200206 -8.3013554 1.8369952 253.5 0 0 0 66.799057
18.33444 -8.1371508 1.6521615 90 0 0 0 56.223881
30.498678 -8.4478817 1.7966416 17 0 0 0 53.893848
-14.045696 -7.5130372 1.7167006 77 0 0 0 91.822678
-13.566793 -7.6911077 1.681571 90 0 0 0 91.443604
-12.466535 -7.9001913 1.5934281 103 0 0 0 90.661072
5.3394442 -7.8117719 1.9639275 225.5 0 0 0 65.035492
19.073275 -7.9095812 1.6995858 56 0 0 0 55.839729
-14.514078 -7.3110504 1.7506602 76 0 0 0 92.211166
4.0780883 -7.2281213 1.92975 401 0 0 0 66.397461
4.6676393 -7.4007773 1.6033195 184 0 0 0 65.626526
3.3862016 -6.3671031 1.8583312 36 0 0 0 66.799057
3.8795981 -6.1567278 1.6057032 52.5 0 0 0 65.626526
31.047352 -6.1814022 1.7975242 70 0 0 0 52.71928
-48.160332 -5.9292583 1.5733987 21 0 0 0 97.690269
-50.672215 -4.9787092 1.6484437 18 0 0 0 98.071434
-48.557751 -3.5697269 1.5772018 18 0 0 0 98.459648
50.741245 2.4971023 1.6221364 27 0 0 0 48.812714
26.820412 2.6460426 1.5387075 21 0 0 0 48.035168
15.483934 3.4893632 1.7050644 375 0 0 0 46.071281
22.951582 3.4147208 1.9092143 83 0 0 0 47.25407
15.246436 3.8326676 1.6894497 408 0 0 0 45.685139
21.428446 3.7292917 1.7923075 115 0 0 0 46.860722
15.015912 4.1704493 1.6754096 595 0 0 0 45.302719
20.091311 4.0085297 1.6907349 126 0 0 0 46.469662
14.683146 4.6679101 1.6573875 556 0 0 0 44.70919
14.267746 5.3234825 1.6389413 288 0 0 0 43.931137
-10.232112 5.7238264 1.5669028 478 0 0 0 7.8039498
-9.9194326 5.8700924 1.5410761 576 0 0 0 8.1871204
-8.6968956 5.7302756 1.9060601 308 0 0 0 8.9740295
-8.1615009 5.6629858 1.636093 655 0 0 0 9.3650627
-7.7006559 5.7706208 1.7632524 833.5 0 0 0 9.9477005
-6.7791114 5.7513399 1.6308976 700 0 0 0 10.92306
-6.3676872 5.6705141 1.7731814 458 0 0 0 11.31688
-5.8850808 5.7789879 1.5155511 701 0 0 0 12.092583
-5.2337117 5.6577168 1.6996813 678.5 0 0 0 12.86727
-4.7454605 5.6547971 1.7181567 852.42859 0 0 0 13.65318
-4.2076201 5.8302231 1.8505234 1016.6667 0 0 0 14.833591
3.3291438 5.9982581 1.7767853 143 0 0 0 32.790199
-12.104822 6.0245128 1.8034251 219 0 0 0 7.01438
-11.671833 6.1676526 1.7615575 295 0 0 0 7.40903
-10.518522 6.2283344 1.9334742 349 0 0 0 8.1871204
-9.6099672 6.0071926 1.5158806 671 0 0 0 8.5763597
-7.5985303 6.1424236 1.7904735 393 0 0 0 10.53242
-4.8389969 6.2284718 1.6439028 546 0 0 0 14.241125
-4.1872053 6.1134219 1.7264904 604.66669 0 0 0 15.225536
-3.8992329 6.2263274 1.8310179 1011.6667 0 0 0 15.875438
3.1675746 6.1762118 1.855657 492.16666 0 0 0 32.273132
15.057337 6.2597156 1.7523216 187 0 0 0 43.350121
-10.266848 6.5978651 1.7817341 454 0 0 0 8.7751942
-9.5626154 6.6499181 1.5579773 393 0 0 0 9.3684597
-4.7360072 6.5821691 1.6899334 866 0 0 0 14.83228
3.2136753 6.9436336 1.7886368 1174.6666 0 0 0 31.62484
13.797475 6.9730873 1.663635 147 0 0 0 42.174858
14.485487 6.8773413 1.7240366 123 0 0 0 42.561619
14.686789 6.5346556 1.7280893 164 0 0 0 42.954288
-9.5529556 7.179543 1.5984316 358.5 0 0 0 9.9477005
-9.4838762 7.3093696 1.8958185 329 0 0 0 10.1461
-8.7794695 7.2880678 1.8080046 438.5 0 0 0 10.72774
-6.6405344 7.2090602 1.6771272 622 0 0 0 12.86727
-6.3067956 7.189239 1.7548581 667 0 0 0 13.26821
-5.8496981 7.177783 1.7001755 766 0 0 0 13.84604
-4.7343988 7.1232953 1.7819986 783 0 0 0 15.422165
-4.1963768 7.0978742 1.7856065 897.66669 0 0 0 16.262724
-3.9212255 7.1556854 1.7014767 795 0 0 0 16.777399
3.1647692 7.2996001 1.7606282 198 0 0 0 31.232679
13.544456 7.269598 1.654559 261 0 0 0 41.77586
-3.8889942 7.7300577 1.7599856 706.59998 0 0 0 17.327745
12.950249 7.7960777 1.6278534 239 0 0 0 40.99826
13.2801 7.5550056 1.6448709 292 0 0 0 41.39418
-3.8469183 8.4665012 1.7091185 661 0 0 0 17.94577
3.2956445 8.1283159 1.6135238 28 0 0 0 30.83803
12.667089 8.2786484 1.6298962 269 0 0 0 40.408745
-3.9380035 8.6722574 1.9832109 25 0 0 0 17.94577
12.418806 8.7871017 1.6384425 209 0 0 0 39.829399
-3.825258 9.0094566 1.6770537 561 0 0 0 18.33658
12.258789 9.1350079 1.6464453 228 0 0 0 39.436039
-3.8167965 9.6541767 1.7770252 515 0 0 0 18.73819
3.2222703 9.9762163 1.6619279 511 0 0 0 29.66029
12.06061 9.7011003 1.6667348 228.5 0 0 0 38.85054
-3.7835994 10.316561 1.7440338 442 0 0 0 19.12043
2.8615365 10.126145 1.6682718 596.5 0 0 0 29.077274
3.624177 10.332481 1.7340928 301 0 0 0 30.04738
11.856106 10.278578 1.6892413 215 0 0 0 38.266739
2.5738423 10.575819 1.7244847 439 0 0 0 28.4951
11.736087 10.691397 1.7087963 172 0 0 0 37.87933
-3.7385461 11.038863 1.7039926 207 0 0 0 19.510071
11.582725 11.085266 1.7254231 180 0 0 0 37.481209
11.489511 11.550437 1.7528512 150 0 0 0 37.08989
11.407123 12.045712 1.7843822 158 0 0 0 36.704487
11.348 12.588741 1.8223155 194 0 0 0 36.314873
11.365126 13.247429 1.8757639 139 0 0 0 35.916153
-4.241498 13.682985 1.7355082 287.5 0 0 0 19.90394
-3.6929588 13.669181 1.7152755 352.5 0 0 0 20.495384
-3.1481719 13.621595 1.8651295 344 0 0 0 21.072029
-2.7988551 13.636193 1.515117 362 0 0 0 21.460051
-2.4503853 13.628278 1.506856 322 0 0 0 21.854679
11.50551 14.095748 1.9539645 139 0 0 0 35.520802
11.536038 14.86372 1.5616981 64 0 0 0 35.129501
10.563328 15.090556 1.530118 44 0 0 0 34.345741
11.229644 15.227917 1.5704843 49 0 0 0 34.746288
4.2226849 15.523246 1.7376981 203 0 0 0 28.8773
4.2199612 17.141319 1.903906 189 0 0 0 28.4951
3.9217856 17.795513 1.9646616 103 0 0 0 28.10586
3.3431969 19.706732 1.6670802 83 0 0 0 27.328119
-1.0788016 20.278852 1.6987979 132 0 0 0 23.806311
-0.57856518 20.237551 1.6928676 153 0 0 0 24.19095
-0.080951966 20.236797 1.6912529 146 0 0 0 24.58217
0.41580695 20.20499 1.688429 38 0 0 0 24.978861
0.91194201 20.181841 1.6873276 183 0 0 0 25.374359
1.9065548 20.15168 1.6894459 162 0 0 0 26.15411
2.9056942 20.107042 1.6944096 111 0 0 0 26.932751
-16.908974 -61.081764 2.0564754 8 0 0 0 78.920311
-10.559411 -60.820755 2.001663 7 0 0 0 77.361374
49.625504 -60.473259 2.4883051 5 0 0 0 63.670849
45.661175 -58.515049 2.3638868 15 0 0 0 64.059288
11.438889 -41.375847 2.4434617 9 0 0 0 70.316246
6.9312577 -40.007618 2.3154163 20 0 0 0 71.882561
4.8736339 -39.597775 2.2768152 16 0 0 0 72.655602
5.9084611 -39.902386 2.3010306 13 0 0 0 72.266563
2.8846047 -39.238312 2.2468491 6 0 0 0 73.446671
3.8770628 -39.466358 2.2638619 10 0 0 0 73.051674
-14.649114 -37.964172 2.3301039 17 0 0 0 80.488487
24.874876 -33.558659 2.3694158 7 0 0 0 64.451485
30.792645 -30.808767 2.4652631 9 0 0 0 62.089859
12.291075 -27.749207 2.4907026 10 0 0 0 67.96888
0.65770537 -27.020231 2.2278569 30 0 0 0 74.227989
1.3376585 -27.348061 2.2561162 38 0 0 0 73.82917
31.298737 -27.014194 2.340209 59 0 0 0 60.916447
-14.220778 -25.108479 2.3815663 20 0 0 0 82.839294
31.264271 -24.414206 2.2458594 43 0 0 0 60.140751
31.44832 -23.33868 2.2173166 57 0 0 0 59.74778
-14.369747 -22.697737 2.2197404 26 0 0 0 83.608528
-14.350158 -21.482018 2.1360435 23 0 0 0 84.000259
-14.337263 -20.362926 2.0604365 42 0 0 0 84.396179
7.2206631 -18.751873 2.1494977 307 0 0 0 68.75396
-14.124682 -18.10479 2.4601798 46 0 0 0 85.172241
4.0134068 -17.907158 2.4185727 31 0 0 0 71.094116
-14.300027 -17.430445 2.4161525 9 0 0 0 85.564522
4.2901874 -17.16132 2.332365 21 0 0 0 70.708992
-3.7520614 -16.704647 2.2620001 16 0 0 0 78.130554
5.1089087 -16.872345 2.3240826 26 0 0 0 69.928551
-14.120337 -16.375256 2.318644 27 0 0 0 85.96524
-4.0959873 -16.349865 2.2275684 23 0 0 0 78.529312
-14.224381 -15.700138 2.2724936 34 0 0 0 86.356979
-1.5499253 -15.699252 2.0861595 37 0 0 0 76.185722
-0.38596901 -15.514263 2.0523043 49 0 0 0 75.007729
0.38194022 -15.796497 2.0886493 75 0 0 0 74.227989
-2.2298517 -15.012305 2.3838394 45 0 0 0 76.962097
-1.4891905 -15.080616 2.3799798 44 0 0 0 76.185722
-0.38483495 -15.470688 2.4292989 86 0 0 0 75.007729
1.1038324 -15.058319 2.3703496 31 0 0 0 73.446671
2.2418795 -15.167966 2.4060824 24 0 0 0 72.266563
-14.191517 -14.911824 2.2091062 12 0 0 0 86.74881
-5.219564 -14.589902 2.4342363 34 0 0 0 80.097351
-4.8309469 -14.624367 2.4195783 33 0 0 0 79.708496
-2.9048345 -14.592462 2.3379278 26 0 0 0 77.744751
1.4656951 -14.956544 2.3592758 16 0 0 0 73.051674
1.8317391 -14.914749 2.3589036 57 0 0 0 72.655602
34.992653 -14.504392 2.1434166 71 0 0 0 55.839729
-14.078153 -14.084194 2.1381476 33 0 0 0 87.135521
-3.796257 -13.713914 2.2377574 28 0 0 0 78.920311
-3.458993 -13.802819 2.2376323 18 0 0 0 78.529312
1.3300079 -13.584999 2.4835944 63 0 0 0 73.051674
-14.085671 -13.416758 2.0894499 61 0 0 0 87.529121
-3.6425791 -13.157937 2.4860039 10 0 0 0 78.920311
-3.2745969 -13.06564 2.4529908 10 0 0 0 78.529312
-2.9719231 -13.224523 2.4680715 72 0 0 0 78.130554
-1.6419152 -13.278161 2.105294 27 0 0 0 76.576683
14.8293 -13.458109 2.1377642 25 0 0 0 61.317471
-14.077959 -12.765622 2.0420053 196 0 0 0 87.916641
-2.5060787 -12.583742 2.3379736 40 0 0 0 77.744751
-2.2053323 -12.689772 2.3466847 55 0 0 0 77.361374
-1.2747769 -12.894445 2.3602209 44 0 0 0 76.185722
0.3071247 -12.803007 2.0158772 47 0 0 0 74.227989
0.62155688 -12.807104 2.018147 58 0 0 0 73.82917
14.606079 -12.616783 2.061517 79 0 0 0 60.916447
35.062084 -12.554221 2.1078014 38 0 0 0 55.05611
-14.072366 -12.149229 2.4554117 168 0 0 0 88.299767
15.132974 -12.436124 2.0914233 82 0 0 0 60.530048
-14.168116 -11.637646 2.4220083 62 0 0 0 88.69133
-14.179343 -11.075664 2.3773644 3 0 0 0 89.090149
-14.02595 -10.41212 2.3090892 129 0 0 0 89.487778
4.486526 -9.5144634 2.4366887 197 0 0 0 67.574249
77.393478 -9.5437365 2.4657483 8 0 0 0 51.540569
-20.323114 -9.013196 2.3815024 72 0 0 0 92.989365
-19.436359 -9.1975737 2.3047054 7 0 0 0 92.599823
-16.132233 -9.1479692 2.4489827 81 0 0 0 91.443604
-15.281616 -9.1686888 2.3547883 141 0 0 0 91.052757
-14.507942 -9.1963444 2.2710285 131 0 0 0 90.661072
-14.00544 -9.3675156 2.2284291 117 0 0 0 90.273102
-13.266753 -9.3528728 2.1481214 134 0 0 0 89.874413
5.3924642 -9.0217695 2.4346635 124 0 0 0 66.008438
14.644973 -8.7889538 2.2481909 111 0 0 0 58.186352
35.487675 -8.895668 2.0714087 29 0 0 0 53.49585
4.759696 -8.4290552 2.4826579 136 0 0 0 66.397461
14.45861 -8.2015076 2.1889906 47 0 0 0 57.7883
18.168875 -8.0639763 2.120934 99 0 0 0 56.223881
29.442711 -8.1506166 2.4968987 22 0 0 0 53.893848
36.320126 -8.1616993 2.1071491 15 0 0 0 53.104809
5.5514421 -7.7068033 2.203753 301.5 0 0 0 64.64502
25.815491 -7.8354979 2.209233 12 0 0 0 54.280567
3.7524846 -7.0479698 2.4484203 135 0 0 0 66.799057
4.7251248 -7.0978117 2.2956014 254.5 0 0 0 65.23243
5.7465549 -7.3863091 2.4014897 275 0 0 0 64.059288
4.1173429 -6.8020067 2.1924794 141 0 0 0 65.912964
3.3891935 -6.3725352 2.217572 117.5 0 0 0 66.799057
26.209263 2.5899172 2.1611168 58 0 0 0 48.035168
37.318195 2.7565355 2.1216576 24 0 0 0 48.427181
15.472207 3.4891946 2.0948062 329 0 0 0 46.071281
25.687128 3.1777244 2.1248858 43 0 0 0 47.647568
15.239944 3.8334889 2.0761716 400 0 0 0 45.685139
21.876417 3.8066056 2.3692596 115 0 0 0 46.860722
15.004997 4.1698599 2.0581875 524 0 0 0 45.302719
20.842377 4.1575603 2.2696762 145 0 0 0 46.469662
14.668489 4.6656666 2.0353339 516.5 0 0 0 44.70919
-6.3085985 5.4768438 2.1433086 621.5 0 0 0 11.11997
14.32526 5.1475167 2.0133431 521 0 0 0 44.127647
-9.7913427 5.8998146 2.1843174 453 0 0 0 8.3168669
-8.2115936 5.8477764 2.092051 558.5 0 0 0 9.5588799
-7.741292 5.951252 2.0272181 687 0 0 0 10.1461
-6.7632942 5.5920596 2.036881 604.5 0 0 0 10.72774
-6.3614273 5.5236645 2.3687518 724 0 0 0 11.11997
-5.8459282 5.737711 2.2036085 621.66669 0 0 0 12.092583
-5.0803485 5.7651978 2.351217 714 0 0 0 13.26821
-4.6858797 5.7526941 2.3078406 694 0 0 0 13.884912
-4.319284 5.8994761 2.2651334 749.57141 0 0 0 14.721291
14.77597 5.723114 2.2905908 86 0 0 0 43.734631
-12.281958 6.1132107 2.1667051 181 0 0 0 7.01438
-11.681078 6.1722088 2.2506971 345.5 0 0 0 7.40903
-11.379137 6.3720469 2.221652 317 0 0 0 7.8039498
-9.8023796 6.1283226 2.3959339 259 0 0 0 8.5763597
-9.4926815 6.2609653 2.3574052 437 0 0 0 8.9740295
-7.6566043 6.189949 2.044363 784 0 0 0 10.53242
-6.5554051 6.1349835 2.0845222 344 0 0 0 11.70198
-6.4028592 6.2924886 2.0846677 596 0 0 0 12.09392
-5.7559524 6.2321491 2.2814379 490 0 0 0 12.86727
-5.3407516 6.3797183 2.3424194 441 0 0 0 13.65168
-4.1589179 6.072082 2.2550101 548 0 0 0 15.22664
-3.9358535 6.2271333 2.3485196 738.75 0 0 0 15.811001
3.2502029 6.2127328 2.2512088 87.833336 0 0 0 32.402542
14.626871 6.0839262 2.0939636 134 0 0 0 43.350121
-7.6515784 6.5028639 2.0851181 625 0 0 0 10.92306
-6.4683867 6.678946 2.1589708 350 0 0 0 12.48185
-5.7465754 6.5383916 2.3420892 466 0 0 0 13.26821
-3.8354619 6.595686 2.3387027 683 0 0 0 16.39193
3.2061994 6.9276271 2.1626008 1076 0 0 0 31.62484
14.845186 6.6075182 2.1469522 148 0 0 0 42.954288
-8.1206951 7.2582617 2.2607527 373 0 0 0 11.31688
-7.7087436 7.2338238 2.1950414 598 0 0 0 11.70198
-7.3487015 7.2393708 2.1426451 511 0 0 0 12.09392
-6.966743 7.204083 2.0823648 668 0 0 0 12.48185
-5.3906012 7.128706 2.0776041 420 0 0 0 14.44185
-4.7085595 7.0813322 2.3960829 438.5 0 0 0 15.422165
-4.1824431 7.0726342 2.2491653 733.66669 0 0 0 16.262724
-3.9195073 7.1502876 2.2985561 664.33331 0 0 0 16.777399
3.1591241 7.2872162 2.1497588 102.5 0 0 0 31.232679
13.87115 7.4468722 2.0817387 143 0 0 0 41.77586
15.423807 7.3239927 2.2541122 154 0 0 0 42.561619
-3.9031136 7.5625753 2.294286 653.5 0 0 0 17.17075
13.161871 7.9250569 2.4137907 57 0 0 0 40.99826
13.896788 7.9070892 2.1136663 163 0 0 0 41.39418
15.356683 7.7608662 2.2713702 198 0 0 0 42.174858
-3.8819845 8.0049686 2.1792033 610 0 0 0 17.56324
13.206245 8.4013958 2.2655025 97 0 0 0 40.602821
13.845143 8.3352585 2.1360707 123 0 0 0 40.99826
-3.91991 8.6280804 2.3189473 105.5 0 0 0 17.94577
-3.8771169 9.1333466 2.1860874 566.5 0 0 0 18.33658
12.873549 9.1096315 2.4770133 42 0 0 0 39.829399
13.388936 9.4732838 2.1676958 131 0 0 0 39.829399
13.974881 9.3791342 2.2232544 75 0 0 0 40.214672
-3.8175349 9.6548214 2.2864966 465 0 0 0 18.73819
2.8403695 9.9006357 2.3099196 526.66669 0 0 0 29.143934
3.2121253 9.5514612 2.3440208 480 0 0 0 29.853836
3.6168315 9.5654335 2.3780148 549 0 0 0 30.44841
12.798263 9.5380039 2.1107104 114 0 0 0 39.436039
-3.7894645 10.334045 2.1537046 424 0 0 0 19.12043
4.1947951 10.298021 2.3098626 349 0 0 0 30.83803
12.48314 10.296251 2.1395161 138 0 0 0 38.65786
13.132787 10.297855 2.2052462 202 0 0 0 39.043221
-3.182436 10.665358 2.3139985 555 0 0 0 20.103374
-2.7326918 10.556477 2.2674201 571 0 0 0 20.68796
-2.3210535 10.551805 2.2469029 479 0 0 0 21.266041
-1.8264158 10.826775 2.2828517 462 0 0 0 22.048664
2.7154117 10.580471 2.2702584 357.5 0 0 0 28.686199
3.4361715 10.621914 2.1815836 457.5 0 0 0 29.66029
3.8783913 10.629818 2.3501678 367.5 0 0 0 30.247894
12.213411 10.854454 2.1604025 186 0 0 0 38.073036
-3.7358809 11.032124 2.1344485 122 0 0 0 19.510071
-1.4697479 11.230561 2.353682 479 0 0 0 22.63097
11.661467 11.163444 2.1349392 154 0 0 0 37.481209
-3.1979952 11.787954 2.2369034 196 0 0 0 20.495384
-2.3997524 11.62524 2.1742201 97 0 0 0 21.460051
-1.2556369 11.89697 2.4842231 379 0 0 0 23.016581
11.518785 11.583034 2.1600032 160 0 0 0 37.08989
3.6889973 12.403807 2.3640003 124 0 0 0 29.27725
11.429503 12.07268 2.1977086 113 0 0 0 36.704487
11.394959 12.644178 2.2493405 138 0 0 0 36.314873
11.491323 13.39757 2.3312647 103 0 0 0 35.916153
-4.2376871 13.667967 2.2627139 341 0 0 0 19.90394
-3.8669837 13.64592 2.2426896 372 0 0 0 20.302811
11.593856 14.207502 2.4206929 100 0 0 0 35.520802
11.605975 14.952338 2.0313625 54 0 0 0 35.129501
3.3598616 15.301195 2.4671345 117 0 0 0 28.10586
3.465059 15.772377 2.1422603 293 0 0 0 28.10586
11.743984 15.920266 2.1216915 71 0 0 0 34.746288
11.8538 16.921461 2.21435 57 0 0 0 34.345741
12.01729 18.08119 2.3256075 55 0 0 0 33.956791
-2.3998117 18.773178 2.0470624 108 0 0 0 22.63097
-1.9293048 18.712904 2.4965544 118 0 0 0 23.016581
-1.0009305 18.707407 2.0244918 48 0 0 0 23.806311
0.37894896 18.677069 2.0168691 22 0 0 0 24.978861
6.5686159 18.556499 2.1170504 77 0 0 0 30.04738
3.7529268 19.243866 2.1117718 160 0 0 0 27.71306
10.199696 19.207359 2.3317738 34 0 0 0 32.40369
10.876987 19.317331 2.3756878 39 0 0 0 32.790199
12.197181 19.363642 2.4500341 69 0 0 0 33.575401
1.8877418 19.953684 2.1600513 66 0 0 0 26.15411
2.8779037 19.914989 2.1674268 28 0 0 0 26.932751
3.3574142 19.784618 2.1611488 42 0 0 0 27.328119
11.662388 19.566643 2.4394114 34 0 0 0 33.180901
-3.0956318 20.294106 2.2185731 122 0 0 0 22.242649
2.3915021 20.013008 2.171494 77 0 0 0 26.54002
60.120098 -69.695595 2.9199579 5 0 0 0 63.276798
24.410307 -38.568054 2.5876532 12 0 0 0 65.626526
32.907734 -36.322914 2.7708435 15 0 0 0 62.87878
3.4753864 -35.32785 2.9137831 32 0 0 0 73.051674
5.0803132 -34.281963 2.8445604 11 0 0 0 72.266563
11.550198 -32.300415 2.8120816 22 0 0 0 69.13961
10.436042 -31.612244 2.7305436 25 0 0 0 69.528946
-14.506726 -30.677746 2.7941797 33 0 0 0 81.665993
-14.39923 -28.611891 2.639514 13 0 0 0 82.049477
-2.7114835 -27.494762 2.9489992 19 0 0 0 76.185722
-14.31934 -26.794971 2.5054867 24 0 0 0 82.438118
18.676174 -26.53167 2.656698 31 0 0 0 64.838562
19.621304 -26.468826 2.6968639 15 0 0 0 64.451485
20.942743 -25.530832 2.7017357 14 0 0 0 63.670849
24.101673 -25.32513 2.8568366 10 0 0 0 62.488201
-14.372684 -23.9848 2.9878938 37 0 0 0 83.220818
-14.421486 -22.779493 2.8822796 61 0 0 0 83.608528
23.775772 -22.647539 2.6845629 11 0 0 0 61.700314
-14.196371 -21.251818 2.734103 21 0 0 0 84.000259
-14.140723 -20.083796 2.6290836 16 0 0 0 84.396179
-14.317398 -19.310425 2.5738423 15 0 0 0 84.785378
-14.015322 -17.089514 2.9125373 37 0 0 0 85.564522
5.29598 -17.487476 2.8595896 24 0 0 0 69.928551
27.578573 -17.472357 2.6668415 14 0 0 0 58.573719
-14.027981 -16.273874 2.8323176 8 0 0 0 85.96524
3.2222409 -16.240705 2.5951836 62 0 0 0 71.489159
-14.183724 -15.660717 2.7859218 63 0 0 0 86.356979
3.4778013 -15.526884 2.8887808 27 0 0 0 71.094116
3.7349072 -15.765661 2.5401573 44.5 0 0 0 70.90155
4.3082447 -15.602298 2.9377294 32 0 0 0 70.316246
-0.75750566 -15.325982 2.7887304 25 0 0 0 75.405296
1.1070137 -15.099967 2.7513113 23 0 0 0 73.446671
-14.214739 -14.941386 2.7200162 7 0 0 0 86.74881
-2.2279215 -14.999741 2.7569106 27 0 0 0 76.962097
0.3507565 -14.543406 2.6451633 36 0 0 0 74.227989
-14.088113 -14.099018 2.6299541 39 0 0 0 87.135521
-2.1052577 -14.170802 2.95855 17 0 0 0 76.962097
-1.7631375 -14.265656 2.9681981 19 0 0 0 76.576683
0.6810233 -14.00419 2.550422 32 0 0 0 73.82917
-14.102752 -13.437651 2.5711343 77 0 0 0 87.529121
-4.0335793 -13.294544 2.5292718 47 0 0 0 79.315002
14.394682 -13.059916 2.5540967 62 0 0 0 61.317471
-14.084064 -12.775568 2.5106292 142 0 0 0 87.916641
-13.943977 -12.648482 2.9517217 52 0 0 0 87.916641
-3.1622632 -12.616622 2.6895151 18 0 0 0 78.529312
5.9396315 -12.586578 2.872273 16 0 0 0 67.574249
15.264674 -12.539677 2.5950615 43 0 0 0 60.530048
-14.075454 -12.151824 2.9159589 168 0 0 0 88.299767
-2.8030632 -12.471354 2.6435595 38 0 0 0 78.130554
-1.2314054 -12.452706 2.588053 46 0 0 0 76.185722
5.1800528 -12.113346 2.7210572 42.5 0 0 0 68.167717
3.9170883 -11.887252 2.8930216 58 0 0 0 69.528946
3.3801138 -11.176273 2.7012241 30 0 0 0 69.928551
6.1721196 -10.922474 2.5923543 74 0 0 0 66.397461
-14.049803 -10.429739 2.7458417 196 0 0 0 89.487778
2.0630376 -10.417625 2.9841835 54 0 0 0 71.489159
2.542042 -10.188987 2.6904874 33 0 0 0 70.708992
3.1533549 -10.430497 2.7904823 129 0 0 0 69.928551
3.6810102 -10.319814 2.8055794 138 0 0 0 69.13961
5.1127095 -10.183119 2.9162478 67 0 0 0 67.184525
8.2239943 -10.038731 2.9975824 21 0 0 0 63.670849
-14.024813 -9.8868809 2.6933634 223 0 0 0 89.874413
4.548686 -9.6454983 2.7315414 98 0 0 0 67.574249
-46.513721 -9.2431345 2.7016041 11 0 0 0 96.51255
-19.400856 -9.1848021 2.828599 12 0 0 0 92.599823
-18.082401 -9.1108904 2.6703436 76 0 0 0 92.211166
-17.080757 -9.138938 2.5564501 99 0 0 0 91.822678
-16.204718 -9.1889429 2.9207671 109 0 0 0 91.443604
-15.311138 -9.1862946 2.8010566 144 0 0 0 91.052757
-14.514686 -9.2005281 2.6972466 156 0 0 0 90.661072
-14.003155 -9.3659039 2.6448603 255 0 0 0 90.273102
2.8734789 -9.1087923 2.6873102 146.5 0 0 0 69.728745
3.15382 -9.2063961 2.6155031 61.5 0 0 0 69.334274
13.677299 -9.1515713 2.9828687 77 0 0 0 58.96632
17.50351 -9.3641653 2.6068041 21 0 0 0 57.407192
2.4315071 -8.828104 2.5774939 28 0 0 0 70.316246
4.2894654 -8.5468321 2.925529 21 0 0 0 67.184525
14.118533 -8.9524021 2.6154075 29 0 0 0 58.573719
