# .PCD v0.7 - Point Cloud Data file format
VERSION 0.7
FIELDS x y z intensity normal_x normal_y normal_z curvature
SIZE 4 4 4 4 4 4 4 4
TYPE F F F F F F F F
COUNT 1 1 1 1 1 1 1 1
WIDTH 953
HEIGHT 1
VIEWPOINT 0 0 0 1 0 0 0
POINTS 953
DATA ascii
4.3038158 10.227842 2.6982603 391 0 0 0 30.990673
4.8456836 10.092501 2.7206078 412.5 0 0 0 31.774914
5.2875781 10.240077 2.8468864 346.66666 0 0 0 32.226429
5.7203698 10.239268 2.7030015 193 0 0 0 32.742191
-1.1380342 10.658669 2.7345905 202 0 0 0 22.97702
-0.17478345 10.71198 2.8236935 380.33334 0 0 0 24.415033
0.43562621 10.60206 2.8418379 547.5 0 0 0 25.32534
0.88744932 10.771913 2.6719697 545.33331 0 0 0 25.978455
1.2613527 10.916225 2.671555 559 0 0 0 26.50038
3.7594359 10.738525 2.7651732 409.5 0 0 0 30.014191
1.6977288 11.071192 2.7227206 536.75 0 0 0 27.083149
2.3118732 11.312353 2.8055947 486.75 0 0 0 27.866405
2.7928035 11.486013 2.7262142 533 0 0 0 28.44429
3.2992897 11.663029 2.7945976 452.5 0 0 0 29.033466
-1.9057746 12.239088 2.5482845 482 0 0 0 22.2036
-21.272905 12.686512 2.5647123 13 0 0 0 8.1669302
-19.061865 13.346054 2.9858663 145 0 0 0 9.3383198
-19.640739 15.241258 2.5833738 47 0 0 0 10.11683
-20.03426 16.349199 2.6880898 68 0 0 0 10.51041
11.596961 16.596518 2.6371572 120 0 0 0 34.309582
11.566805 17.449638 2.7266333 145 0 0 0 33.915031
11.335225 18.047655 2.7761395 136 0 0 0 33.52615
11.10001 18.67614 2.8303709 153 0 0 0 33.141689
10.593023 19.997124 2.9486504 187 0 0 0 32.3535
-22.997656 24.021862 2.6575508 5 0 0 0 12.44695
-24.108658 26.455494 2.8612206 27 0 0 0 12.84413
-27.849331 46.218109 2.9890337 5 0 0 0 15.97174
4.06323 -41.573425 3.4501734 20 0 0 0 73.047287
-17.697218 -35.09552 3.2983439 7 0 0 0 82.04821
-7.9019089 -35.054188 3.0065205 85 0 0 0 78.142548
-8.7644768 -34.869331 3.009841 6 0 0 0 78.531235
-15.230273 -34.289684 3.1484759 49 0 0 0 81.271355
-20.79929 -29.488491 3.0330365 27 0 0 0 84.392189
-16.955601 -26.732134 3.4334595 23 0 0 0 83.608704
-29.193834 -26.434048 3.2952974 18 0 0 0 87.918579
-19.628286 -25.115953 3.4560583 21 0 0 0 85.173279
-21.033541 -24.352596 3.4864433 9 0 0 0 85.958878
8.6235981 -19.495354 3.3172128 43 0 0 0 67.960991
-11.802705 -18.610958 3.4873757 17 0 0 0 83.608704
-5.6542587 -18.580997 3.0725226 14 0 0 0 79.310349
-5.7647882 -16.064966 3.1275141 56 0 0 0 80.098473
-11.099702 -15.736341 3.0515089 32 0 0 0 84.392189
-4.7261434 -15.527015 3.373677 28 0 0 0 79.310349
-11.00148 -14.81216 3.3814561 40 0 0 0 84.781631
-34.435577 -14.256765 3.094012 15 0 0 0 93.382088
-11.557655 -14.064528 3.3355482 25 0 0 0 85.56115
-7.7211523 -13.602544 3.2557702 77 0 0 0 82.84021
-6.667191 -13.218124 3.2660747 126.5 0 0 0 82.04821
-6.8306189 -12.750379 3.0130453 86 0 0 0 82.442604
-6.8499088 -12.070573 3.2319455 42 0 0 0 82.84021
-6.4332981 -12.0131 3.1737547 23 0 0 0 82.442604
-8.6100588 -11.593982 3.3619328 67 0 0 0 84.781631
-8.0144529 -11.976963 3.3550732 6 0 0 0 83.996544
6.4352207 -10.762145 3.1921389 8 0 0 0 66.000641
7.0663009 -10.054029 3.4304073 29 0 0 0 64.823318
6.6364646 -9.9561806 3.0451145 220 0 0 0 65.225967
6.3583169 -7.7649341 3.0522215 214 0 0 0 63.656261
8.1388626 -7.759469 3.4105291 145 0 0 0 61.695328
-11.578642 -7.3298073 3.1831985 32 0 0 0 90.660751
-11.052013 -7.3817606 3.0888193 17 0 0 0 90.264786
6.6689296 -7.3736253 3.0222397 416 0 0 0 62.87114
7.2707949 -7.463171 3.1644368 381.5 0 0 0 62.284832
8.2570801 -7.4938068 3.3813045 85 0 0 0 61.301762
-13.121948 -6.8087826 3.4291592 18.5 0 0 0 92.013229
-10.885247 -6.5225077 3.2606766 18 0 0 0 91.049843
-10.510839 -6.2980428 3.4537349 75 0 0 0 91.049843
-18.527491 -5.1290226 3.0220125 21 0 0 0 95.334969
-14.490582 -5.1846652 3.1874018 56 0 0 0 94.176086
-13.610922 -5.2523179 3.3808005 28 0 0 0 93.779961
-10.958783 -5.1831508 3.1138594 87 0 0 0 92.587845
-9.5551996 -5.1083484 3.3225722 215 0 0 0 91.82431
-13.692361 -4.9016538 3.3694804 31 0 0 0 94.176086
-11.771543 -4.8770199 3.2699676 53 0 0 0 93.382088
-9.7424212 -4.9032431 3.0758355 178 0 0 0 92.202148
9.9957275 -4.7292318 3.3447628 104 0 0 0 56.602478
-10.08685 -4.1808019 3.3458433 13 0 0 0 93.382088
-9.8834801 -4.3832927 3.3138821 74 0 0 0 92.989197
-8.839221 -4.4503145 3.4015234 53 0 0 0 92.202148
-14.312776 -3.9620316 3.0745358 15 0 0 0 95.334969
-11.247761 -3.7178555 3.3344836 20 0 0 0 94.565666
-10.537951 -3.7741227 3.4280121 149 0 0 0 94.176086
8.6743593 -3.8495669 3.110775 71 0 0 0 56.206089
9.0711746 -3.756748 3.4572437 51 0 0 0 55.82407
-13.282589 -3.3309598 3.171694 29 0 0 0 95.723267
-12.371708 -3.102469 3.2692771 23 0 0 0 95.723267
-10.879596 -3.0154824 3.4555409 11 0 0 0 95.334969
8.7128534 -3.3640914 3.061388 106 0 0 0 55.430099
9.3607435 -3.3510787 3.2558742 187 0 0 0 55.035419
-14.25254 -2.8373313 3.0070045 33 0 0 0 96.493607
-11.708551 -2.6328495 3.3751812 33 0 0 0 96.111557
-10.809975 -2.7127202 3.4111092 55 0 0 0 95.723267
-9.1199265 -2.5276186 3.2512193 109 0 0 0 95.334969
-8.6607437 -2.6321137 3.443891 35 0 0 0 94.957428
8.8809042 -2.8140402 3.1667919 74 0 0 0 54.452171
9.8014927 -2.9722857 3.2249928 187 0 0 0 54.258381
10.179272 -2.7250795 3.3615372 278 0 0 0 53.733746
10.641672 -2.6624408 3.1818726 147.5 0 0 0 53.4701
11.195176 -2.5083864 3.4663115 136 0 0 0 53.08308
-8.755002 -2.4280612 3.4561288 28 0 0 0 95.334969
10.409489 -2.0669966 3.4724312 241 0 0 0 52.692513
11.047545 -2.4775438 3.1427391 116 0 0 0 53.08308
11.653094 -2.0165746 3.2809517 111 0 0 0 52.304111
-13.830353 -1.7115592 3.2237108 37 0 0 0 97.668465
-12.565598 -1.8688438 3.2538126 32 0 0 0 97.286018
-12.481463 -1.5446302 3.2209809 18 0 0 0 97.668465
-11.157201 -1.6593685 3.1726294 24 0 0 0 97.286018
-9.4774246 -1.64957 3.3023758 59 0 0 0 96.883766
12.232783 -1.8077837 3.1213772 178 0 0 0 51.906914
-9.8408575 -1.3429743 3.2836387 128.5 0 0 0 97.477242
-8.9763441 -1.3381871 3.2281544 138 0 0 0 97.286018
12.200806 -1.2938634 3.3008516 239.33333 0 0 0 51.259693
14.06943 -1.026615 3.208925 129 0 0 0 50.742619
-10.105569 -0.75195122 3.1009753 24 0 0 0 98.449638
-9.9290648 -0.98232383 3.3007398 25 0 0 0 98.056419
-9.2420006 -0.91761112 3.3020203 44 0 0 0 98.056419
14.57045 -0.70316732 3.3170691 243 0 0 0 50.345459
15.717237 -0.37373593 3.1870303 127 0 0 0 49.951328
17.010996 0.014364955 3.0265882 86 0 0 0 49.560959
18.925125 0.48147535 3.3641081 80 0 0 0 49.178421
20.682352 1.0358706 3.1637728 53 0 0 0 48.778168
6.3211536 4.8645759 3.0260801 244.5 0 0 0 39.201988
6.5195842 4.6422997 3.0353682 238 0 0 0 39.794659
9.7649059 5.415369 3.1139083 433 0 0 0 41.551186
10.384892 5.266448 3.2439437 415 0 0 0 42.137459
10.80286 5.3111334 3.052568 292.5 0 0 0 42.335091
9.4823294 5.7286124 3.0906665 344 0 0 0 40.959606
9.7154217 5.7073164 3.4201567 354.5 0 0 0 41.156189
9.6205111 6.1413331 3.4646745 337 0 0 0 40.573078
15.186514 6.7705827 3.3820462 221 0 0 0 42.92318
14.844213 7.0615144 3.3451171 181 0 0 0 42.532719
14.32913 7.703928 3.3132119 200 0 0 0 41.749599
21.02685 7.5633626 3.4229233 92 0 0 0 44.0919
21.010462 8.1465359 3.4529316 62 0 0 0 43.709072
20.41824 8.5010834 3.3911657 167 0 0 0 43.309559
-0.085842028 10.612684 3.3645997 363 0 0 0 24.54751
0.30457982 10.560585 3.3506563 493 0 0 0 25.129597
0.84263223 10.762241 3.1576126 493.75 0 0 0 25.914295
1.2606301 10.906363 3.2111473 511 0 0 0 26.50038
4.449739 10.935972 3.3055096 290 0 0 0 30.79694
4.7887125 10.625137 3.2633474 309 0 0 0 31.38098
-0.36796284 11.409047 3.3350356 346.5 0 0 0 24.15008
1.6971473 11.065295 3.2738204 507.5 0 0 0 27.083149
2.2609406 11.297284 3.3209517 468.33334 0 0 0 27.802683
2.7962623 11.494911 3.1655502 451.5 0 0 0 28.44429
3.6293936 11.235151 3.0126512 321 0 0 0 29.621799
3.3099465 11.694253 3.2514472 424.25 0 0 0 29.033466
-0.69053531 12.252151 3.43188 283 0 0 0 23.769011
-20.990625 12.514713 3.1291378 22 0 0 0 8.1669302
-20.35784 12.820843 3.0826528 64 0 0 0 8.5617304
-19.713705 13.097589 3.0347431 107 0 0 0 8.9485998
-19.181578 14.141961 3.0592434 68 0 0 0 9.7323904
19.048973 14.200353 3.0674326 59 0 0 0 39.399151
-19.556681 15.172264 3.1784139 69 0 0 0 10.11683
-19.913759 16.2467 3.3014016 20 0 0 0 10.51041
11.586349 16.578764 3.1353614 99 0 0 0 34.309582
-20.283525 17.394014 3.4336474 10 0 0 0 10.898
11.560835 17.437857 3.2429981 146 0 0 0 33.915031
11.331502 18.038788 3.3023653 156 0 0 0 33.52615
11.093758 18.662546 3.3659835 138 0 0 0 33.141689
10.859819 19.334379 3.4382291 28 0 0 0 32.742191
-21.701181 20.547626 3.1099725 57 0 0 0 11.68084
-22.155172 22.033653 3.2529607 14 0 0 0 12.06209
-23.082853 24.113668 3.4761627 15 0 0 0 12.44695
11.492315 -66.5298 3.8535903 11 0 0 0 71.884048
-0.02900089 -37.034016 3.9766772 42 0 0 0 74.617638
-20.628475 -36.356064 3.5068934 14 0 0 0 82.84021
-6.9304008 -34.699944 3.8189356 102 0 0 0 77.751389
-5.9840856 -34.325428 3.7591438 91 0 0 0 77.357674
-5.0681276 -33.977791 3.704942 82 0 0 0 76.96888
-4.1749587 -33.622932 3.6525059 128 0 0 0 76.571182
-8.388155 -33.376301 3.7183068 35 0 0 0 78.531235
-2.4579031 -32.941872 3.5579181 102 0 0 0 75.798927
-1.6484916 -32.984047 3.5548873 37 0 0 0 75.397453
-9.8291521 -32.311325 3.6524827 31 0 0 0 79.310349
-8.9375362 -32.196659 3.6126554 58 0 0 0 78.923279
-8.6910934 -28.586447 3.9698243 11 0 0 0 79.310349
-0.020415559 -27.525928 3.6412127 51 0 0 0 74.617638
-20.738045 -25.235817 3.5396194 10 0 0 0 85.56115
-5.9152136 -23.543058 3.8301117 15 0 0 0 78.531235
-5.8360105 -21.028061 3.9875731 13 0 0 0 78.923279
-5.2121773 -20.740936 3.9074442 34 0 0 0 78.531235
8.6860199 -19.631809 3.8716197 40 0 0 0 67.960991
7.9315143 -19.188427 3.7480171 19 0 0 0 68.358414
-20.977129 -17.204453 3.6040187 6 0 0 0 88.695686
-13.085066 -16.746229 3.8894391 14 0 0 0 85.173279
-11.976833 -16.982134 3.8047004 17 0 0 0 84.392189
-11.088565 -16.570553 3.65172 32 0 0 0 83.996544
-4.1095719 -16.357336 3.9158912 94 0 0 0 78.531235
-32.862961 -15.534211 3.9052954 11 0 0 0 92.587845
-29.162439 -15.577513 3.5586448 18 0 0 0 91.82431
-14.924118 -15.660029 3.9554515 6 0 0 0 86.743393
-4.680398 -15.388492 3.7372382 79 0 0 0 79.310349
6.6773977 -15.092769 3.794225 42 0 0 0 67.960991
7.0883765 -15.013824 3.8149803 60 0 0 0 67.569923
-32.616631 -14.450252 3.8313799 29 0 0 0 92.989197
-5.5335641 -14.315186 3.945663 22 0 0 0 80.480255
7.7345605 -14.494103 3.7716992 111 0 0 0 66.794609
-34.724731 -13.388782 3.991411 14 0 0 0 93.779961
-13.684381 -13.016395 3.9203362 16 0 0 0 87.529633
-7.8151903 -13.020115 3.9063203 99 0 0 0 83.226067
-6.984129 -12.309334 3.9940281 30 0 0 0 82.84021
-6.129333 -12.153548 3.5040314 114 0 0 0 82.04821
-5.7476764 -12.128462 3.7885725 121 0 0 0 81.657188
-8.2277384 -11.666514 3.6743326 19 0 0 0 84.392189
-6.7920489 -11.969248 3.5428064 143 0 0 0 82.84021
-8.7192326 -11.159453 3.9963427 28 0 0 0 85.173279
-9.3312502 -10.806093 3.6731231 67 0 0 0 85.958878
-7.9442148 -10.170214 3.9616084 28 0 0 0 85.173279
-10.938021 -9.9068117 3.7927051 52 0 0 0 87.918579
-9.6543245 -9.6459198 3.8496847 7 0 0 0 87.13504
-10.45375 -9.0114117 3.8911259 49 0 0 0 88.298035
-11.194184 -8.7313156 3.6477823 16 0 0 0 89.084114
-13.755775 -6.5066786 3.5274189 18 0 0 0 92.587845
-10.570915 -6.6941614 3.8342602 16 0 0 0 90.660751
-10.235862 -6.8389931 3.7734931 24 0 0 0 90.264786
-9.7038708 -6.8331542 3.6396258 49 0 0 0 89.877983
-9.1748877 -5.5014405 3.8085253 109 0 0 0 91.049843
-14.146965 -5.459199 3.8848205 21 0 0 0 93.779961
-11.887599 -5.2700825 3.6599693 51 0 0 0 92.989197
-10.568705 -5.3216414 3.6252704 21 0 0 0 92.202148
-9.3753996 -5.3094559 3.5710611 136 0 0 0 91.430763
-8.5542459 -4.5748119 3.6926699 160 0 0 0 91.82431
9.7650681 -4.6221595 3.536087 68 0 0 0 56.602478
-14.453478 -4.0036206 3.8394482 19 0 0 0 95.334969
-11.158037 -4.3053946 3.9569955 81 0 0 0 93.779961
-8.4687529 -4.0084529 3.5666013 45 0 0 0 92.587845
9.6357079 -4.2700615 3.7085059 80 0 0 0 56.206089
10.137061 -4.200933 3.5898414 81 0 0 0 55.82407
-12.921941 -3.5792825 3.7687891 11 0 0 0 95.334969
-12.280275 -3.7302415 3.9247916 20 0 0 0 94.957428
-11.145931 -3.6863124 3.5932417 17 0 0 0 94.565666
-10.477474 -3.7503698 3.6833832 28 0 0 0 94.176086
-9.3781042 -3.7542975 3.7179646 124.5 0 0 0 93.581024
-8.5712128 -3.8027699 3.5689149 38 0 0 0 92.989197
9.3905191 -3.6206222 3.5424137 16 0 0 0 55.430099
-14.538527 -3.2693174 3.8134904 18 0 0 0 96.111557
-8.8944187 -3.3108604 3.6109002 91 0 0 0 93.978027
-19.093555 -2.8363373 3.9815264 52 0 0 0 97.286018
-11.13688 -2.5042303 3.7745495 86 0 0 0 96.111557
10.245168 -2.7389851 3.8164127 210 0 0 0 53.733746
11.324548 -2.5392509 3.7931874 70 0 0 0 53.08308
-9.3360672 -2.1026266 3.6379418 7 0 0 0 96.111557
10.323677 -2.1336207 3.795126 205.33333 0 0 0 52.822704
12.172366 -2.4138105 3.7458379 168 0 0 0 52.692513
-9.4599123 -1.6481937 3.6493018 58 0 0 0 96.883766
11.073727 -1.9165039 3.6746473 71 0 0 0 52.304111
11.819503 -1.8427616 3.7123358 174 0 0 0 52.039318
12.599444 -1.8618244 3.5302289 89 0 0 0 51.906914
-9.6869173 -1.2021956 3.7082717 169 0 0 0 97.668465
11.821156 -1.1551876 3.7343321 265.5 0 0 0 51.131569
12.025131 -1.4746823 3.8080721 205 0 0 0 51.515942
14.341524 -1.0465562 3.6234214 124 0 0 0 50.742619
-9.8548775 -0.97843426 3.7613852 149 0 0 0 98.056419
13.666832 -0.99748379 3.7955287 116 0 0 0 50.742619
14.334373 -0.6919263 3.616555 188 0 0 0 50.345459
16.743488 -0.39550266 3.8025417 132 0 0 0 49.951328
17.335262 0.014317001 3.5102761 78 0 0 0 49.560959
19.208397 0.48826757 3.886816 78 0 0 0 49.178421
-10.406254 0.87801641 3.6459785 18 0 0 0 0.76985997
21.212982 1.0618645 3.7699082 44 0 0 0 48.778168
23.366898 1.746751 3.5753362 39 0 0 0 48.39035
10.321321 5.5596261 3.5552583 365 0 0 0 41.749599
15.29368 6.8203459 3.8160052 204 0 0 0 42.92318
14.952732 7.1150789 3.7751091 171 0 0 0 42.532719
23.952089 7.9530249 3.8591533 193 0 0 0 44.478168
20.872906 8.0920582 3.9850116 97 0 0 0 43.709072
20.485485 8.5276699 3.9517386 86 0 0 0 43.309559
20.937471 9.3272781 3.5144379 102 0 0 0 42.92318
-0.087589242 10.579535 3.7437477 290 0 0 0 24.54751
0.25926062 10.547132 3.8200505 360 0 0 0 25.064346
0.8434242 10.767234 3.6906769 415.5 0 0 0 25.914295
1.2633046 10.924305 3.7576137 392 0 0 0 26.50038
-0.36466056 11.359278 3.7406578 285 0 0 0 24.15008
1.6530453 11.073749 3.7796097 403.66666 0 0 0 27.018915
2.3681297 11.341274 3.7202375 399 0 0 0 27.930124
2.7946439 11.491965 3.6022856 411 0 0 0 28.44429
2.8021233 11.51009 3.9010537 321 0 0 0 28.44429
3.2567358 11.68991 3.7950556 336.33334 0 0 0 28.968561
-0.69022405 12.217896 3.7227156 258 0 0 0 23.769011
-20.33617 12.809188 3.6715367 72 0 0 0 8.5617304
26.980875 12.817519 3.8302438 67 0 0 0 42.532719
-19.718111 13.102503 3.6187112 129 0 0 0 8.9485998
-19.093948 13.370521 3.5651813 98 0 0 0 9.3383198
-1.0687902 13.265527 3.718657 245 0 0 0 23.37327
4.372921 13.490396 3.9635022 303 0 0 0 29.621799
-19.200373 14.157798 3.6501043 77 0 0 0 9.7323904
-19.650568 15.247377 3.8066559 84 0 0 0 10.11683
-20.140139 16.434175 3.9795964 73 0 0 0 10.51041
11.58319 16.571621 3.6349416 81 0 0 0 34.309582
11.541592 17.406172 3.7545526 236 0 0 0 33.915031
11.306451 17.996174 3.8211148 232 0 0 0 33.52615
11.079041 18.6348 3.8980253 196 0 0 0 33.141689
-21.093266 19.007351 3.6494696 42 0 0 0 11.28149
10.602289 20.010979 3.5114038 113 0 0 0 32.3535
-21.730978 20.571041 3.8474143 31 0 0 0 11.68084
10.306028 20.662502 3.5804992 138 0 0 0 31.972281
-24.007158 26.346428 3.7131793 14 0 0 0 12.84413
-25.026758 28.859995 3.9808888 15 0 0 0 13.23397
-19.53768 63.891792 3.7239764 5 0 0 0 19.862801
0.94115901 -39.524521 4.2393041 20 0 0 0 74.223022
-15.240128 -34.315403 4.0628138 29 0 0 0 81.271355
-4.1675806 -33.628296 4.4862971 69 0 0 0 76.571182
-3.2919617 -33.220959 4.4183407 77 0 0 0 76.182785
-2.4490864 -32.929623 4.3685799 85 0 0 0 75.798927
-1.6405127 -32.983543 4.3669181 35 0 0 0 75.397453
-10.240431 -28.565638 4.0335569 31 0 0 0 80.098473
0.68003827 -28.440805 4.4635496 11 0 0 0 74.223022
-18.582651 -27.779976 4.4452748 20 0 0 0 83.996544
1.3190064 -27.217279 4.2741151 29 0 0 0 73.835503
-29.184433 -26.426014 4.250586 16 0 0 0 87.918579
-18.877804 -24.164703 4.0799952 16 0 0 0 85.173279
-3.034344 -24.465239 4.4931817 47 0 0 0 76.571182
-29.186472 -23.931362 4.0729141 11 0 0 0 88.695686
-19.104244 -23.255644 4.0040975 37 0 0 0 85.56115
-29.842995 -22.114805 4.0052528 16 0 0 0 89.477455
-31.672571 -20.041954 4.0356374 10 0 0 0 90.660751
-5.417376 -19.51886 4.2020445 45 0 0 0 78.923279
-32.080273 -19.214897 4.0244741 9 0 0 0 91.049843
-24.920315 -19.437506 4.191546 10 0 0 0 89.084114
-3.2784734 -18.827026 4.4302211 27 0 0 0 77.357674
-6.471457 -18.054953 4.4518166 15 0 0 0 80.098473
-1.3362907 -17.946913 4.1697488 52 0 0 0 75.798927
-12.138257 -16.345133 4.2288413 16 0 0 0 84.781631
-4.0947046 -16.301489 4.3152418 52 0 0 0 78.531235
-12.310025 -15.754039 4.1527424 22 0 0 0 85.173279
-4.305294 -15.515407 4.1358676 20 0 0 0 78.923279
-6.2966552 -15.174425 4.2220321 26 0 0 0 80.869911
-4.6672578 -15.347784 4.1212111 45 0 0 0 79.310349
7.1489162 -15.138473 4.2574778 113 0 0 0 67.569923
-5.2938609 -14.763088 4.0309324 25 0 0 0 80.098473
7.7883487 -14.591789 4.2030606 84 0 0 0 66.794609
-34.613903 -14.330536 4.0197396 10 0 0 0 93.382088
-13.633687 -14.305374 4.1022158 25 0 0 0 86.743393
7.2217374 -14.370285 4.0895643 153 0 0 0 67.184883
-15.093181 -13.668238 4.2234559 18 0 0 0 87.918579
-13.582198 -13.573926 4.4561591 12 0 0 0 87.13504
-4.9617543 -13.835958 4.144824 13 0 0 0 80.098473
-14.263855 -12.921499 4.4646912 27 0 0 0 87.918579
-8.6198168 -12.884498 4.3723826 87 0 0 0 83.996544
-6.1272936 -12.938711 4.3912482 31 0 0 0 81.657188
-4.5270762 -12.623293 4.4456902 27 0 0 0 80.098473
-4.6677866 -12.073394 4.2925096 20 0 0 0 80.480255
-12.10865 -11.520997 4.2922211 17 0 0 0 87.529633
-6.9027987 -11.503401 4.1175456 34 0 0 0 83.226067
-6.2516336 -11.678761 4.2287416 72.5 0 0 0 82.442604
-4.2482681 -11.857688 4.486136 17 0 0 0 80.098473
-6.8057218 -11.337546 4.3861008 14 0 0 0 83.226067
-8.9707031 -10.922981 4.3357878 86 0 0 0 85.56115
-11.651121 -9.0881033 4.1624713 25 0 0 0 89.084114
-11.437463 -9.3812876 4.1677213 24 0 0 0 88.695686
-10.996625 -8.5803986 4.2737055 20 0 0 0 89.084114
-10.113801 -8.7213249 4.0944042 5 0 0 0 88.298035
-11.096891 -8.2290907 4.232585 9 0 0 0 89.477455
-13.280877 -7.0984077 4.2361178 28 0 0 0 91.82431
-12.372218 -7.0077252 4.0022869 38 0 0 0 91.430763
-11.821396 -7.0866461 4.2199416 19 0 0 0 91.049843
-11.352658 -6.8028226 4.3806233 18 0 0 0 91.049843
-13.092287 -6.1954694 4.4301658 23 0 0 0 92.587845
-9.4849367 -4.7777028 4.0395269 8 0 0 0 92.202148
-19.285904 -4.3335276 4.079464 16 0 0 0 96.111557
-10.617782 -4.4030833 4.0864358 130 0 0 0 93.382088
-17.201738 -3.4275494 4.0517302 5 0 0 0 96.493607
-13.82045 -3.4657855 4.0021896 15 0 0 0 95.723267
-19.258837 -2.8642871 4.4921823 17 0 0 0 97.286018
-13.04087 -2.5983152 4.3913126 23 0 0 0 96.493607
-11.796529 -2.6568646 4.2929173 52 0 0 0 96.111557
-10.357203 -2.6009161 4.0566173 32 0 0 0 95.723267
11.472101 -2.5678039 4.4179783 112 0 0 0 53.08308
-20.099421 -2.4837615 4.1747155 15 0 0 0 97.668465
-11.63606 -2.3225911 4.212503 24 0 0 0 96.493607
-10.828986 -2.1614616 4.1927385 127 0 0 0 96.493607
11.754385 -2.0296469 4.4822912 139 0 0 0 52.304111
11.431289 -1.974052 4.0761113 229 0 0 0 52.304111
11.743179 -1.7313737 4.169961 201 0 0 0 51.906914
11.87307 -1.3046194 4.1964102 155.5 0 0 0 51.323753
12.351833 -0.74520069 4.3462667 55 0 0 0 50.544037
12.963156 -0.62615675 4.2377553 104 0 0 0 50.345459
13.381501 -0.97443682 4.0472169 82 0 0 0 50.742619
14.487341 -0.69946325 4.0151496 148 0 0 0 50.345459
16.116158 -0.38096872 4.2588024 60 0 0 0 49.951328
16.80422 0.016340276 4.2282162 89 0 0 0 49.560959
17.787766 0.45484164 4.4750872 100 0 0 0 49.178421
18.126396 0.017745171 4.1124082 127 0 0 0 49.560959
21.577795 1.0795771 4.3657517 60 0 0 0 48.778168
24.11688 1.8020308 4.2876196 38 0 0 0 48.39035
27.320307 2.7182291 4.183198 18 0 0 0 48.007313
27.355419 4.7785625 4.2337132 33 0 0 0 46.833241
27.28846 6.1630425 4.2673039 7 0 0 0 46.052166
15.457997 6.8922954 4.2722797 123 0 0 0 42.92318
27.988564 7.7848816 4.4326816 15 0 0 0 45.267139
-0.086941972 10.581095 4.0030103 259 0 0 0 24.54751
0.43579566 10.619258 4.021688 371 0 0 0 25.32534
0.84209144 10.762251 4.0853109 375.5 0 0 0 25.914295
1.2644415 10.94059 4.167521 341 0 0 0 26.50038
-0.36605024 11.299429 4.1357841 227 0 0 0 24.15008
1.7521602 11.120652 4.1678557 333 0 0 0 27.147383
2.3134842 11.321786 4.23106 315.5 0 0 0 27.866405
2.8026476 11.524317 4.3416862 230.5 0 0 0 28.44429
3.3695366 11.72125 4.2141852 296.66666 0 0 0 29.098372
-0.68742353 12.183864 4.1628075 215.5 0 0 0 23.769011
-20.375277 12.835967 4.2719693 66 0 0 0 8.5617304
-19.734802 13.115618 4.2056746 113 0 0 0 8.9485998
-19.084919 13.366082 4.1376829 101 0 0 0 9.3383198
-1.064913 13.213684 4.1929951 171.5 0 0 0 23.37327
4.364656 13.470057 4.3056207 251 0 0 0 29.621799
4.7954936 13.638224 4.2173691 246 0 0 0 30.01457
5.2396746 13.801702 4.3055964 227 0 0 0 30.405821
-19.251419 14.197523 4.2493472 60 0 0 0 9.7323904
-1.5147929 14.43585 4.2302785 155 0 0 0 22.97702
-19.656239 15.253777 4.421154 76 0 0 0 10.11683
28.358223 15.221589 4.1282477 35 0 0 0 41.749599
-2.0578785 15.915838 4.2773514 142 0 0 0 22.586769
11.595721 16.586809 4.1366253 80 0 0 0 34.309582
11.534698 17.39303 4.2656488 178 0 0 0 33.915031
-2.73295 17.75585 4.1212268 117 0 0 0 22.2036
11.297428 17.978947 4.340312 237 0 0 0 33.52615
11.052861 18.587921 4.4207411 187 0 0 0 33.141689
-21.183786 19.091429 4.3684907 49 0 0 0 11.28149
-22.524439 22.396832 4.0852633 26 0 0 0 12.06209
-23.042677 24.065683 4.2868533 16 0 0 0 12.44695
5.5770493 -45.448048 4.8864059 7 0 0 0 72.661072
2.0514903 -42.353745 4.540287 15 0 0 0 73.835503
-8.9756584 -35.75333 4.8870726 5 0 0 0 78.531235
-6.9239488 -34.709248 4.6901941 66 0 0 0 77.751389
-0.87433201 -34.794846 4.5983396 14 0 0 0 75.009216
-15.224515 -34.2999 4.9835453 37 0 0 0 81.271355
-5.9713006 -34.299023 4.6123176 89 0 0 0 77.357674
-5.0484052 -33.899563 4.5392256 67 0 0 0 76.96888
-18.237047 -28.766851 4.5293751 5 0 0 0 83.608704
-0.72527725 -28.795815 4.5241241 6 0 0 0 75.009216
-24.599176 -27.119875 4.861577 17 0 0 0 86.356438
-25.492085 -26.755615 4.9052119 17 0 0 0 86.743393
-0.64309359 -25.505791 4.6425476 16 0 0 0 75.009216
-26.213202 -24.940729 4.8003716 8 0 0 0 87.529633
-26.471655 -23.977684 4.7374811 9 0 0 0 87.918579
-27.056227 -23.325346 4.7367644 7 0 0 0 88.298035
-31.238483 -19.774939 4.8903785 8 0 0 0 90.660751
-24.079 -19.749819 4.9028668 14 0 0 0 88.695686
-24.96114 -19.469595 4.9817619 20 0 0 0 89.084114
6.0426908 -18.318979 4.9109635 98 0 0 0 69.521835
-31.769899 -16.977736 4.7599611 14 0 0 0 91.82431
-6.254384 -16.187527 4.8886833 14 0 0 0 80.480255
-0.80461061 -16.230106 4.969418 9 0 0 0 75.397453
-32.347176 -15.297231 4.7246976 16 0 0 0 92.587845
-4.7039313 -15.471548 4.5558596 23 0 0 0 79.310349
-3.8210576 -15.225277 4.8081889 61 0 0 0 78.531235
7.1520314 -15.141925 4.6745009 111 0 0 0 67.569923
8.737277 -15.440707 4.5037851 82 0 0 0 66.396088
-4.0471363 -14.596848 4.6413994 23 0 0 0 78.923279
-3.3223958 -14.760691 4.6347766 31 0 0 0 78.142548
7.5028439 -14.924533 4.6611109 162 0 0 0 67.184883
8.381773 -14.811801 4.7444754 52 0 0 0 66.396088
8.71696 -14.558338 4.7286534 105 0 0 0 66.000641
-34.936092 -14.471013 4.9869833 12 0 0 0 93.382088
-32.503147 -14.406697 4.6926723 31 0 0 0 92.989197
7.066844 -14.051648 4.777555 130 0 0 0 67.184883
7.5303702 -14.09898 4.852807 49 0 0 0 66.794609
9.6546555 -14.461551 4.8409252 130 0 0 0 65.225967
-4.9968858 -13.943877 4.5408649 24 0 0 0 80.098473
8.3216553 -13.892411 4.9125643 85 0 0 0 66.000641
8.7289391 -13.795892 4.7503972 110 0 0 0 65.610565
-14.052808 -13.372042 4.5005169 11 0 0 0 87.529633
-12.758385 -12.75029 4.6304989 24 0 0 0 87.13504
-8.2334938 -12.991008 4.7165174 25 0 0 0 83.608704
-6.0527644 -12.776378 4.686604 67 0 0 0 81.657188
-6.2231817 -12.343283 4.5833058 27 0 0 0 82.04821
-13.550334 -11.682922 4.5909743 29 0 0 0 88.298035
-6.6906447 -11.154992 4.6339278 62 0 0 0 83.226067
-9.5521564 -10.5297 4.7115059 47 0 0 0 86.356438
-9.157095 -10.605201 4.6444149 40 0 0 0 85.958878
-6.590117 -10.987744 4.8787928 33 0 0 0 83.226067
-10.534736 -9.5417595 4.7080507 11 0 0 0 87.918579
-9.4810762 -9.9567671 4.8938584 15 0 0 0 86.743393
-8.0260487 -9.7754135 4.5057888 74 0 0 0 85.56115
-9.1810312 -9.1797991 4.9404106 17 0 0 0 87.13504
-10.520002 -8.6284237 4.5067263 13 0 0 0 88.695686
-9.4304686 -8.9779081 4.9540472 8 0 0 0 87.529633
-8.476182 -8.9004984 4.6789579 11 0 0 0 86.743393
-10.802814 -8.2194538 4.6609859 19 0 0 0 89.280785
-9.7742386 -8.2939939 4.7710056 12.333333 0 0 0 88.43058
-10.545723 -7.8231506 4.9925714 6 0 0 0 89.477455
-10.61181 -7.0931773 4.8526769 6 0 0 0 90.264786
-11.969164 -6.7848654 4.8893275 13 0 0 0 91.430763
-11.193823 -6.7129378 4.9602637 22 0 0 0 91.049843
-10.967592 -6.948277 4.6168056 79 0 0 0 90.660751
-13.494416 -6.3829436 4.9341578 33 0 0 0 92.587845
-11.391193 -6.0930648 4.5918288 61 0 0 0 91.82431
-13.018936 -5.7717929 4.7076764 16 0 0 0 92.989197
-13.977118 -5.3963733 4.5791402 16 0 0 0 93.779961
-12.800168 -5.303266 4.5802059 26 0 0 0 93.382088
-12.158135 -4.023428 4.8611355 45 0 0 0 94.565666
-13.656981 -3.4297385 4.9949212 27 0 0 0 95.723267
-11.756516 -1.752601 4.5097032 32 0 0 0 97.286018
11.872589 -1.7503943 4.5094481 225 0 0 0 51.906914
12.079037 -1.4781284 4.5722046 205 0 0 0 51.515942
16.526037 -0.79516298 4.9809303 38 0 0 0 50.345459
15.938528 -0.37429255 4.8015714 81 0 0 0 49.951328
16.576014 0.0158778 4.5832329 61 0 0 0 49.560959
19.931358 0.50962549 4.5196714 60 0 0 0 49.178421
22.029921 1.105481 4.9963241 73 0 0 0 48.778168
27.673689 2.7525311 4.9252753 26 0 0 0 48.007313
27.194805 6.1407657 4.9430289 108 0 0 0 46.052166
15.611098 6.959229 4.7388825 147 0 0 0 42.92318
15.139576 7.201479 4.6501975 191 0 0 0 42.532719
21.772188 7.8281298 4.6851883 53 0 0 0 44.0919
21.77865 8.4408522 4.7309327 62 0 0 0 43.709072
20.539204 8.5486412 4.509552 102 0 0 0 43.309559
3.3143904 11.711723 4.6041193 224 0 0 0 29.033466
-0.68614906 12.13769 4.593246 189 0 0 0 23.769011
-20.364923 12.831455 4.8593235 105 0 0 0 8.5617304
-19.734978 13.117702 4.7861018 113 0 0 0 8.9485998
-19.114565 13.388832 4.7156858 99 0 0 0 9.3383198
-1.0603333 13.126869 4.8115544 163.5 0 0 0 23.37327
4.3774967 13.497983 4.6658154 271 0 0 0 29.621799
4.7987752 13.639139 4.7533221 232 0 0 0 30.01457
5.2463503 13.811106 4.8559742 178 0 0 0 30.405821
5.7076864 13.97994 4.7752104 208 0 0 0 30.79694
-19.238844 14.190127 4.8322253 82 0 0 0 9.7323904
-1.5032223 14.344828 4.7370148 129 0 0 0 22.97702
6.9162827 14.804095 4.9613986 117 0 0 0 31.577549
-2.0462396 15.810679 4.8385353 110 0 0 0 22.586769
-20.129217 16.427267 4.6181555 50 0 0 0 10.51041
11.571623 16.556047 4.6233497 96 0 0 0 34.309582
11.577162 17.460489 4.7947655 72 0 0 0 33.915031
-2.7171192 17.659901 4.7578368 88.5 0 0 0 22.2036
11.348138 18.063202 4.8825436 71 0 0 0 33.52615
11.102927 18.6759 4.9732084 66 0 0 0 33.141689
-21.717394 20.560425 4.5828996 29 0 0 0 11.68084
-22.553495 22.428255 4.8754854 29 0 0 0 12.06209
-25.00326 28.825575 4.9128685 12 0 0 0 13.23397
-16.464014 -34.766548 5.1085615 51 0 0 0 81.657188
-5.9803381 -34.3629 5.4840827 100 0 0 0 77.357674
-5.0549641 -33.957733 5.3966413 63 0 0 0 76.96888
-4.1587005 -33.57328 5.3162656 78 0 0 0 76.571182
-3.2868102 -33.19014 5.2397099 55 0 0 0 76.182785
-2.4479523 -32.943359 5.1879468 71 0 0 0 75.798927
-1.6387937 -32.993351 5.1857634 41 0 0 0 75.397453
-15.070831 -28.160543 5.0388136 16 0 0 0 82.442604
-22.586731 -26.162777 5.4478455 7 0 0 0 85.958878
-23.274683 -25.65976 5.4589882 15 0 0 0 86.356438
-23.825472 -25.00633 5.441483 21 0 0 0 86.743393
-0.63539004 -25.260073 5.219883 38 0 0 0 75.009216
-25.211243 -23.987555 5.4794059 23 0 0 0 87.529633
-30.963352 -21.797989 5.0118251 10 0 0 0 89.877983
0.51232183 -21.253895 5.4356613 9 0 0 0 74.223022
10.322198 -20.519882 5.2621403 51 0 0 0 67.184883
-6.6563005 -20.119539 5.435401 9 0 0 0 79.704208
-21.567698 -18.592642 5.191937 15 0 0 0 88.298035
-11.329478 -18.88415 5.1106563 25 0 0 0 83.226067
6.6129875 -18.506214 5.0004444 69 0 0 0 69.136757
-21.445902 -17.589581 5.0567541 7 0 0 0 88.695686
6.3895397 -17.878902 5.3037286 80 0 0 0 69.136757
-0.0064192377 -17.350075 5.301178 50 0 0 0 74.617638
0.83023769 -17.03021 5.206933 6 0 0 0 73.835503
-11.335748 -16.949469 5.2353544 9 0 0 0 83.996544
-27.704281 -15.689839 5.0005984 6 0 0 0 91.430763
-9.9826736 -15.748458 5.2530985 17 0 0 0 83.608704
-1.1684617 -15.713525 5.2104115 15 0 0 0 75.798927
5.665431 -15.848453 5.1191735 114 0 0 0 69.136757
8.4772453 -15.874755 5.0169864 79 0 0 0 66.794609
-14.461502 -15.180754 5.3784313 22 0 0 0 86.743393
-12.600108 -15.341478 5.0964994 34 0 0 0 85.56115
-12.09191 -15.48141 5.0439267 18 0 0 0 85.173279
-4.5729399 -15.044349 5.2066193 14 0 0 0 79.310349
-10.782446 -14.524733 5.0971379 20 0 0 0 84.781631
-3.3643138 -14.967787 5.4549007 31 0 0 0 78.142548
8.35989 -14.76459 5.1472454 97 0 0 0 66.396088
-13.042479 -14.380815 5.4655924 8 0 0 0 86.356438
-1.4005493 -14.183569 5.4154243 39 0 0 0 76.182785
6.8557987 -13.636898 5.014709 124 0 0 0 67.184883
9.1979923 -13.772169 5.0195312 124 0 0 0 65.225967
9.7624645 -13.866576 5.1371751 80 0 0 0 64.823318
-8.391324 -13.236117 5.1931696 13 0 0 0 83.608704
-6.6799412 -13.264082 5.2862067 58 0 0 0 82.04821
7.1839333 -13.45588 5.0098553 116 0 0 0 66.794609
7.7475605 -13.309566 5.0555673 89.5 0 0 0 66.198364
8.3770676 -13.240818 5.1399555 95 0 0 0 65.610565
8.735486 -13.08466 5.1592331 98 0 0 0 65.225967
-14.000381 -12.683132 5.3159566 20 0 0 0 87.918579
-13.165568 -12.527712 5.1159363 14 0 0 0 87.529633
-9.8833561 -12.652445 5.3188338 8 0 0 0 85.173279
-8.4799109 -12.686656 5.431643 59 0 0 0 83.996544
-6.028481 -12.737689 5.0172276 72 0 0 0 81.657188
-5.96702 -12.608682 5.3085089 6 0 0 0 81.657188
-3.5698705 -12.884212 5.0862865 39 0 0 0 78.923279
7.7259564 -12.891789 5.3018379 131 0 0 0 66.000641
8.041544 -12.700418 5.3011098 122 0 0 0 65.610565
8.9980316 -12.786791 5.1258526 115 0 0 0 64.823318
-5.4477305 -12.280798 5.1134462 7 0 0 0 81.271355
8.3481894 -12.495037 5.2977505 126 0 0 0 65.225967
-10.400782 -9.9024267 5.1092792 19 0 0 0 87.529633
-10.44025 -9.4630852 5.3583369 12 0 0 0 87.918579
-12.983397 -6.1466613 5.101275 24 0 0 0 92.587845
-13.132772 -5.8277383 5.1014791 10 0 0 0 92.989197
-14.384709 -4.7549582 5.0030355 30 0 0 0 94.565666
-13.769185 -4.5567379 5.1462369 28 0 0 0 94.565666
-13.400353 -4.8021941 5.052187 35 0 0 0 94.176086
-14.541481 -4.4144435 5.017489 35 0 0 0 94.957428
-21.182596 -2.0954404 5.4283648 8 0 0 0 98.056419
-19.256258 -1.4291874 5.4058008 10 0 0 0 98.449638
15.468761 -1.1290798 5.0553827 62 0 0 0 50.742619
16.424547 -0.38882843 5.3530407 86 0 0 0 49.951328
16.902632 0.018826172 5.0883665 50 0 0 0 49.560959
21.783001 1.0926675 5.4762626 76 0 0 0 48.778168
24.78294 1.8510287 5.0164289 24 0 0 0 48.39035
27.780998 7.7258868 5.1139846 48 0 0 0 45.267139
20.633755 8.0012178 5.0266027 77 0 0 0 43.709072
20.508896 8.53895 5.0471463 65 0 0 0 43.309559
29.160652 10.479038 5.498106 32 0 0 0 44.0919
-20.358578 12.824523 5.4434757 65 0 0 0 8.5617304
11.486021 12.764335 5.2024121 91 0 0 0 36.270607
-19.755478 13.128387 5.3684068 67 0 0 0 8.9485998
-19.101919 13.376878 5.2801776 100 0 0 0 9.3383198
4.3594418 13.454271 5.1699324 206.5 0 0 0 29.621799
12.373791 13.084668 5.4529409 96 0 0 0 36.661152
12.659858 13.382903 5.1238122 64 0 0 0 36.661152
4.7992086 13.652379 5.1122193 202 0 0 0 30.01457
5.2434864 13.815134 5.2191601 191 0 0 0 30.405821
5.7029572 13.974635 5.3300195 165 0 0 0 30.79694
12.561733 13.950339 5.2216854 60 0 0 0 36.270607
-19.330078 14.254419 5.4397588 78 0 0 0 9.7323904
-1.5039226 14.309455 5.0775833 66 0 0 0 22.97702
6.3319659 14.467632 5.1875916 180 0 0 0 31.18441
29.936205 14.216231 5.065589 16 0 0 0 42.532719
6.8639278 14.683742 5.3229194 167 0 0 0 31.577549
7.4140186 14.894308 5.2563791 171.5 0 0 0 31.972281
10.452282 14.958818 5.0825801 70 0 0 0 34.309582
-19.748665 15.327767 5.0544586 54 0 0 0 10.11683
6.6470022 15.18987 5.0342913 73 0 0 0 31.18441
7.9739575 15.078261 5.1763391 164 0 0 0 32.3535
8.6277924 15.381634 5.3501697 106 0 0 0 32.742191
10.250853 15.4665 5.1681032 272 0 0 0 33.915031
-2.0057535 15.514967 5.1346879 57 0 0 0 22.586769
8.8875866 15.837493 5.0614052 35 0 0 0 32.742191
9.2648907 15.599171 5.2788019 147 0 0 0 33.141689
9.9457617 15.838743 5.2096725 137 0 0 0 33.52615
-20.135555 16.434486 5.2566533 52 0 0 0 10.51041
8.101388 16.263596 5.0651498 64 0 0 0 31.972281
8.5481606 16.151012 5.0932798 83 0 0 0 32.3535
11.268666 16.995121 5.1688857 32 0 0 0 33.915031
11.548646 16.520741 5.1089048 49 0 0 0 34.309582
10.872847 17.308226 5.1820168 46 0 0 0 33.52615
9.9307032 17.685463 5.144228 26 0 0 0 32.742191
10.40874 17.512268 5.1658368 65 0 0 0 33.141689
35.209202 17.790993 5.0484133 9 0 0 0 42.137459
-21.152546 19.065361 5.0646529 38 0 0 0 11.28149
-21.809793 20.650528 5.343544 34 0 0 0 11.68084
-23.07337 24.100401 5.1161313 12 0 0 0 12.44695
-24.071075 26.413023 5.4814372 24 0 0 0 12.84413
-7.8895106 -35.054016 5.6520371 25 0 0 0 78.142548
-6.9218459 -34.708839 5.5660753 71 0 0 0 77.751389
-15.218921 -34.290859 5.9107647 34 0 0 0 81.271355
-2.440336 -32.869095 5.9922953 44 0 0 0 75.798927
0.69376993 -28.832157 5.9481645 10 0 0 0 74.223022
2.6410234 -26.953865 5.5796847 6 0 0 0 73.047287
-0.62507093 -25.085344 5.7982359 32 0 0 0 75.009216
-24.884354 -24.867342 5.5403833 21 0 0 0 87.13504
-28.411699 -24.494705 5.9009275 8 0 0 0 88.298035
-30.205509 -22.392139 5.9092698 12 0 0 0 89.477455
-29.597691 -20.836502 5.6880183 8 0 0 0 89.877983
-0.5176717 -20.74118 5.8246207 17 0 0 0 75.009216
1.5169079 -20.670748 5.8109303 25 0 0 0 73.438683
12.37649 -19.550188 5.8580236 27 0 0 0 65.610565
-31.91049 -19.120876 5.8391957 20 0 0 0 91.049843
-24.91341 -19.432589 5.7544703 12 0 0 0 89.084114
-0.22406036 -17.651928 5.8313088 13 0 0 0 74.813431
0.41646707 -17.295248 5.7124987 11 0 0 0 74.223022
0.83066821 -17.073866 5.643136 21 0 0 0 73.835503
-32.884796 -16.550066 5.7731237 9 0 0 0 92.202148
6.5427914 -16.970297 5.5272827 96 0 0 0 68.746284
7.0378604 -16.998011 5.5885196 35 0 0 0 68.358414
-4.0895281 -16.291643 5.5586224 21 0 0 0 78.531235
-2.8016298 -16.133774 5.8190289 16 0 0 0 77.357674
-0.80135322 -16.26626 5.7827168 5 0 0 0 75.397453
-0.40094206 -16.239424 5.7669368 6 0 0 0 75.009216
5.7612796 -16.120134 5.6296616 35 0 0 0 69.136757
-32.994076 -15.603166 5.7217121 14 0 0 0 92.587845
-5.2487621 -15.882665 5.9479423 17 0 0 0 79.704208
-3.9118164 -15.607124 5.720427 20 0 0 0 78.531235
6.1216316 -15.88684 5.5972824 92 0 0 0 68.746284
6.3280554 -15.275902 5.8403668 93 0 0 0 68.358414
6.7737894 -15.287952 5.6968837 41 0 0 0 67.960991
7.1029439 -15.015685 5.8633966 32 0 0 0 67.569923
-33.288216 -14.754669 5.7062688 19 0 0 0 92.989197
-5.6808934 -14.720212 5.61306 7 0 0 0 80.480255
-4.1485648 -14.980329 5.5280132 80 0 0 0 78.923279
7.384696 -14.669061 5.7956262 60 0 0 0 67.184883
-35.317554 -13.624295 5.9268279 13 0 0 0 93.779961
-13.219179 -13.881262 5.8675961 16 0 0 0 86.743393
-5.2382979 -13.571762 5.533958 18 0 0 0 80.480255
16.988289 -13.940407 5.537168 40 0 0 0 60.5116
-6.6390901 -13.18391 5.6161523 18 0 0 0 82.04821
-10.646751 -12.962315 5.5552549 18 0 0 0 85.56115
8.2321072 -12.319898 5.5870261 116 0 0 0 65.225967
-10.826616 -11.944928 5.7342548 28 0 0 0 86.356438
-10.107768 -11.716603 5.8850074 10 0 0 0 85.958878
15.241385 -9.1324368 5.7932615 71 0 0 0 58.167648
14.364353 -6.7842302 5.7632809 53 0 0 0 56.602478
-18.0026 -2.2309408 5.5282192 15 0 0 0 97.668465
21.553974 0.55001915 5.9490404 45 0 0 0 49.178421
21.639452 1.0850204 5.9785886 101 0 0 0 48.778168
23.357378 1.7478392 5.8786235 61 0 0 0 48.39035
25.230848 1.8881893 5.7256303 46 0 0 0 48.39035
27.178965 6.1360335 5.625731 86 0 0 0 46.052166
-21.735067 12.253881 5.6405644 33 0 0 0 7.7878599
11.487975 12.760136 5.6268296 92 0 0 0 36.270607
-19.737553 13.118392 5.9427075 91 0 0 0 8.9485998
-19.136837 13.403332 5.8607993 62 0 0 0 9.3383198
12.376341 13.080873 5.898324 69 0 0 0 36.661152
4.8891878 13.901653 5.5661693 147 0 0 0 30.01457
5.2452965 13.816954 5.5820646 169 0 0 0 30.405821
5.7031798 13.972381 5.6990771 158 0 0 0 30.79694
6.336607 14.487597 5.7756329 157.5 0 0 0 31.18441
6.8701887 14.707553 5.7288713 131 0 0 0 31.577549
7.4283414 14.928514 5.8831987 117 0 0 0 31.972281
-19.777124 15.346396 5.6712441 47 0 0 0 10.11683
7.9883146 15.096186 5.605752 150 0 0 0 32.3535
8.6510153 15.4138 5.7994156 89 0 0 0 32.742191
10.191615 15.381021 5.5933061 159 0 0 0 33.915031
18.687546 15.413429 5.5192242 47 0 0 0 38.61438
9.2827625 15.622029 5.9604702 103 0 0 0 33.141689
9.9320927 15.820632 5.6629696 121 0 0 0 33.52615
-20.199015 16.482656 5.908093 60 0 0 0 10.51041
20.614691 16.163509 5.9633427 60 0 0 0 39.004822
-21.277309 19.180435 5.7969346 36 0 0 0 11.28149
-22.583874 22.461008 5.6682744 25 0 0 0 12.06209
-25.125952 28.970446 5.8839502 10 0 0 0 13.23397
-16.453018 -34.746597 6.0571737 28 0 0 0 81.657188
-6.9036303 -34.627396 6.427247 34 0 0 0 77.751389
-5.9688268 -34.308338 6.3375649 50 0 0 0 77.357674
-5.0440898 -33.898342 6.2357225 96 0 0 0 76.96888
-3.283731 -33.180367 6.0636272 43 0 0 0 76.182785
-1.6369456 -33.000549 6.00488 21 0 0 0 75.397453
12.697485 -28.663702 6.4093142 38 0 0 0 67.960991
3.2515216 -26.419033 6.1333976 16 0 0 0 72.661072
-3.6584501 -24.609921 6.3681607 28 0 0 0 76.96888
4.3109684 -24.875679 6.4336419 8 0 0 0 71.884048
-19.499144 -23.73921 6.3633771 38 0 0 0 85.56115
10.303265 -23.249743 6.4521523 58 0 0 0 67.960991
2.5891595 -21.007124 6.4498882 16 0 0 0 72.661072
-0.50775653 -20.534834 6.2722497 21 0 0 0 75.009216
2.0095978 -20.431099 6.2590003 14 0 0 0 73.047287
2.9944315 -20.202759 6.2225814 24 0 0 0 72.265251
-24.315077 -18.024593 6.2571387 12 0 0 0 89.477455
4.5378847 -18.137718 6.1538038 96 0 0 0 70.700874
5.0169172 -18.147165 6.1946778 43 0 0 0 70.312469
5.5749884 -18.39308 6.3206954 66 0 0 0 69.918793
4.8920255 -17.668451 6.4822183 44 0 0 0 70.312469
0.8580485 -17.47459 6.20402 20 0 0 0 73.835503
6.3694434 -16.506189 6.2489367 73 0 0 0 68.746284
7.8578444 -16.623661 6.0361128 52 0 0 0 67.569923
-0.39228705 -15.915248 6.0425878 12 0 0 0 75.009216
8.4358654 -15.775405 6.3079867 28 0 0 0 66.794609
7.2644396 -15.352645 6.4105306 96 0 0 0 67.569923
7.6526461 -15.196348 6.4198356 30 0 0 0 67.184883
8.114583 -15.173774 6.490243 103 0 0 0 66.794609
6.5224881 -14.71139 6.0774198 41 0 0 0 67.960991
-13.301149 -13.294094 6.2216511 8 0 0 0 87.13504
15.226624 -9.1154766 6.2210932 67 0 0 0 58.167648
16.44146 -5.869369 6.1125503 48 0 0 0 55.035419
22.221363 1.6625587 6.1482425 80 0 0 0 48.39035
25.509634 9.1717596 6.1458278 29 0 0 0 44.0919
-21.778088 12.280424 6.2626548 62 0 0 0 7.7878599
-21.07163 12.568832 6.1478262 7 0 0 0 8.1669302
-20.36916 12.833247 6.0346131 74 0 0 0 8.5617304
11.482955 12.759782 6.4674478 60 0 0 0 36.270607
11.506844 12.788054 6.0596519 58 0 0 0 36.270607
-19.125942 13.397592 6.4348516 78 0 0 0 9.3383198
12.394712 13.107437 6.3511729 62 0 0 0 36.661152
-19.332363 14.258036 6.0275903 47 0 0 0 9.7323904
6.8673911 14.698898 6.1232481 131 0 0 0 31.577549
7.4120574 14.893408 6.2772875 137 0 0 0 31.972281
-19.796282 15.363299 6.2894292 59 0 0 0 10.11683
7.9908762 15.109709 6.2386942 99 0 0 0 32.3535
8.6403465 15.404844 6.2283149 88 0 0 0 32.742191
10.172847 15.349161 6.2638297 122 0 0 0 33.915031
9.2563248 15.587584 6.3910093 108 0 0 0 33.141689
9.937953 15.82119 6.1263809 83 0 0 0 33.52615
22.880339 17.043982 6.4891887 28 0 0 0 39.399151
28.545219 19.145784 6.117177 17 0 0 0 40.177433
-21.833473 20.675322 6.0868993 25 0 0 0 11.68084
-22.554598 22.434206 6.4414511 20 0 0 0 12.06209
-24.314873 26.684202 6.4283566 7 0 0 0 12.84413
-0.01478467 -37.286289 6.7665014 25 0 0 0 74.617638
-7.8921256 -35.074558 6.5454011 47 0 0 0 78.142548
-16.423676 -34.687859 6.9972091 16 0 0 0 81.657188
-15.182561 -34.212418 6.8240147 26 0 0 0 81.271355
-14.031415 -33.833813 6.6775556 22 0 0 0 80.869911
-4.1510906 -33.545403 6.980545 37 0 0 0 76.571182
-12.919174 -33.448204 6.5365496 22 0 0 0 80.480255
-3.2858961 -33.223801 6.8931398 76 0 0 0 76.182785
-1.6372919 -33.052376 6.8286638 21 0 0 0 75.397453
-2.441967 -32.920235 6.8139467 22 0 0 0 75.798927
11.152553 -31.192039 6.7816625 30 0 0 0 69.136757
12.000491 -31.130014 6.8262019 14 0 0 0 68.746284
10.065667 -30.496437 6.5792627 34 0 0 0 69.521835
-24.80624 -27.349869 6.730495 6 0 0 0 86.356438
10.534024 -27.313799 6.7103362 33 0 0 0 68.746284
-20.96172 -24.281116 6.6419015 27 0 0 0 85.958878
-0.0061787595 -24.369125 6.833827 13 0 0 0 74.617638
-21.438519 -23.635864 6.6062436 13 0 0 0 86.356438
-23.380932 -23.365429 6.8394833 22 0 0 0 87.13504
3.7168694 -21.425098 6.6209269 23 0 0 0 71.884048
2.5104809 -20.39105 6.7699256 14 0 0 0 72.661072
-32.47514 -19.459352 6.8791971 12 0 0 0 91.049843
-24.901985 -19.423908 6.5290356 12 0 0 0 89.084114
9.2011318 -19.450672 6.5255795 24 0 0 0 67.569923
-0.89072031 -18.153767 6.8957596 5 0 0 0 75.397453
6.556942 -18.311615 6.8686342 6 0 0 0 69.136757
5.9169173 -17.89942 6.6605368 37 0 0 0 69.521835
6.1783333 -17.254251 6.9228969 16 0 0 0 69.136757
7.0678425 -17.050335 6.967629 59 0 0 0 68.358414
-3.3717473 -16.949633 6.564086 14 0 0 0 77.751389
12.745414 -15.530296 6.5700417 59 0 0 0 63.656261
8.5105438 -15.015498 6.5079203 87 0 0 0 66.396088
12.560302 -15.292202 6.9568729 31 0 0 0 63.656261
-33.818584 -14.989729 6.7123661 17 0 0 0 92.989197
14.678702 -14.675673 6.7783713 53 0 0 0 62.090511
17.222883 -13.430976 6.5805645 16 0 0 0 60.124279
13.539485 -12.260041 6.8606672 44 0 0 0 61.301762
13.821406 -11.910892 6.851614 61 0 0 0 60.910767
18.103218 -10.248001 6.7743368 17 0 0 0 57.7808
15.14714 -9.0670862 6.6208234 45 0 0 0 58.167648
16.403013 -5.8552418 6.5246425 79 0 0 0 55.035419
23.091526 0.59261012 6.938138 33 0 0 0 49.178421
22.021572 1.1074734 6.6254873 18 0 0 0 48.778168
22.43924 1.6821889 6.7613449 73 0 0 0 48.39035
23.929693 2.3826685 6.6324458 79 0 0 0 48.007313
25.24251 9.7816429 6.8039422 24 0 0 0 43.709072
-21.809204 12.300267 6.890615 84 0 0 0 7.7878599
-20.368196 12.834696 6.6295409 68 0 0 0 8.5617304
-19.733648 13.117769 6.5274005 69 0 0 0 8.9485998
-19.106422 13.380809 6.9984412 83 0 0 0 9.3383198
12.347626 13.056006 6.767211 56 0 0 0 36.661152
-19.344709 14.269123 6.6259274 61 0 0 0 9.7323904
-19.788872 15.359526 6.9067707 68 0 0 0 10.11683
8.6283236 15.380955 6.6511207 96 0 0 0 32.742191
10.212418 15.410586 6.968122 88 0 0 0 33.915031
9.9135914 15.792267 6.5714579 66 0 0 0 33.52615
-20.248541 16.525265 6.5617704 51 0 0 0 10.51041
-21.296865 19.193594 6.5007291 30 0 0 0 11.28149
-21.854715 20.690573 6.8261542 18 0 0 0 11.68084
-25.067652 28.905964 6.8154583 21 0 0 0 13.23397
17.433811 -42.108212 7.0577526 20 0 0 0 68.358414
0.96508163 -39.873692 7.2320962 26 0 0 0 74.223022
-7.8788505 -35.02425 7.4195709 47 0 0 0 78.142548
-6.9137244 -34.688274 7.3089743 33 0 0 0 77.751389
-5.9533482 -34.230782 7.1783843 58 0 0 0 77.357674
-12.951296 -33.535706 7.4383144 26 0 0 0 80.480255
-5.0447927 -33.916965 7.0830102 55 0 0 0 76.96888
10.561675 -29.519817 7.1877022 35 0 0 0 69.136757
9.6405888 -29.18713 7.0509877 33 0 0 0 69.521835
5.2310839 -26.307388 7.496757 9 0 0 0 71.488411
-19.779247 -24.089855 7.219079 18 0 0 0 85.56115
-14.746889 -23.273237 7.0634041 8 0 0 0 83.608704
-31.502777 -22.178204 7.0059128 9 0 0 0 89.877983
2.1197524 -21.560293 7.1392598 24 0 0 0 73.047287
3.2541063 -21.955769 7.3089705 8 0 0 0 72.265251
1.524545 -20.615536 7.3227015 11 0 0 0 73.438683
4.9583945 -19.773592 7.2066116 5 0 0 0 70.700874
5.959455 -19.625589 7.2459049 23 0 0 0 69.918793
0.0018055206 -18.619965 7.0607681 11 0 0 0 74.617638
6.0661569 -18.34408 7.2987766 39 0 0 0 69.521835
13.034921 -17.573008 7.1563663 32 0 0 0 64.43383
13.352298 -17.106752 7.0958867 28 0 0 0 64.050537
13.011558 -15.068927 7.4842157 24 0 0 0 63.261688
14.653093 -14.638015 7.2712607 56 0 0 0 62.090511
12.633962 -13.927137 7.0688953 25 0 0 0 62.87114
17.159945 -13.385251 7.095273 8 0 0 0 60.124279
18.056026 -10.212022 7.2634072 25 0 0 0 57.7808
22.540564 0.020070061 7.328146 32 0 0 0 49.560959
22.841955 0.58181655 7.4285131 51 0 0 0 49.178421
22.423029 1.1231642 7.3004928 38 0 0 0 48.778168
31.191153 3.1052847 7.0842862 4820 0 0 0 48.007313
-21.79541 12.289674 7.4979377 44 0 0 0 7.7878599
-20.970428 12.507539 7.3188872 22 0 0 0 8.1669302
-20.262199 12.764748 7.1804285 11 0 0 0 8.5617304
-19.694363 13.088575 7.0924211 19 0 0 0 8.9485998
13.17723 13.260837 7.0370836 30 0 0 0 37.051899
-19.219664 14.17326 7.166904 14 0 0 0 9.7323904
-20.191355 16.480461 7.1881733 13 0 0 0 10.51041
-21.016987 18.942568 7.1077108 8 0 0 0 11.28149
-22.441715 22.316139 7.1805854 7 0 0 0 12.06209
12.225646 -70.628952 7.615222 6 0 0 0 71.884048
2.0954788 -42.909706 7.7830663 15 0 0 0 73.835503
-8.861721 -35.322029 7.5276971 14 0 0 0 78.531235
-16.417078 -34.677181 7.9393492 20 0 0 0 81.657188
-15.176776 -34.202915 7.743062 34 0 0 0 81.271355
-14.027243 -33.82761 7.577611 14 0 0 0 80.869911
-5.0389075 -33.931892 7.9258122 46 0 0 0 76.96888
-4.1467481 -33.575268 7.8148584 54 0 0 0 76.571182
-3.2697561 -33.140274 7.6910877 46 0 0 0 76.182785
-1.6351624 -33.172218 7.6663876 35 0 0 0 75.397453
12.972675 -31.313377 7.7599974 32 0 0 0 68.358414
3.6779432 -29.840845 7.6621003 9 0 0 0 72.661072
-20.459156 -26.203787 7.6987743 18 0 0 0 85.173279
10.702684 -25.833906 7.7891202 30 0 0 0 68.358414
-22.669691 -25.003416 7.811821 8 0 0 0 86.356438
-23.389137 -24.558681 7.8483329 15 0 0 0 86.743393
-4.2287993 -24.366804 7.5546103 15 0 0 0 77.357674
-30.269392 -21.309853 7.6438785 6 0 0 0 89.877983
-3.1647255 -21.357555 7.6620169 12 0 0 0 76.96888
-32.153744 -20.354755 7.8531523 18 0 0 0 90.660751
0.98827827 -20.030996 7.598834 20 0 0 0 73.835503
5.5885563 -20.164997 7.9067798 45 0 0 0 70.312469
6.0760074 -20.002146 7.8967099 53 0 0 0 69.918793
-6.2889881 -19.043596 7.6173306 15 0 0 0 79.704208
-33.297535 -18.858269 7.8927102 17 0 0 0 91.430763
-34.004135 -18.171942 7.9498053 25 0 0 0 91.82431
12.724054 -18.047853 7.7656145 23 0 0 0 64.823318
13.191384 -17.767775 7.7798285 28 0 0 0 64.43383
-34.026718 -17.124828 7.8528681 15 0 0 0 92.202148
21.196785 -17.384996 7.578639 6 0 0 0 60.5116
13.26986 -16.986633 7.5767312 54 0 0 0 64.050537
14.511517 -16.804243 7.7985678 43 0 0 0 63.261688
-34.410908 -16.273222 7.8449945 12 0 0 0 92.587845
-35.059467 -15.539759 7.9011517 12 0 0 0 92.989197
12.405131 -15.879893 7.5788379 44 0 0 0 64.050537
14.609357 -14.592525 7.7547297 43 0 0 0 62.090511
17.090082 -13.319753 7.5951123 28 0 0 0 60.124279
17.955982 -10.154553 7.728117 38 0 0 0 57.7808
-20.380135 12.846333 7.8160572 71 0 0 0 8.5617304
-19.759037 13.138664 7.7006898 75 0 0 0 8.9485998
-19.192724 13.448396 7.6078887 52 0 0 0 9.3383198
-19.427179 14.334086 7.8397603 40 0 0 0 9.7323904
-19.823544 15.382998 7.5324116 43 0 0 0 10.11683
-20.323389 16.584812 7.8767018 35 0 0 0 10.51041
-21.371847 19.26585 7.9400282 22 0 0 0 11.28149
-21.824907 20.664532 7.5524964 21 0 0 0 11.68084
-25.328297 29.210455 7.8354845 9 0 0 0 13.23397
3.3936079 -46.156879 8.3775148 16 0 0 0 73.438683
-7.8757076 -35.047661 8.3037348 48 0 0 0 78.142548
-6.8916183 -34.618683 8.1583586 27 0 0 0 77.751389
-12.94447 -33.539654 8.3189344 21 0 0 0 80.480255
-2.4296703 -32.889275 8.4249401 38 0 0 0 75.798927
11.759167 -30.475269 8.2855377 13 0 0 0 68.746284
12.554858 -30.300196 8.3153811 26 0 0 0 68.358414
9.4563084 -28.615524 8.4024811 25 0 0 0 69.521835
-19.753731 -26.622511 8.4925156 10 0 0 0 84.781631
11.12193 -25.069664 8.3113327 27 0 0 0 67.960991
2.8341563 -22.91655 8.1713247 14 0 0 0 72.661072
3.3357201 -22.437296 8.0253391 11 0 0 0 72.265251
7.8037457 -20.202839 8.1725016 40 0 0 0 68.746284
-25.060263 -16.74453 8.4548855 14 0 0 0 90.264786
14.786326 -15.511782 8.0487928 31 0 0 0 62.479153
17.073782 -13.305548 8.1174126 18 0 0 0 60.124279
-21.78804 12.292716 8.1119347 54 0 0 0 7.7878599
-20.365114 12.828967 8.3957815 61 0 0 0 8.5617304
-19.768597 13.137096 8.2817316 51 0 0 0 8.9485998
-19.188578 13.437432 8.1759653 54 0 0 0 9.3383198
-19.456396 14.347214 8.4395247 46 0 0 0 9.7323904
-19.802616 15.374207 8.143012 38 0 0 0 10.11683
-22.629522 22.505983 8.0220041 24 0 0 0 12.06209
