# .PCD v0.7 - Point Cloud Data file format
VERSION 0.7
FIELDS x y z intensity normal_x normal_y normal_z curvature
SIZE 4 4 4 4 4 4 4 4
TYPE F F F F F F F F
COUNT 1 1 1 1 1 1 1 1
WIDTH 946
HEIGHT 1
VIEWPOINT 0 0 0 1 0 0 0
POINTS 946
DATA ascii
-0.069811746 -6.2424493 1.3071128 307 0 0 0 74.761948
0.26997581 -6.2238941 1.2809588 374.33334 0 0 0 73.893394
0.72256601 -6.2642527 1.2819192 416.75 0 0 0 72.750336
1.1623565 -6.1699996 1.2141755 420.66666 0 0 0 71.611092
1.6013579 -6.1338921 1.1745443 298.5 0 0 0 70.508423
2.0362794 -6.2141862 1.2112632 207 0 0 0 69.531609
2.8578975 -6.0831909 1.0791514 217 0 0 0 67.570404
-0.22729196 -5.9381781 1.3198642 241.5 0 0 0 75.196503
0.3563751 -5.9577427 1.3988879 455 0 0 0 73.6325
0.83247471 -5.7025933 1.256986 336.66666 0 0 0 72.263344
1.2079754 -5.7611566 1.3435376 290.75 0 0 0 71.29068
1.6368287 -5.9706025 1.1480798 308 0 0 0 70.31031
2.2315824 -5.6267757 1.2727996 285 0 0 0 68.55587
2.6017656 -5.5395103 1.4372509 358 0 0 0 67.570404
4.3603106 -5.6188407 1.3190413 217 0 0 0 64.050995
7.4648724 -5.8510823 1.2817079 272 0 0 0 60.137779
0.83876783 -5.2782917 1.1935501 293 0 0 0 72.069565
1.2936673 -5.2187452 1.264498 302 0 0 0 70.70488
1.8895506 -5.3302464 1.2958603 194.25 0 0 0 69.143112
2.2854383 -5.1990814 1.2498902 287.5 0 0 0 67.966949
2.5958638 -5.1196585 1.3141721 319.5 0 0 0 67.087547
3.0769854 -5.4667282 1.473345 334 0 0 0 66.397247
3.7922595 -5.0782871 1.2171962 305.25 0 0 0 64.346512
4.137506 -5.0719957 1.2970128 577 0 0 0 63.664841
6.7738366 -5.0478864 1.1459777 527 0 0 0 59.749126
1.3603406 -4.9199553 1.3028435 259.89999 0 0 0 70.27494
1.6599691 -4.8720045 1.2760618 200.25 0 0 0 69.338127
2.419137 -4.9935875 1.4426486 274 0 0 0 67.376877
2.7518823 -4.7181945 1.1112437 385.16666 0 0 0 66.140968
3.3503597 -4.7054176 1.3116709 331.33334 0 0 0 64.708092
3.7381887 -4.8173594 1.4357257 359.5 0 0 0 64.054337
4.2225828 -4.8047843 1.2086717 542.75 0 0 0 63.073776
4.7196598 -4.7467227 1.1884421 397 0 0 0 62.089916
5.1290479 -4.5598087 1.1068733 544.5 0 0 0 61.115082
6.4003201 -4.5307355 1.2610435 386 0 0 0 59.36034
6.6375065 -4.6978474 1.1048293 485 0 0 0 59.36034
8.707202 -4.6770225 1.0933092 314 0 0 0 57.402649
9.2077341 -4.6574125 1.1400971 490 0 0 0 57.007648
2.8687544 -4.3701386 1.1060842 297.20001 0 0 0 65.30629
3.1850238 -4.1115327 1.1021423 292 0 0 0 64.050995
4.2677665 -4.4001532 1.3702823 313.25 0 0 0 62.286812
4.7532711 -4.2993927 1.247093 775.33331 0 0 0 61.242966
5.0604529 -4.1785164 1.2644587 921.75 0 0 0 60.525558
5.875145 -4.3069768 1.2933111 513 0 0 0 59.616856
6.1903081 -4.307549 1.2777438 495.33334 0 0 0 59.227528
6.7147732 -4.3501687 1.2202147 569.66669 0 0 0 58.704891
7.2118073 -4.2835855 1.2426286 640 0 0 0 58.089794
7.6134152 -4.0897465 1.2814281 793.5 0 0 0 57.402649
8.1466913 -4.1207013 1.4642258 327 0 0 0 57.007648
8.7937431 -4.3129196 1.3255811 511.5 0 0 0 56.812214
9.4155655 -4.3348098 1.1456635 357.5 0 0 0 56.426334
10.475742 -4.0616384 1.2393759 700 0 0 0 55.450394
10.813714 -4.3452377 1.1417309 387.5 0 0 0 55.643017
11.329951 -4.0745316 1.3257016 421 0 0 0 55.070553
11.760216 -4.2288203 1.0705512 411 0 0 0 55.070553
12.865663 -4.2713037 1.1582732 267 0 0 0 54.679329
14.142727 -4.3114562 1.2600904 235 0 0 0 54.284008
15.598804 -4.3384476 1.3764927 201 0 0 0 53.89946
16.950834 -4.2679024 1.483252 95 0 0 0 53.507671
17.026123 -4.2899952 1.0520197 140 0 0 0 53.507671
19.113491 -4.3184819 1.1698835 77 0 0 0 53.11882
3.8957334 -3.9222207 1.0348567 651 0 0 0 62.088913
5.0710826 -3.9810202 1.0427589 835 0 0 0 60.137779
8.3145266 -3.9518602 1.4764841 232 0 0 0 56.616779
11.736632 -3.8973589 1.3608278 86 0 0 0 54.679329
15.747743 2.3292983 1.3534214 349 0 0 0 47.253071
16.607264 2.4528039 1.0064706 165 0 0 0 47.253071
4.2608442 2.8955047 1.3373251 789.625 0 0 0 40.180241
4.847743 2.6911376 1.3165783 684.125 0 0 0 41.598248
5.1677718 2.6205506 1.2680861 795.75 0 0 0 42.182911
5.5976219 2.8371313 1.1755949 735 0 0 0 42.18568
9.8499832 2.992558 1.1384181 830 0 0 0 44.914082
10.232927 2.8361111 1.3052599 606 0 0 0 45.307472
15.473318 2.6793911 1.3353667 348 0 0 0 46.87215
16.697117 2.8873737 1.0152814 133 0 0 0 46.87215
24.031572 2.9448969 1.4352566 184 0 0 0 47.651352
39.911461 2.9066951 1.3682864 57 0 0 0 48.428822
-3.7745736 3.2419803 1.2494193 141.66667 0 0 0 11.05827
-3.1058862 3.2710788 1.2432442 332.22223 0 0 0 12.699307
-2.7206194 3.2947059 1.2549443 435.10001 0 0 0 13.833984
-2.3700862 3.3096492 1.24812 87.85714 0 0 0 14.950679
3.9821656 3.3631954 1.4102024 694.33331 0 0 0 38.541172
4.08007 3.1397765 1.3512799 622.16669 0 0 0 39.25613
4.756464 3.2944043 1.2289844 615.5 0 0 0 40.034817
5.2972779 3.2617693 1.3684697 456 0 0 0 40.876049
9.7154322 3.3051674 1.3042389 470.66666 0 0 0 44.39172
10.076168 3.0631614 1.4234427 580 0 0 0 44.914082
15.382945 3.0554094 1.3334296 391 0 0 0 46.475792
15.580111 3.4949861 1.3565664 175 0 0 0 46.080238
-0.095211066 3.9245679 1.0914005 133.66667 0 0 0 24.465521
0.08253517 3.9132366 1.1221392 94.5 0 0 0 25.180645
0.80329472 3.8400836 1.0308405 49 0 0 0 28.11137
1.1933333 3.7913475 1.0457166 96.333336 0 0 0 29.667221
1.7684433 3.5366139 1.2299367 276.80951 0 0 0 32.166862
2.2596736 3.5461597 1.2501975 411.26315 0 0 0 33.783482
3.962687 3.7270005 1.4244657 722.5 0 0 0 37.696419
4.1304083 3.7120895 1.2626592 748.79999 0 0 0 38.047211
4.7906594 3.7727334 1.2923528 431 0 0 0 39.065941
5.3198004 3.9770501 1.4043057 692 0 0 0 39.446312
9.5886402 3.8463891 1.3966289 499.5 0 0 0 43.55373
10.877921 3.8981094 1.2726911 347 0 0 0 44.135391
15.533733 3.8883777 1.3600101 229 0 0 0 45.690762
-0.26226428 4.0373983 1.0818399 107.5 0 0 0 23.811457
0.30346665 4.2291532 1.083182 140.5 0 0 0 25.966713
0.61807221 4.1145144 1.0557363 89.333336 0 0 0 27.199923
1.0595297 4.0406499 1.1991452 51.5 0 0 0 28.887659
4.4604206 4.1863489 1.2954926 769.5 0 0 0 37.696419
4.7454367 4.0287156 1.3181429 645 0 0 0 38.475372
10.194477 4.3788242 1.2231355 445.5 0 0 0 43.161686
10.871384 4.2006397 1.2831004 478 0 0 0 43.74704
10.96043 7.7389936 1.1415808 354 0 0 0 39.833881
-3.23981 10.483686 1.3227346 319 0 0 0 19.914101
-2.8363187 10.536208 1.3166208 543.5 0 0 0 20.501415
-2.3025637 10.598994 1.3102324 380.5 0 0 0 21.28248
-1.7686094 10.631924 1.3029542 674.75 0 0 0 22.05736
-1.3741159 10.666598 1.4329478 624 0 0 0 22.642519
-0.84835339 10.717878 1.4335967 278 0 0 0 23.419531
4.4291339 10.804348 1.2750551 27 0 0 0 30.84956
-19.447151 11.641577 1.282021 31 0 0 0 8.2027597
12.89502 11.712204 1.4682677 36 0 0 0 37.892471
-19.354162 12.239541 1.2956628 36 0 0 0 8.5843697
0.24555586 12.122075 1.0225666 194 0 0 0 24.98387
12.705122 12.120527 1.2611992 175 0 0 0 37.500366
-19.440777 12.972177 1.3224579 53 0 0 0 8.9758101
12.478477 12.502082 1.0467997 99 0 0 0 37.110722
12.581242 12.609938 1.4994164 145 0 0 0 37.110722
9.1969109 13.109739 1.3485353 178 0 0 0 34.3564
9.8621988 13.344399 1.3962457 323 0 0 0 34.756599
11.035418 13.483191 1.2480669 354 0 0 0 35.52927
12.472851 13.125744 1.0715437 184 0 0 0 36.71706
-19.801311 13.927101 1.3694929 23 0 0 0 9.3682604
10.069132 13.616827 1.0021138 18 0 0 0 34.756599
10.620038 13.647856 1.2382874 12 0 0 0 35.139999
11.701364 13.595226 1.0607179 257 0 0 0 35.929241
12.337247 13.638982 1.087191 203 0 0 0 36.320911
-20.081354 14.873891 1.4135022 31 0 0 0 9.7649498
-19.746895 15.389072 1.4168684 53 0 0 0 10.15168
-19.299717 15.814962 1.4131261 90 0 0 0 10.53657
-18.968122 16.335993 1.4185196 59 0 0 0 10.92527
-19.568365 17.709734 1.4947631 45 0 0 0 11.32084
-18.444973 17.531115 1.4433252 36 0 0 0 11.70826
8.2569284 21.482199 1.3440819 54 0 0 0 30.454359
-21.068689 33.247383 1.2677137 20 0 0 0 15.61964
-15.241424 -21.641169 1.5298185 59 0 0 0 84.375717
-15.635982 -18.136955 1.9848661 65 0 0 0 85.950714
-17.070929 -16.265394 1.9567931 36 0 0 0 87.511505
-17.005081 -15.425222 1.9067166 25 0 0 0 87.893265
-17.922764 -14.722382 1.9269332 39 0 0 0 88.676712
-17.268457 -14.908941 1.8954098 48 0 0 0 88.292709
-18.193195 -14.211954 1.9186525 70 0 0 0 89.069267
5.9355621 -12.600597 1.5118762 90 0 0 0 67.570404
-2.4240215 -10.773449 1.7442716 304 0 0 0 78.12001
5.7194266 -10.13695 1.8445898 185 0 0 0 66.397247
-2.7582633 -9.0820961 1.9717406 397 0 0 0 79.29454
-1.5924778 -9.1421585 1.9285847 601 0 0 0 77.346474
-0.45880958 -9.1558228 1.9060904 202 0 0 0 75.396111
-2.6231091 -8.6365623 1.654897 572 0 0 0 79.29454
-1.6115894 -8.6283197 1.7175374 382.5 0 0 0 77.538666
-0.66953558 -8.9622688 1.869171 266 0 0 0 75.784462
-2.7565534 -8.3361053 1.6107012 431 0 0 0 79.692818
-2.1922545 -8.29879 1.6819417 526.25 0 0 0 78.71418
-1.8086457 -8.3511534 1.6395226 641.33331 0 0 0 77.990295
-0.88148993 -6.4453201 1.5208366 250.5 0 0 0 76.757492
-0.0089236218 -6.3797984 1.6488942 223 0 0 0 74.605316
0.43550038 -6.0462866 1.5688162 139 0 0 0 73.433403
0.87965995 -6.0114083 1.5728055 150 0 0 0 72.269691
0.28166217 -5.9363551 1.5385104 73 0 0 0 73.831596
0.73199731 -5.7501287 1.6439716 181.5 0 0 0 72.55291
1.2286675 -5.5243835 1.6789646 343.5 0 0 0 71.094223
2.2055016 -5.5552969 1.6988757 439 0 0 0 68.555016
3.2627668 -5.5819526 1.6775559 268.66666 0 0 0 66.139458
3.7540724 -5.8008585 1.7066674 347.5 0 0 0 65.424088
0.85691953 -5.2843871 1.6090945 95.333336 0 0 0 72.007103
1.2719401 -5.3084664 1.6412578 272.66666 0 0 0 70.836403
1.7900649 -5.2860518 1.7073084 246.14285 0 0 0 69.365776
2.112479 -5.1419506 1.71802 238 0 0 0 68.358482
2.7034068 -5.0931454 1.7122395 309.5 0 0 0 66.798218
3.2693703 -5.2626524 1.7602568 282.5 0 0 0 65.717331
3.6756358 -5.2583423 1.8249706 438.5 0 0 0 64.835373
4.3675456 -5.3513193 1.8764217 186.5 0 0 0 63.664841
4.6471353 -5.2849674 1.7378185 516.5 0 0 0 63.073441
0.84958494 -4.9641361 1.5580205 68 0 0 0 71.869438
1.2799875 -4.6746521 1.7395483 131.33333 0 0 0 70.31031
1.6870503 -4.760582 1.6889504 44 0 0 0 69.144646
2.2233725 -4.839118 1.7209212 185.33333 0 0 0 67.704453
2.7587926 -4.7347007 1.8664801 309.5 0 0 0 66.156708
3.1356559 -4.6773939 1.7447245 331.60001 0 0 0 65.150703
3.6602769 -4.7514348 1.7710184 293.85715 0 0 0 64.10807
4.358829 -4.8369694 1.8532917 355 0 0 0 62.880718
4.6493735 -4.5622253 1.6939986 592.5 0 0 0 61.892521
5.194046 -4.5044417 1.6170665 766 0 0 0 60.917999
7.2419004 -4.6083035 1.5903996 534 0 0 0 58.57312
8.4776325 -4.552495 1.7795019 251 0 0 0 57.402649
10.334606 -4.6010556 1.5256163 160 0 0 0 56.235889
0.42215249 -4.3853035 1.6904163 64 0 0 0 73.040382
2.9303265 -4.301404 1.8071578 378.5 0 0 0 65.033554
3.1736314 -4.3599834 1.8717518 297.5 0 0 0 64.543816
3.767375 -4.4677148 1.8102531 262 0 0 0 63.399059
4.2250876 -4.2520199 1.5610918 300.33334 0 0 0 62.089916
4.6989717 -4.3348436 1.73981 427.5 0 0 0 61.408154
5.0976567 -4.2099605 1.6657925 594 0 0 0 60.526333
5.7609282 -4.2948151 1.7770617 516 0 0 0 59.749126
6.1581807 -4.3594151 1.5880089 538.33331 0 0 0 59.357712
6.7081709 -4.2699928 1.6720601 530 0 0 0 58.57312
7.2350144 -4.2770638 1.6258955 382.66666 0 0 0 58.058002
8.1381855 -4.1165013 1.6889031 216 0 0 0 57.007648
8.8285265 -4.1954327 1.8077575 346 0 0 0 56.616779
9.1001272 -4.0530944 1.8420027 187 0 0 0 56.235889
9.7164717 -4.1383209 1.7760506 370.33334 0 0 0 55.969055
10.64307 -4.2244101 1.6400013 356.33334 0 0 0 55.578808
12.366899 -4.1037712 1.7527387 219 0 0 0 54.679329
14.645988 -4.4645853 1.6760533 219 0 0 0 54.284008
15.594791 -4.3373451 1.7699045 190 0 0 0 53.89946
16.680683 -4.1999955 1.8786439 108 0 0 0 53.507671
4.6647439 -3.8808796 1.7562345 823.16669 0 0 0 60.590576
5.2847538 -3.9415174 1.8795035 273 0 0 0 59.749126
10.801356 -3.8828356 1.54831 503 0 0 0 55.070553
16.828737 -3.799932 1.8842664 131 0 0 0 53.11882
5.4192462 -3.4504056 1.9920478 269 0 0 0 58.57312
15.922256 2.3553307 1.7597218 233 0 0 0 47.253071
-4.0648494 2.9560091 1.7705802 103 0 0 0 9.7649498
4.4554262 2.8497355 1.5198737 907 0 0 0 40.616512
4.8155899 2.7846317 1.6524832 856 0 0 0 41.321877
5.2499027 2.6638188 1.6157521 437.5 0 0 0 42.18692
10.32081 2.8617175 1.7128906 663 0 0 0 45.307472
15.542787 2.69169 1.7251114 419 0 0 0 46.87215
29.034309 2.834621 1.7220321 30 0 0 0 48.036419
-3.5982814 3.1903691 1.6986471 5.5999999 0 0 0 11.319209
-3.2748494 3.2299724 1.6559107 48.5 0 0 0 12.192838
-2.7169819 3.2571039 1.5549065 25.75 0 0 0 13.753799
-2.368459 3.2540781 1.5271745 8.666667 0 0 0 14.836906
3.98985 3.48276 1.5204136 610 0 0 0 38.277969
4.2718596 3.2267697 1.7096817 748.71429 0 0 0 39.395275
4.7112226 3.1785653 1.8412797 660.5 0 0 0 40.225197
9.8080883 3.3369873 1.7444462 638.66669 0 0 0 44.391712
10.060097 3.0586939 1.8126665 623.5 0 0 0 44.914082
15.519442 3.0827665 1.7300264 396 0 0 0 46.475792
1.7800124 3.5370035 1.5339062 377 0 0 0 32.213608
2.2826912 3.549505 1.5892103 458.28571 0 0 0 33.857235
2.5791509 3.5512426 1.6979839 292 0 0 0 34.756599
3.967736 3.6397021 1.5447291 890 0 0 0 37.892471
4.1601467 3.7220747 1.7393261 650.5 0 0 0 38.085896
9.7493048 3.679692 1.8410931 698.33331 0 0 0 43.876492
15.720375 3.7319818 1.7654521 325.5 0 0 0 45.885498
0.31047079 4.3411684 1.6725008 123 0 0 0 25.96962
9.7463875 4.0490189 1.6876068 410 0 0 0 43.36042
0.70157778 8.8267794 1.8453255 402 0 0 0 25.96962
-0.058896437 9.1638794 1.9064962 635 0 0 0 24.593491
0.16312975 9.030694 1.8801272 590 0 0 0 24.98387
-0.29427344 9.5814724 1.9921335 607 0 0 0 24.209579
-2.8264692 10.489464 1.9804461 733.5 0 0 0 20.501415
12.969377 10.142184 1.79186 103 0 0 0 39.065941
13.782123 10.23977 1.8674806 180 0 0 0 39.446312
14.587639 10.289616 1.9405817 246 0 0 0 39.833881
16.488573 10.451562 1.6445831 91 0 0 0 40.616512
-2.838769 10.539564 1.720259 350 0 0 0 20.501415
-2.3014677 10.584075 1.8417529 414.5 0 0 0 21.28248
-1.7659268 10.603182 1.8296061 823 0 0 0 22.05736
-1.2417501 10.664145 1.8286662 718.5 0 0 0 22.839371
-0.84779453 10.700207 1.8290679 576 0 0 0 23.419531
13.033872 10.718857 1.8351486 16 0 0 0 38.672779
13.003872 11.241078 1.8680342 11 0 0 0 38.277969
12.927233 11.742163 1.8967631 26 0 0 0 37.892471
12.815718 12.229038 1.9228239 35 0 0 0 37.500366
12.659164 12.688627 1.9445238 207 0 0 0 37.110722
9.1886969 13.099159 1.7366018 159 0 0 0 34.3564
12.583559 13.24785 1.7589375 163 0 0 0 36.71706
10.078879 13.637097 1.8384957 18 0 0 0 34.756599
10.58603 13.608415 1.8689423 13 0 0 0 35.139999
11.063013 13.520708 1.8938917 136 0 0 0 35.52927
11.774776 13.686524 1.7365794 16 0 0 0 35.929241
12.360394 13.67078 1.7726054 23 0 0 0 36.320911
-18.803528 18.773157 1.5066351 42 0 0 0 12.0961
4.1840467 18.818394 1.6093925 47 0 0 0 28.11137
8.2826309 21.562445 1.9242107 101 0 0 0 30.454359
-24.222248 -31.039911 2.2594774 51 0 0 0 85.165741
-23.252426 -31.352894 2.2397776 16 0 0 0 84.770943
-20.850082 -31.202089 2.1536229 19 0 0 0 83.987411
-19.7381 -31.165987 2.1172113 32 0 0 0 83.59156
-18.658077 -31.123531 2.0827749 32 0 0 0 83.206528
-17.451908 -30.79957 2.0323353 28 0 0 0 82.825371
-28.795731 -28.803185 2.3396642 40 0 0 0 87.130577
-27.36026 -28.743818 2.2797875 46 0 0 0 86.736008
-25.779858 -28.449072 2.2060328 52 0 0 0 86.340652
-23.348717 -28.453695 2.1151621 8 0 0 0 85.556236
-32.343132 -22.790884 2.2798672 41 0 0 0 89.867722
-32.464497 -21.704796 2.2515931 25 0 0 0 90.256767
-15.068769 -21.404005 2.1647291 48 0 0 0 84.375717
-17.981455 -14.770706 2.4982665 14 0 0 0 88.676712
-17.159481 -14.815009 2.434217 105 0 0 0 88.292709
-15.832264 -14.3618 2.2967424 85 0 0 0 87.893265
-0.69445378 -9.3206348 2.17102 370 0 0 0 75.784462
-2.272923 -8.6106129 2.0697842 462 0 0 0 78.71418
-1.7518619 -8.7894144 2.0830982 523.66669 0 0 0 77.732452
1.2756784 -6.4809952 2.1968603 194 0 0 0 71.481918
1.2367755 -5.5606833 2.0387087 45 0 0 0 71.099449
2.1142223 -5.9491754 2.2577713 53 0 0 0 69.144646
5.1370897 -5.9844484 2.0406942 362 0 0 0 63.266167
1.6277244 -5.410284 2.0231426 327 0 0 0 69.924713
3.9849741 -5.1335659 2.4880252 213 0 0 0 64.050995
4.9762673 -5.2541647 2.0562377 206 0 0 0 62.484711
5.1272368 -5.1543436 2.3354049 208.5 0 0 0 62.09042
6.963892 -5.4583859 2.0714397 126 0 0 0 60.137779
7.3517189 -5.2001791 2.2209423 250 0 0 0 59.36034
7.7112799 -5.1745753 2.4019818 328 0 0 0 58.963673
2.7208166 -4.7741899 2.0731652 253 0 0 0 66.307068
3.3428359 -4.5352054 2.161186 187 0 0 0 64.44384
4.2496352 -4.7571969 2.2578104 418.54544 0 0 0 62.949123
4.8991556 -4.9241314 2.1466076 455 0 0 0 62.088913
5.2271872 -4.7627821 2.0115232 530 0 0 0 61.31216
7.3547268 -4.9359694 2.0749254 350 0 0 0 58.963673
7.6565361 -4.7837815 2.191103 349.33334 0 0 0 58.444519
8.3281164 -4.7382288 2.3588865 296.25 0 0 0 57.797176
8.5144444 -4.5713959 2.1438189 216.5 0 0 0 57.402649
11.968967 -4.6368027 2.363117 177 0 0 0 55.450394
14.550374 -4.8266649 2.4353693 296 0 0 0 54.679329
2.8807702 -4.3408723 2.0001466 382 0 0 0 65.226898
3.2204511 -4.2561355 2.0507703 222 0 0 0 64.252525
4.3606467 -4.3313608 2.2458935 337.75 0 0 0 61.990719
4.7146597 -4.2670922 2.2811725 455 0 0 0 61.252857
5.1962423 -4.0766196 2.0450861 352 0 0 0 60.137779
6.0134287 -4.0377083 2.240592 92 0 0 0 58.963673
7.7091002 -4.3868375 2.079016 533 0 0 0 57.799366
8.433609 -4.2637639 2.2133546 268 0 0 0 57.007648
8.7652817 -4.2969007 2.0460348 380.5 0 0 0 56.812214
9.2732983 -4.4043207 2.4015341 315 0 0 0 56.616779
10.037279 -4.3235016 2.2868285 267.5 0 0 0 56.035767
11.64987 -4.1871457 2.2808008 157 0 0 0 55.070553
12.462802 -4.4785485 2.1088216 304 0 0 0 55.070553
14.499095 -4.4171576 2.0328553 170 0 0 0 54.284008
14.941064 -4.1530752 2.2709603 224 0 0 0 53.89946
17.118761 -4.3069134 2.3616397 144 0 0 0 53.507671
24.647675 -4.3024187 2.1072953 178 0 0 0 52.3326
4.7796502 -3.942179 2.1761429 431.5 0 0 0 60.526333
5.2440138 -3.7876685 2.2029173 259.5 0 0 0 59.505138
5.87431 -3.5391135 2.1243205 231 0 0 0 58.187321
8.9398756 -3.9802122 2.2914002 207 0 0 0 56.235889
16.948046 -3.8236856 2.3251939 137 0 0 0 53.11882
18.324615 -3.6628642 2.4981673 95 0 0 0 52.725769
5.2832732 -3.3019016 2.3435447 44.666668 0 0 0 58.444519
10.44766 2.8970065 2.0026104 643 0 0 0 45.307472
10.241074 3.3916724 2.258796 546 0 0 0 44.519878
10.340696 3.7095995 2.2992773 247 0 0 0 44.135391
-5.8485236 5.4983807 2.2414339 82 0 0 0 11.70826
-5.8764534 5.5226402 2.4482164 37 0 0 0 11.70826
0.27631041 9.1480675 2.1289158 596.5 0 0 0 25.180645
-2.8229713 10.473963 2.2437649 779 0 0 0 20.501415
16.501152 10.460223 2.1211851 118 0 0 0 40.616512
-2.2927222 10.534298 2.3631043 819 0 0 0 21.28248
-1.7648655 10.584863 2.3537169 775 0 0 0 22.057362
-1.2418752 10.64805 2.3527141 621.75 0 0 0 22.839371
-0.71716172 10.694768 2.3538361 639 0 0 0 23.613945
-0.32434794 10.736594 2.490911 481 0 0 0 24.209579
0.46658587 10.663255 2.2163975 382 0 0 0 25.37742
17.609955 10.563539 2.2280655 144 0 0 0 41.005821
23.564211 11.14239 2.1859386 72 0 0 0 42.572369
2.7208569 12.350652 2.3126109 474 0 0 0 28.11137
12.736688 12.159032 2.3453107 192 0 0 0 37.500366
12.699286 12.734037 2.3938851 191 0 0 0 37.110722
9.1879921 13.10409 2.1310713 46 0 0 0 34.3564
9.887908 13.386013 2.2147982 49 0 0 0 34.756599
10.39817 13.373981 2.2542052 138 0 0 0 35.139999
10.909289 13.33949 2.2930126 176 0 0 0 35.52927
11.540271 13.421391 2.3549139 190 0 0 0 35.929241
12.189677 13.488972 2.4183941 185 0 0 0 36.320911
12.628889 13.301475 2.4400926 171 0 0 0 36.71706
-21.008547 15.556564 2.126056 49 0 0 0 9.7649498
-19.99353 15.575288 2.0630488 42 0 0 0 10.15168
-25.138956 16.782698 2.4515991 74 0 0 0 8.9758101
-19.658524 16.925806 2.1128414 27 0 0 0 10.92527
-18.328556 16.576082 2.0151362 38 0 0 0 11.32084
-18.192112 17.282373 2.0466421 80 0 0 0 11.70826
-25.00256 17.592472 2.4802909 26 0 0 0 9.3682604
-22.186266 18.18222 2.3320777 22 0 0 0 10.53657
-18.659883 18.621174 2.1496646 25 0 0 0 12.0961
4.1793766 18.801384 2.0758805 168 0 0 0 28.11137
8.1575699 22.894798 2.0222905 90 0 0 0 30.05574
7.8734651 23.93627 2.0947478 122 0 0 0 29.665091
7.5085902 27.248714 2.3440251 52 0 0 0 28.887659
8.2122383 27.175867 2.3548491 31 0 0 0 29.28083
-18.645969 -31.115612 2.9849672 64 0 0 0 83.206528
-17.526369 -30.943502 2.9266505 64 0 0 0 82.825371
-24.032993 -25.257776 2.8751323 19 0 0 0 86.736008
-14.911782 -21.181074 2.7715559 51 0 0 0 84.375717
-15.044802 -18.341997 2.5422912 23 0 0 0 85.556236
44.142475 -8.8314762 2.6394672 22 0 0 0 52.725769
47.997082 -8.3820848 2.8538501 27 0 0 0 52.3326
7.784987 -5.2228103 2.6582127 310 0 0 0 58.96571
7.9543114 -4.7884445 2.6334329 409 0 0 0 58.187321
8.3850117 -4.5014362 2.6993418 352 0 0 0 57.402649
8.5296917 -4.8524146 2.7817419 355 0 0 0 57.799366
11.117329 -4.6228442 2.8107224 100 0 0 0 55.83564
11.790549 -4.5656123 2.9500637 73 0 0 0 55.450394
15.24161 -4.642951 2.7249088 102 0 0 0 54.284008
5.6183548 -4.1864853 2.5135517 84 0 0 0 59.749126
8.8249226 -4.4610538 2.557482 428 0 0 0 57.007648
9.351903 -4.3481503 2.7520859 202.33333 0 0 0 56.489819
11.490133 -4.4518108 2.5739074 65 0 0 0 55.450394
15.401937 -4.2809443 2.9347587 159 0 0 0 53.89946
5.3540716 -3.7911127 2.5182104 60 0 0 0 59.3564
8.4551287 -3.7652071 2.6275735 18 0 0 0 56.235889
15.47601 -3.8943262 2.5343053 233 0 0 0 53.507671
16.135162 -3.6405876 2.6255455 177 0 0 0 53.11882
17.446798 -3.487639 2.8213701 75 0 0 0 52.725769
8.3761444 9.7644024 2.9927745 177 0 0 0 35.929241
9.465518 9.9852791 2.8616371 189 0 0 0 36.71706
9.7704325 9.810998 2.8801203 316 0 0 0 37.110722
-4.7042851 10.462665 2.6460083 442 0 0 0 17.957069
-4.3737655 10.399284 2.6033823 458 0 0 0 18.345671
-3.6413975 10.392813 2.6785638 522.75 0 0 0 19.32251
-3.2321548 10.440049 2.6596212 562 0 0 0 19.914101
-2.8259547 10.475349 2.6418781 645.5 0 0 0 20.501415
10.979925 10.490055 2.7810183 175 0 0 0 37.500366
-4.1988525 10.714552 2.6558378 433 0 0 0 18.746849
-2.2906828 10.515961 2.7541707 645.5 0 0 0 21.28248
-1.7661381 10.581635 2.7469673 600 0 0 0 22.05736
-1.2418202 10.632397 2.7425795 524.5 0 0 0 22.839371
9.3443384 10.881447 2.9803014 132 0 0 0 35.929241
9.5615082 10.595297 2.966275 122 0 0 0 36.320911
10.833696 10.872371 2.8098881 102 0 0 0 37.110722
10.685461 11.264464 2.8414042 147 0 0 0 36.71706
23.497656 11.111773 2.8121555 88 0 0 0 42.572369
10.491401 11.619335 2.8640244 121 0 0 0 36.320911
12.12768 11.580765 2.6510029 90 0 0 0 37.500366
10.252745 12.235062 2.9188652 95.5 0 0 0 35.729256
12.010741 12.047232 2.6882162 113 0 0 0 37.110722
9.9717703 12.830359 2.9693961 101 0 0 0 35.139999
11.792236 12.736273 2.7412994 74.5 0 0 0 36.518986
9.7413492 13.190267 2.7916648 171.5 0 0 0 34.756599
10.314003 13.267327 2.6528955 176 0 0 0 35.139999
10.885235 13.311251 2.7143102 161 0 0 0 35.52927
11.517035 13.395508 2.7881844 132 0 0 0 35.929241
-21.264359 15.745569 2.7923758 51 0 0 0 9.7649498
-19.160378 15.692385 2.6173637 54 0 0 0 10.53657
-18.536638 15.954799 2.5860212 89 0 0 0 10.92527
-26.120977 16.529333 2.505512 33 0 0 0 8.5843697
-18.371801 16.614109 2.6197014 72 0 0 0 11.32084
-18.900173 17.956549 2.7567701 58 0 0 0 11.70826
-18.726755 18.686737 2.798161 35 0 0 0 12.0961
8.2860746 20.105019 2.8777266 86 0 0 0 30.84956
8.3343191 21.698698 2.5010402 127 0 0 0 30.454359
8.2338161 23.110241 2.6371741 90 0 0 0 30.05574
7.8914962 23.99399 2.7134895 92 0 0 0 29.665091
-23.440548 -31.618147 3.2379115 50 0 0 0 84.770943
-20.953026 -31.368013 3.1036308 71 0 0 0 83.987411
-19.775263 -31.236717 3.0419576 60 0 0 0 83.59156
-28.981688 -28.999474 3.3756139 25 0 0 0 87.130577
-14.102404 -26.386314 3.1939466 24 0 0 0 82.425003
-14.088642 -24.873856 3.0536058 24 0 0 0 82.825371
-16.01248 -17.684521 3.1438169 12 0 0 0 86.340652
-17.897409 -16.240341 3.1863382 25 0 0 0 87.893265
-17.726627 -14.56676 3.0278409 34 0 0 0 88.676712
-17.287144 -14.930581 3.0140445 61 0 0 0 88.292709
-15.322491 -14.605344 3.3184493 42 0 0 0 87.511505
-15.944577 -13.771527 3.3039653 49 0 0 0 88.292709
-16.179167 -10.828238 3.0581441 19 0 0 0 90.256767
40.809792 -9.2052937 3.497736 30 0 0 0 53.11882
14.722978 -5.2890005 3.2576468 204 0 0 0 55.070553
15.988697 -5.3028827 3.089895 80 0 0 0 54.679329
10.848465 -4.5114779 3.32531 51 0 0 0 55.83564
11.016331 -4.5810294 3.0790944 51 0 0 0 55.83564
15.452105 -4.7069941 3.3629613 92 0 0 0 54.284008
11.436808 -4.4290318 3.1645193 47 0 0 0 55.450394
12.177501 -4.3740201 3.0184655 44 0 0 0 55.070553
15.477596 -4.3019447 3.3449488 241 0 0 0 53.89946
16.106426 -4.0526457 3.2535443 77.5 0 0 0 53.507671
11.101933 -3.988652 3.0456877 40 0 0 0 55.070553
16.330956 -3.6846437 3.2763157 89 0 0 0 53.11882
11.285238 -3.4379923 3.0464194 46 0 0 0 54.284008
25.492985 6.3803124 3.4937825 71 0 0 0 45.690762
7.8537655 9.6283073 3.1970327 450 0 0 0 35.52927
8.2640839 9.6353035 3.2658696 294 0 0 0 35.929241
8.7311745 9.6845913 3.1935883 284 0 0 0 36.320911
9.2098999 9.721529 3.2793319 274.5 0 0 0 36.71706
9.7234774 9.7681952 3.2051558 268 0 0 0 37.110722
-3.7746129 10.359386 3.2243772 453 0 0 0 19.128929
-3.3616862 10.397556 3.1973596 528 0 0 0 19.715096
-2.8241482 10.461262 3.1724014 480 0 0 0 20.501415
-2.3322144 10.493382 3.105149 613 0 0 0 21.218071
7.8080068 10.066969 3.2763922 393 0 0 0 35.139999
8.278532 10.402164 3.0906813 148 0 0 0 35.334633
-2.1589184 10.517241 3.2772968 507 0 0 0 21.47571
-1.7624608 10.548654 3.1349916 602.75 0 0 0 22.057362
-1.3702849 10.596252 3.0018275 551 0 0 0 22.642519
4.7311764 10.794621 3.3230207 31 0 0 0 31.23196
7.8176632 10.606061 3.2234576 273.5 0 0 0 34.756599
9.2040768 11.267008 3.0218265 107 0 0 0 35.52927
8.841424 11.97979 3.0906081 161 0 0 0 34.756599
9.0667686 11.672976 3.0687394 100 0 0 0 35.139999
0.53444064 12.09363 3.1023953 118 0 0 0 25.37742
1.2891623 12.15552 3.437876 361 0 0 0 26.355286
1.7539973 12.218483 3.4720531 350 0 0 0 26.93845
6.4252157 15.626317 3.4972374 80 0 0 0 30.84956
-27.388615 16.406738 3.3592961 37 0 0 0 8.2027597
-26.256895 16.614408 3.2711 19 0 0 0 8.5843697
-25.069872 16.735216 3.1750865 60 0 0 0 8.9758101
-24.839775 17.476294 3.2000706 43 0 0 0 9.3682604
7.1905661 17.469215 3.4406717 43 0 0 0 30.84956
-23.010769 17.933851 3.0770738 42 0 0 0 10.15168
6.8312912 17.828205 3.476362 62 0 0 0 30.454359
8.1719265 19.832258 3.3702881 37 0 0 0 30.84956
7.8170071 20.376665 3.4279842 54 0 0 0 30.454359
7.4268994 20.878202 3.479526 35 0 0 0 30.05574
8.4318132 21.964848 3.1099908 59 0 0 0 30.454359
8.1814585 27.078764 3.0339105 48 0 0 0 29.28083
-19.787195 -31.255566 3.9421959 89 0 0 0 83.59156
-18.669506 -31.154856 3.8707778 68 0 0 0 83.206528
-23.925344 -25.144806 3.7054241 18 0 0 0 86.736008
-22.864536 -25.241457 3.6359265 64 0 0 0 86.340652
-14.983803 -22.440578 3.5486057 26 0 0 0 83.987411
-16.231743 -17.926725 3.7847171 6 0 0 0 86.340652
-17.492226 -15.872904 3.6994345 19 0 0 0 87.893265
-2.789196 -14.959007 3.8872581 141.5 0 0 0 77.538666
-2.1959414 -14.774358 3.8161416 152 0 0 0 76.954285
-1.8096784 -14.631143 3.7671118 128 0 0 0 76.560707
-1.2837081 -14.824869 3.8025212 185.5 0 0 0 75.979202
-0.72326231 -14.576756 3.7301395 45 0 0 0 75.396111
-15.980154 -13.802361 3.8338497 49 0 0 0 88.292709
6.2426481 -12.444768 3.9142404 207 0 0 0 67.183342
44.25486 -8.845789 3.7704875 20 0 0 0 52.725769
10.234728 -5.1694899 3.5273464 36 0 0 0 57.007648
15.907383 -5.2745018 3.6919396 54.5 0 0 0 54.679329
16.155685 -3.6421661 3.8537745 25 0 0 0 53.11882
26.856476 5.3338995 3.6397033 47 0 0 0 46.475792
7.8913517 9.6769314 3.6776059 430.5 0 0 0 35.52927
8.2297516 9.5983086 3.7233696 247.5 0 0 0 35.929241
8.6836452 9.6353083 3.819613 241.5 0 0 0 36.320911
9.1727324 9.6835804 3.7628808 248 0 0 0 36.71706
9.6916065 9.7373981 3.7038517 261 0 0 0 37.110722
-3.7553945 10.299925 3.7444386 125.5 0 0 0 19.128929
-3.3597267 10.384793 3.7300699 417.5 0 0 0 19.715096
-2.8196311 10.436043 3.6964946 440 0 0 0 20.501415
-2.3341291 10.488441 3.7197618 437.33334 0 0 0 21.218071
7.7588043 10.179648 3.7144823 207.66667 0 0 0 35.012199
-2.1576304 10.517851 3.5424278 409 0 0 0 21.47571
-1.8942788 10.529428 3.6614966 410 0 0 0 21.864269
-0.066538855 10.685542 3.7945473 254 0 0 0 24.593491
0.19740753 10.736038 3.8138056 306 0 0 0 24.98387
4.7187381 10.772823 3.6056812 31 0 0 0 31.23196
3.4748929 12.759153 3.7203844 160 0 0 0 28.887659
3.7823234 12.651941 3.7157819 405 0 0 0 29.28083
4.3028316 12.663649 3.7641706 155 0 0 0 29.860416
4.907692 12.861431 3.5314429 189 0 0 0 30.454359
5.2425046 12.785318 3.7169614 330.5 0 0 0 30.84956
3.263149 13.252292 3.8379579 51 0 0 0 28.49696
3.5662854 14.458619 3.8143148 36 0 0 0 28.49696
5.6505995 14.263714 3.5549898 77 0 0 0 30.651958
6.1177649 15.983599 3.5415022 82 0 0 0 30.454359
5.807539 16.365536 3.5923772 79 0 0 0 30.05574
5.4779353 16.728741 3.6404216 55 0 0 0 29.665091
-23.399446 17.324915 3.783886 21 0 0 0 9.7649498
5.1496692 17.137066 3.6994748 67 0 0 0 29.28083
-25.137293 17.678452 3.9913716 29 0 0 0 9.3682604
-22.890299 17.831902 3.7722342 41 0 0 0 10.15168
-21.464024 17.579342 3.6090848 34 0 0 0 10.53657
-19.96032 18.049097 3.5036345 23 0 0 0 11.32084
6.5015545 18.299501 3.5349119 44 0 0 0 30.05574
6.169168 18.814716 3.602829 56 0 0 0 29.665091
-19.228685 19.18148 3.5381498 10 0 0 0 12.0961
5.0112891 20.194664 3.7823555 44 0 0 0 28.49696
-21.705826 20.624357 3.8964884 41 0 0 0 11.70826
-23.531712 -31.741188 4.210053 45 0 0 0 84.770943
-20.969429 -31.392601 4.0229201 70 0 0 0 83.987411
-29.006321 -29.024309 4.3751688 23 0 0 0 87.130577
-12.14133 -25.680826 4.4348617 8 0 0 0 81.64843
-12.782193 -25.405375 4.4402828 16 0 0 0 82.039047
-13.234354 -20.913071 4.4819174 21 0 0 0 83.59156
-16.278704 -17.978678 4.3957953 10 0 0 0 86.340652
-5.0887384 -16.777328 4.4733505 9 0 0 0 79.29454
-4.6343246 -16.745596 4.4335618 68 0 0 0 78.912354
-2.1662426 -14.573026 4.1303334 123 0 0 0 76.954285
-16.261093 -14.045043 4.4292479 24 0 0 0 88.292709
-2.8480649 -14.302277 4.0883932 166 0 0 0 77.730865
-1.7533876 -14.17311 4.0047154 171 0 0 0 76.560707
-1.405138 -14.205873 4.0032091 119 0 0 0 76.17395
-1.3663317 -13.834751 4.2410507 190 0 0 0 76.17395
6.237824 -12.430395 4.2521567 93 0 0 0 67.183342
13.78746 -4.7615843 4.2977362 31.5 0 0 0 54.874939
13.840365 -4.2117834 4.4435549 117 0 0 0 54.284008
-16.012943 1.1867839 4.2473469 63 0 0 0 0.78865999
26.906336 6.0353875 4.3480902 23 0 0 0 46.080238
27.068964 6.7747169 4.3988962 36 0 0 0 45.690762
29.991169 6.7255597 4.0802445 44 0 0 0 46.080238
7.9457731 9.7464724 4.3245754 308.5 0 0 0 35.52927
8.207408 9.5755539 4.3373661 211.5 0 0 0 35.929241
8.662818 9.6117268 4.2908354 194 0 0 0 36.320911
9.1557579 9.6685104 4.2497315 222 0 0 0 36.71706
9.6800251 9.7302694 4.2097397 183 0 0 0 37.110722
10.23502 9.7919502 4.3437939 174 0 0 0 37.500366
-3.3571115 10.368057 4.1239295 380.5 0 0 0 19.715096
-2.8192046 10.42486 4.0888348 340 0 0 0 20.501415
-2.2898321 10.482523 4.0646505 347.5 0 0 0 21.28248
7.8240705 10.089944 4.2325544 122 0 0 0 35.139999
-1.7611518 10.510798 4.039402 277.5 0 0 0 22.05736
-0.06702508 10.708393 4.0647545 345 0 0 0 24.593491
0.19667564 10.725722 4.0728316 365 0 0 0 24.98387
7.7695961 10.545767 4.1786795 125 0 0 0 34.756599
0.67467427 12.049179 4.2841101 332.5 0 0 0 25.576824
1.1301143 12.112177 4.1696615 261 0 0 0 26.16301
31.03784 13.755617 4.497695 20 0 0 0 42.962952
-20.157568 16.504133 4.0333953 23 0 0 0 10.53657
-22.864225 17.810188 4.48314 18 0 0 0 10.15168
-19.729687 17.838354 4.1196885 21 0 0 0 11.32084
-19.397034 19.348568 4.2450976 20 0 0 0 12.0961
-26.828382 -34.391884 4.6446104 17 0 0 0 85.165741
-19.822298 -31.323099 4.8616433 45 0 0 0 83.59156
-18.67704 -31.179733 4.7670937 63 0 0 0 83.206528
-16.558744 -30.99544 4.6095014 52 0 0 0 82.425003
-23.008173 -29.505783 4.909132 51 0 0 0 85.165741
-30.643677 -29.194269 4.512495 10 0 0 0 87.511505
-23.44026 -28.58593 4.8513103 42 0 0 0 85.556236
-23.785517 -25.006763 4.5332894 4 0 0 0 86.736008
0.46257272 -19.211164 4.9021578 98 0 0 0 74.22065
-4.5187364 -18.037067 4.7425075 15 0 0 0 78.516006
-4.0345201 -17.959755 4.6951404 101 0 0 0 78.12001
-14.809455 -17.184887 4.6713991 20 0 0 0 85.950714
-4.6786385 -16.905472 4.9111137 93 0 0 0 78.912354
-4.2106977 -16.805634 4.851089 115 0 0 0 78.516006
-3.5552459 -15.83519 4.9452138 71 0 0 0 78.12001
-3.1768985 -15.970954 4.9617777 77 0 0 0 77.730865
-18.314877 -15.050383 4.8836823 7 0 0 0 88.676712
-16.301065 -14.084637 4.9679656 11 0 0 0 88.292709
-14.747909 -13.388385 4.595356 24 0 0 0 87.893265
6.3117971 -12.573194 4.9941015 58 0 0 0 67.183342
-15.044404 -12.368362 4.9731407 12 0 0 0 88.676712
44.361546 -8.8669806 4.8793545 20 0 0 0 52.725769
-17.017256 -2.1178005 4.8220086 73 0 0 0 97.668045
-16.312134 -1.6246061 4.61164 24 0 0 0 98.05645
-15.611307 1.1537671 4.7163267 88 0 0 0 0.78865999
-15.072373 1.4863822 4.9357162 87 0 0 0 1.17269
-16.260117 1.6016481 4.9230075 49 0 0 0 1.17269
31.18568 5.4000025 4.9858818 25 0 0 0 46.87215
8.1015072 9.6966715 4.811327 215.5 0 0 0 35.729256
8.6195822 9.571806 4.7459917 191 0 0 0 36.320911
9.1420946 9.6602764 4.7368498 145 0 0 0 36.71706
9.626462 9.6777449 4.6926279 162 0 0 0 37.110722
10.190369 9.7467346 4.6742101 110 0 0 0 37.500366
-11.862892 10.169165 4.7279987 7 0 0 0 10.92527
7.9600534 10.272728 4.7866402 228 0 0 0 35.139999
7.8953886 10.722504 4.7390113 103 0 0 0 34.756599
0.52191776 11.979566 4.5498967 436 0 0 0 25.37742
5.211647 12.728575 4.8880048 176 0 0 0 30.84956
5.6025405 12.768612 4.7841735 156.5 0 0 0 31.23196
28.476599 13.469744 4.956244 32 0 0 0 42.572369
28.07622 14.135037 4.9449592 24 0 0 0 42.18692
31.26527 14.785639 4.5804687 26 0 0 0 42.572369
-20.813919 16.206305 4.7336483 6 0 0 0 10.15168
-25.052143 17.617073 4.733706 48 0 0 0 9.3682604
-24.119181 17.858311 4.6402102 48 0 0 0 9.7649498
-21.617474 20.538507 4.6167278 16 0 0 0 11.70826
-22.288422 -31.669952 5.0786791 51 0 0 0 84.375717
-16.564507 -31.006121 5.4808726 35 0 0 0 82.425003
-22.92103 -30.928877 5.0492535 36 0 0 0 84.770943
-28.984816 -29.013111 5.3812323 35 0 0 0 87.130577
-12.537764 -20.930655 5.0187531 16 0 0 0 83.206528
2.4518979 -19.977489 5.1345329 28 0 0 0 72.650909
-5.5085855 -18.162336 5.3112597 45 0 0 0 79.29454
-4.0343585 -17.95842 5.1518273 33 0 0 0 78.12001
-2.993577 -17.250034 5.3325062 45 0 0 0 77.346474
-1.2924973 -17.474741 5.3376021 55 0 0 0 75.784462
-2.2804146 -16.789932 5.1623783 95 0 0 0 76.757492
-9.8059235 -16.376514 5.3429708 16 0 0 0 83.206528
-2.8126285 -16.187542 5.4124064 119 0 0 0 77.346474
-2.4282105 -16.338869 5.4414363 41 0 0 0 76.954285
-1.6133237 -16.318674 5.4024301 72 0 0 0 76.17395
-3.5850389 -15.954518 5.3867717 59 0 0 0 78.12001
-3.167948 -15.910701 5.3444839 85 0 0 0 77.730865
3.5370564 -15.820435 5.345717 22 0 0 0 71.099449
-11.784808 -15.11997 5.3675532 9 0 0 0 85.165741
-11.224535 -15.152945 5.2801285 17 0 0 0 84.770943
-14.353284 -13.686963 5.0621614 34 0 0 0 87.511505
6.2285962 -12.408518 5.2693424 49 0 0 0 67.183342
-14.439718 -11.871541 5.2389994 18 0 0 0 88.676712
-13.676887 -10.167291 5.199275 44 0 0 0 89.464897
48.157356 -8.4010239 5.2696638 19 0 0 0 52.3326
15.370582 -5.9488678 5.4640622 53 0 0 0 55.450394
14.239609 -4.7158589 5.346086 28 0 0 0 54.679329
14.024045 -4.2649369 5.2255259 29 0 0 0 54.284008
-16.72171 -2.5023513 5.1704435 48 0 0 0 97.274651
-14.603455 -1.8230889 5.2311759 55 0 0 0 97.668045
-15.272777 0.39527526 5.2874584 64 0 0 0 0
-15.798905 1.1702259 5.1621356 39 0 0 0 0.78865999
-15.08734 1.1117257 5.2977138 9 0 0 0 0.78865999
-14.645659 1.8001597 5.1683898 17 0 0 0 1.56859
-16.678244 2.0550625 5.0637221 22 0 0 0 1.56859
-14.380868 2.4839354 5.4677072 36 0 0 0 2.3431201
27.009275 6.0590482 5.0508604 35 0 0 0 46.080238
31.205256 6.196866 5.0110736 55 0 0 0 46.475792
27.077404 6.7774715 5.092298 36 0 0 0 45.690762
25.31395 7.6774988 5.4790492 45 0 0 0 44.914082
9.5377007 10.076714 5.2803473 58 0 0 0 36.71706
11.230155 10.220237 5.0306668 78 0 0 0 37.892471
5.2019496 12.70661 5.2163954 198 0 0 0 30.84956
5.5796633 12.725075 5.2790785 210 0 0 0 31.23196
30.828163 13.663838 5.3032293 39 0 0 0 42.962952
-25.019836 17.592981 5.4825554 56 0 0 0 9.3682604
-24.065722 17.817272 5.36903 59 0 0 0 9.7649498
-21.881895 17.920155 5.0749331 30 0 0 0 10.53657
-21.366991 19.323118 5.1712379 39 0 0 0 11.32084
-21.503687 20.428421 5.3247538 37 0 0 0 11.70826
-21.598583 21.551722 5.4783463 32 0 0 0 12.0961
-21.000357 -31.450838 5.8954988 40 0 0 0 83.987411
-19.834196 -31.341902 5.7823071 55 0 0 0 83.59156
-18.717705 -31.247589 5.6786723 59 0 0 0 83.206528
-17.616018 -31.114246 5.5744762 43 0 0 0 82.825371
-30.589622 -29.153172 5.544528 15 0 0 0 87.511505
-22.983356 -29.474064 5.828752 52 0 0 0 85.165741
-23.389318 -28.523933 5.7536383 44 0 0 0 85.556236
-7.5019007 -24.740561 5.9467173 11 0 0 0 79.29454
-0.57411408 -23.090557 5.8849564 50 0 0 0 74.996887
-30.925894 -21.809498 5.9107547 10 0 0 0 89.867722
-8.1901016 -21.244474 5.8001313 8 0 0 0 80.470253
-1.0304619 -20.836092 5.8361406 63 0 0 0 75.396111
1.504066 -20.537119 5.7629042 28 0 0 0 73.433403
2.0136156 -20.562729 5.7825313 34 0 0 0 73.040382
-9.6414137 -20.40107 5.7489414 9 0 0 0 81.64843
-0.0084809493 -20.493937 5.7344565 19 0 0 0 74.605316
-9.0138159 -19.072727 5.900599 14 0 0 0 81.64843
-17.187906 -18.989479 5.8972344 14 0 0 0 86.340652
-6.1804686 -18.714466 5.5141759 98 0 0 0 79.692818
-4.6932068 -18.747091 5.8826895 44 0 0 0 78.516006
1.8006186 -18.369171 5.6229582 80 0 0 0 73.040382
-4.9701214 -17.971521 5.6769214 55 0 0 0 78.912354
2.1628034 -17.639277 5.8551798 93 0 0 0 72.650909
-5.2829766 -17.428507 5.5453582 22 0 0 0 79.29454
-13.817252 -16.858084 5.5577168 6 0 0 0 85.556236
-10.521421 -16.632608 5.5083218 13 0 0 0 83.59156
-10.014959 -16.732222 5.9371901 9 0 0 0 83.206528
2.460134 -16.637182 5.9555039 85 0 0 0 72.269691
-11.352236 -16.137594 5.5227642 25 0 0 0 84.375717
-10.762186 -15.708738 5.7995024 14 0 0 0 84.181564
-13.946813 -14.670253 5.6676116 17 0 0 0 86.736008
-11.383569 -14.610574 5.6424637 4 0 0 0 85.165741
-16.551828 -14.301349 5.5809393 13 0 0 0 88.292709
-14.143297 -14.164839 5.6054964 24 0 0 0 87.130577
-13.498804 -13.524367 5.8224058 28 0 0 0 87.130577
-11.043452 -12.829641 5.9940834 15 0 0 0 85.950714
-10.615897 -11.175609 5.8391972 15 0 0 0 86.736008
-10.638265 -10.153038 5.5731788 22 0 0 0 87.511505
13.329513 -8.9264202 5.7075772 42 0 0 0 58.963673
14.714138 -6.1091399 5.6740999 5 0 0 0 55.83564
14.248897 -5.1110344 5.7661605 89 0 0 0 55.070553
14.038348 -4.649385 5.6343756 111 0 0 0 54.679329
13.869437 -4.2180429 5.524498 100 0 0 0 54.284008
-16.477404 -2.8781123 5.5290527 38 0 0 0 96.887329
-14.918817 -2.6116569 5.7528849 39 0 0 0 96.887329
-16.727751 -2.0818944 5.5729284 15 0 0 0 97.668045
-19.407305 -1.9358294 5.9600134 21 0 0 0 98.05645
-15.964374 -1.5957402 5.7002611 25 0 0 0 98.05645
-17.630043 -1.3195008 5.8443198 44 0 0 0 98.441826
-14.657345 -1.4653342 5.597847 10 0 0 0 98.05645
-14.479375 -1.0892251 5.5190573 11 0 0 0 98.441826
-14.968191 0.37098032 5.6063323 50 0 0 0 0
-17.639135 0.87522703 5.7539821 31 0 0 0 0.39392
-15.702588 0.77294582 5.5050106 31 0 0 0 0.39392
-15.855207 1.7541766 5.7820892 64 0 0 0 1.37064
-17.123663 2.5386202 5.6423035 17 0 0 0 1.9582
27.00296 6.0582385 5.7317553 52 0 0 0 46.080238
31.117165 6.1800551 5.7835145 26 0 0 0 46.475792
27.774244 6.9522691 5.9279242 11 0 0 0 45.690762
26.138052 7.2304463 5.6165991 38 0 0 0 45.307472
-27.366816 17.308416 5.8005738 28 0 0 0 8.5843697
-26.31658 17.559643 5.6689935 7 0 0 0 8.9758101
-21.927109 17.955975 5.7806206 76 0 0 0 10.53657
-21.29833 19.259327 5.8591652 48 0 0 0 11.32084
-61.946735 -45.97784 6.3304071 7 0 0 0 89.464897
-23.537924 -31.76132 6.1624718 26 0 0 0 84.770943
-22.289356 -31.671341 6.0372252 35 0 0 0 84.375717
-16.003214 -31.807846 6.4320402 12 0 0 0 82.039047
-17.610689 -31.104769 6.4574509 25 0 0 0 82.825371
-16.553614 -30.985626 6.3467283 50 0 0 0 82.425003
-28.992811 -29.021309 6.3979192 35 0 0 0 87.130577
-22.207975 -27.083523 6.3316889 8 0 0 0 85.556236
-31.762712 -23.586628 6.1768308 5 0 0 0 89.464897
-12.803335 -23.975254 6.2515597 17 0 0 0 82.425003
-7.9581318 -22.253088 6.0191083 10 0 0 0 80.078888
-0.55732143 -22.393871 6.2647209 53 0 0 0 74.996887
1.0653141 -21.889324 6.1307044 34 0 0 0 73.831596
-8.7133389 -21.049534 6.3693805 15 0 0 0 80.866867
-0.51443589 -20.781132 6.3269191 26 0 0 0 74.996887
-9.075923 -20.489552 6.2660465 5 0 0 0 81.252464
0.99442971 -20.379438 6.2117414 62 0 0 0 73.831596
-14.766068 -19.933187 6.3196545 15 0 0 0 84.770943
-4.7765098 -19.065538 6.4684186 18 0 0 0 78.516006
1.3283683 -18.078865 6.4154191 40 0 0 0 73.433403
2.6811059 -18.166162 6.0495081 37 0 0 0 72.269691
1.7506526 -17.835861 6.3432808 104 0 0 0 73.040382
3.0987573 -17.905869 6.4329438 63 0 0 0 71.869438
3.5668747 -17.97669 6.4881258 78 0 0 0 71.481918
-5.6278439 -17.059206 6.3547382 66 0 0 0 79.692818
-5.2129173 -17.207319 6.3603544 64 0 0 0 79.29454
2.1507392 -17.493256 6.2392602 82 0 0 0 72.650909
4.2678976 -17.08032 6.2350073 58 0 0 0 70.706528
-4.2483592 -16.979828 6.1926513 26 0 0 0 78.516006
-3.3183706 -16.697372 6.0240226 27 0 0 0 77.730865
2.0812929 -16.933401 6.4584951 40 0 0 0 72.650909
3.1211452 -15.739451 6.0775719 74 0 0 0 71.481918
3.5151801 -15.699736 6.0941224 37 0 0 0 71.099449
-10.711308 -15.226648 6.13094 9 0 0 0 84.375717
5.9226794 -15.391632 6.249877 14 0 0 0 68.751549
6.7056766 -15.163736 6.284646 85 0 0 0 67.968781
7.1982512 -15.254674 6.3937955 98 0 0 0 67.570404
-13.848718 -13.206269 6.3047509 18 0 0 0 87.511505
-10.306695 -12.584944 6.1592293 6 0 0 0 85.556236
-11.492459 -11.519115 6.1628432 17 0 0 0 87.130577
-15.108294 -10.662079 6.0968614 29 0 0 0 89.867722
-14.059211 -10.455373 6.2075047 10 0 0 0 89.464897
15.514759 -6.4410124 6.3930831 9 0 0 0 55.83564
14.850854 -5.7422934 6.0623403 33 0 0 0 55.450394
-16.060808 -3.2194996 6.218308 21 0 0 0 96.489357
-18.778423 0.47305185 6.119411 24 0 0 0 0
-16.844299 0.82924932 6.3157015 12 0 0 0 0.39392
-16.994892 1.2528956 6.3823247 64 0 0 0 0.78865999
25.640171 7.0984087 6.163053 56 0 0 0 45.307472
26.247719 8.6759939 6.4014101 30 0 0 0 44.519878
30.674955 13.597039 6.1088638 40 0 0 0 42.962952
-26.265465 17.524147 6.4326472 19 0 0 0 8.9758101
-24.995079 17.574226 6.2267284 41 0 0 0 9.3682604
-23.990242 17.759895 6.0844846 60 0 0 0 9.7649498
-21.381351 20.310209 6.0181456 47 0 0 0 11.70826
-21.498634 21.449947 6.1983232 38 0 0 0 12.0961
-21.081501 -31.572388 6.8577967 23 0 0 0 83.987411
-18.72035 -31.251974 6.5811143 41 0 0 0 83.206528
-14.388051 -25.422897 6.7169037 17 0 0 0 82.825371
0.57434732 -23.770891 6.6486197 26 0 0 0 74.22065
-19.299547 -22.40214 6.8023958 6 0 0 0 85.950714
-29.277468 -21.741739 6.5990739 7 0 0 0 89.464897
-0.52760661 -21.160507 6.9654222 35 0 0 0 74.996887
-0.0049607498 -21.475327 6.5355673 44 0 0 0 74.605316
1.0118685 -20.812687 6.8584828 34 0 0 0 73.831596
2.0342095 -20.777985 6.8725023 21 0 0 0 73.040382
-0.0089828819 -20.37327 6.7056985 10 0 0 0 74.605316
-5.4794674 -19.801075 6.7600703 78 0 0 0 78.912354
-2.470058 -19.986803 6.6275554 19 0 0 0 76.560707
-1.9261674 -19.566019 6.9530029 13 0 0 0 76.17395
4.8222051 -19.318945 6.5593491 27 0 0 0 70.706528
-1.3794924 -18.697445 6.6319966 24 0 0 0 75.784462
-5.0702353 -18.345455 6.731298 74 0 0 0 78.912354
-10.740417 -17.937145 6.8802495 9 0 0 0 83.206528
-4.8440299 -17.525816 6.8772755 34 0 0 0 78.912354
-4.4173412 -17.655529 6.8836293 35 0 0 0 78.516006
2.6053541 -17.616444 6.7405028 37 0 0 0 72.269691
3.0899136 -17.856619 6.8593078 50 0 0 0 71.869438
-5.1547904 -17.014954 6.7250314 18 0 0 0 79.29454
-3.8384778 -17.110918 6.6337852 43 0 0 0 78.12001
-12.272239 -14.984307 6.8532734 13 0 0 0 85.556236
-16.038088 -10.746944 6.8379722 7 0 0 0 90.256767
17.239149 -9.2323189 6.9524627 5 0 0 0 57.402649
17.16943 -8.6594095 6.8379512 37 0 0 0 57.007648
48.55291 -8.4610634 6.5256233 14 0 0 0 52.3326
16.022327 -7.5942283 6.7442379 19 0 0 0 56.616779
16.018644 -7.116025 6.6682339 45 0 0 0 56.235889
-17.281507 2.555378 6.5447888 22 0 0 0 1.9582
27.96369 6.2791891 6.6371593 33 0 0 0 46.080238
30.905293 6.1386847 6.5209122 34 0 0 0 46.475792
27.890657 6.9872003 6.6578507 40 0 0 0 45.690762
52.055187 7.695981 6.9602942 14 0 0 0 47.253071
27.378262 8.3084459 6.6242762 28 0 0 0 44.914082
50.698486 8.7730618 6.8056622 22 0 0 0 46.87215
13.122499 11.944814 6.7434525 55 0 0 0 37.892471
13.810017 11.961317 6.9424567 68 0 0 0 38.277969
12.99713 12.428535 6.8326626 54 0 0 0 37.500366
14.026699 12.147479 6.5946212 50 0 0 0 38.277969
14.617513 12.041766 6.7306194 81 0 0 0 38.672779
15.493868 12.134747 6.9931483 69 0 0 0 39.065941
12.777159 12.834479 6.8798227 38 0 0 0 37.110722
14.034891 12.771276 6.74224 50 0 0 0 37.892471
13.725784 13.121692 6.7460351 48 0 0 0 37.500366
15.091216 13.056007 6.5983863 52 0 0 0 38.277969
-24.999531 17.569578 6.9727316 36 0 0 0 9.3682604
-23.937277 17.712799 6.7969575 41 0 0 0 9.7649498
-22.709726 17.679127 6.5709901 19 0 0 0 10.15168
-21.186377 19.149551 6.5244608 35 0 0 0 11.32084
-21.291992 20.216398 6.708673 29 0 0 0 11.70826
-21.407911 21.349987 6.9091763 43 0 0 0 12.0961
-23.463135 -31.660494 7.1184115 17 0 0 0 84.770943
-22.318079 -31.712208 7.0047946 37 0 0 0 84.375717
-15.902806 -31.608114 7.2623305 20 0 0 0 82.039047
-17.597288 -31.081032 7.3312411 46 0 0 0 82.825371
-16.587835 -31.049583 7.2257924 27 0 0 0 82.425003
-29.065231 -29.093987 7.4318528 17 0 0 0 87.130577
-1.9288852 -26.073875 7.3059039 24 0 0 0 75.784462
1.7601678 -23.957363 7.308156 42 0 0 0 73.433403
-1.1393572 -23.13328 7.0455117 55 0 0 0 75.396111
0.56368452 -23.184162 7.0555801 38 0 0 0 74.22065
-3.0651183 -20.684902 7.392787 17 0 0 0 76.954285
-2.5471606 -20.670296 7.3633542 29 0 0 0 76.560707
0.50224161 -20.575529 7.2788792 42 0 0 0 74.22065
-3.538038 -20.413208 7.3246026 30 0 0 0 77.346474
-0.99368739 -20.216743 7.1579423 71 0 0 0 75.396111
-0.25026742 -20.298008 7.1795244 53.5 0 0 0 74.801102
-2.3616796 -19.159374 7.30022 37 0 0 0 76.560707
-1.8840863 -19.134907 7.2714567 16 0 0 0 76.17395
-1.4115134 -19.131226 7.2550483 31 0 0 0 75.784462
-3.2676604 -18.849495 7.2344561 35 0 0 0 77.346474
-0.91796607 -18.6588 7.0663018 51 0 0 0 75.396111
4.7201571 -18.88599 7.3678904 16 0 0 0 70.706528
16.80361 -8.9996357 7.2458696 42 0 0 0 57.402649
16.529263 -8.3372326 7.0391078 30 0 0 0 57.007648
-18.934212 -2.8365505 7.2635088 16 0 0 0 97.274651
27.211191 6.8178902 7.1867633 36 0 0 0 45.690762
27.109123 7.5050769 7.2056613 36 0 0 0 45.307472
26.924784 8.1717501 7.2074394 23 0 0 0 44.914082
26.891556 8.8891888 7.2541075 32 0 0 0 44.519878
14.615228 12.040721 7.1948166 69 0 0 0 38.672779
15.454491 12.104833 7.4577994 56 0 0 0 39.065941
16.419603 12.218667 7.2716918 61 0 0 0 39.446312
18.572651 12.436672 7.3895769 57 0 0 0 40.235752
38.052521 15.755838 7.4899268 18 0 0 0 43.36042
-27.387238 17.312164 7.3898845 42 0 0 0 8.5843697
-26.050095 17.372189 7.1433759 22 0 0 0 8.9758101
-21.581936 17.663376 7.0521331 6 0 0 0 10.53657
-21.287952 20.210989 7.4260855 24 0 0 0 11.70826
-14.738169 -41.199097 7.8951592 24 0 0 0 80.078888
-15.046895 -39.018036 7.5472732 10 0 0 0 80.470253
-15.48877 -34.954796 7.8439221 14 0 0 0 81.252464
-15.699857 -33.208332 7.5377069 11 0 0 0 81.64843
-22.277473 -31.654573 7.9444637 31 0 0 0 84.375717
-21.04549 -31.51849 7.7785668 27 0 0 0 83.987411
-19.907221 -31.457291 7.6407456 36 0 0 0 83.59156
-32.464981 -29.455755 7.9214716 10 0 0 0 87.893265
-30.634567 -29.196426 7.6475835 24 0 0 0 87.511505
-8.1955976 -24.834196 7.9495749 14 0 0 0 79.692818
-31.013817 -23.031082 7.9390249 13 0 0 0 89.464897
1.6998588 -23.200777 7.6537242 28 0 0 0 73.433403
0.55205947 -22.887415 7.5319567 12 0 0 0 74.22065
1.1026682 -22.507694 7.9671049 18 0 0 0 73.831596
-8.0446329 -22.494116 7.8555417 20 0 0 0 80.078888
-4.6511092 -20.739317 7.5134263 24 0 0 0 78.12001
-0.0021866923 -20.920179 7.9102178 47 0 0 0 74.605316
-2.9880497 -20.162426 7.7061167 47 0 0 0 76.954285
-3.9439192 -19.849836 7.6513095 10 0 0 0 77.730865
9.9467983 -17.59211 7.6566606 18 0 0 0 66.397247
48.527622 -8.4564734 7.7425332 19 0 0 0 52.3326
32.44643 6.4509401 7.6553006 23 0 0 0 46.475792
27.244793 7.5432649 7.9452071 16 0 0 0 45.307472
26.725908 8.8352585 7.9103823 23 0 0 0 44.519878
16.35272 12.169871 7.7430687 48 0 0 0 39.446312
17.429358 12.31415 7.5808954 46 0 0 0 39.833881
18.390589 12.325218 7.863481 41 0 0 0 40.235752
19.651987 12.469192 7.6932878 37 0 0 0 40.616512
34.792347 15.420575 7.8609185 22 0 0 0 42.962952
-26.20075 17.471691 7.9555387 13 0 0 0 8.9758101
-24.92841 17.518148 7.6987429 35 0 0 0 9.3682604
-23.90591 17.68821 7.5160036 48 0 0 0 9.7649498
-21.277912 21.218208 7.6030502 36 0 0 0 12.0961
