# .PCD v0.7 - Point Cloud Data file format
VERSION 0.7
FIELDS x y z intensity normal_x normal_y normal_z curvature
SIZE 4 4 4 4 4 4 4 4
TYPE F F F F F F F F
COUNT 1 1 1 1 1 1 1 1
WIDTH 951
HEIGHT 1
VIEWPOINT 0 0 0 1 0 0 0
POINTS 951
DATA ascii
11.828072 -12.446208 1.8611654 8 0 0 0 62.461849
11.659788 -11.681929 1.7902442 10 0 0 0 62.064392
46.927067 -10.547973 1.5691372 10 0 0 0 53.085926
10.386432 -9.9085083 1.7383912 675 0 0 0 61.680698
10.817433 -9.8233395 1.7684433 737.5 0 0 0 61.285858
11.280827 -9.7490749 1.8037733 608.5 0 0 0 60.890079
12.070493 -9.9252558 1.6958784 18 0 0 0 60.499039
12.535856 -9.8015337 1.7258898 9 0 0 0 60.115021
13.079777 -9.7182703 1.7661109 7 0 0 0 59.722099
13.629433 -9.6157742 1.8066187 9 0 0 0 59.327168
14.130507 -9.4577541 1.8405571 14 0 0 0 58.94223
14.642812 -9.2877207 1.8758388 363 0 0 0 58.552299
15.320618 -9.1972628 1.931537 310 0 0 0 58.16259
15.981258 -9.0675297 1.537908 316 0 0 0 57.764759
16.043215 -9.1019764 1.992148 337 0 0 0 57.764759
16.736567 -8.9593172 1.5871717 330 0 0 0 57.375221
17.554623 -8.8490372 1.6416622 246 0 0 0 56.989288
18.418516 -8.7231712 1.6997294 260 0 0 0 56.600121
19.390314 -8.6060514 1.7670163 202 0 0 0 56.204922
20.382677 -8.4527397 1.8356395 199 0 0 0 55.811848
21.49872 -8.3019381 1.9146926 191 0 0 0 55.425327
25.409315 -7.719275 1.5361621 116 0 0 0 54.254818
26.98214 -7.4775205 1.6167061 104 0 0 0 53.874447
28.851028 -7.2364602 1.7142321 98 0 0 0 53.48
46.93005 -6.968298 1.5443258 6 0 0 0 51.919647
-6.0132117 -5.73315 1.9333606 125 0 0 0 87.490211
-5.8945498 -5.9024396 1.9410999 247 0 0 0 87.107742
-1.6788386 -5.7806225 1.7837036 514.25 0 0 0 79.076599
-5.3154454 -5.066401 1.5331552 201 0 0 0 87.490211
-4.9515605 -5.2076087 1.6767694 422 0 0 0 86.705612
-1.7264024 -5.2171135 1.7841355 322.66666 0 0 0 79.669113
-3.6800466 -4.7200236 1.9919299 380 0 0 0 85.136787
-3.0408597 -4.553453 1.5557028 376 0 0 0 83.968491
-2.6420403 -4.7585812 1.5476551 512 0 0 0 82.665482
-2.0131447 -4.5392184 1.5362011 312 0 0 0 81.225136
-1.732488 -4.6801925 1.6671444 291 0 0 0 80.224449
-4.6559296 -4.4396868 1.7415454 268 0 0 0 87.490211
-4.4494543 -4.2485666 1.739602 218 0 0 0 87.490616
-3.7118409 -4.0966897 1.7070004 305 0 0 0 86.316628
-3.3180916 -4.3420415 1.7134235 337.20001 0 0 0 84.982582
-2.7883308 -4.3261628 1.8854851 277.66666 0 0 0 83.70768
-2.1980305 -4.1107821 1.5961815 235.66667 0 0 0 82.403389
-1.7666883 -4.2279177 1.6596218 276.625 0 0 0 80.887466
4.1542921 -4.2269783 1.708951 2017.125 0 0 0 62.165478
-4.152298 -3.7713299 1.9367697 534.5 0 0 0 87.873489
-3.8107879 -3.792455 1.8088665 321.75 0 0 0 87.150642
-3.2731731 -3.7793279 1.7622954 333.33334 0 0 0 85.968895
-2.6907058 -3.8229141 1.7003148 171 0 0 0 84.356392
-2.2460525 -3.852854 1.6011033 217.375 0 0 0 82.990433
-1.8468442 -3.9054348 1.6233653 235.66667 0 0 0 81.621857
4.1337161 -3.95434 1.774527 2011 0 0 0 61.680698
53.709476 -2.6409476 1.7402081 14 0 0 0 50.345726
54.776989 4.2559852e-05 1.7697376 7 0 0 0 49.575539
-4.0944862 2.816138 1.6384789 354.66666 0 0 0 9.3606863
-3.9085546 2.9745803 1.5009538 392 0 0 0 10.1438
-4.0805483 3.2732072 1.6614176 379 0 0 0 10.531799
-3.9212797 3.1390483 1.535309 397 0 0 0 10.532
-4.1130199 3.6412044 1.6791799 494 0 0 0 11.30357
-3.9894788 3.6201189 1.5167469 564 0 0 0 11.50034
10.804997 5.3585563 1.8065559 366.33334 0 0 0 42.286022
4.3234525 5.6176519 1.5781791 340.5 0 0 0 35.113369
10.718137 5.760735 1.6214069 324 0 0 0 41.757359
10.591881 6.1499963 1.8354144 347.33334 0 0 0 41.238567
5.605227 6.9040561 1.8607616 463 0 0 0 35.509007
6.7803874 6.8405852 1.5343357 389 0 0 0 37.073914
10.470727 6.6684685 1.8079458 295.5 0 0 0 40.594353
3.4814537 7.49787 1.7338349 582 0 0 0 31.602909
3.6711755 7.4212432 1.6346769 443.5 0 0 0 31.989229
4.206316 7.4291945 1.7350045 501.5 0 0 0 32.866882
4.7799468 7.2469525 1.8181056 541 0 0 0 33.93816
6.2741399 7.3443284 1.7790961 224 0 0 0 35.903393
3.498939 7.538075 1.9466394 602 0 0 0 31.602909
3.9495423 7.5087676 1.7782075 261 0 0 0 32.381691
4.4435744 7.5191665 1.8291714 542 0 0 0 33.154491
4.7221365 7.556509 1.7558839 428.5 0 0 0 33.555779
5.3094001 7.9008121 1.5979308 360.33334 0 0 0 34.067387
5.8215179 7.6685586 1.6949815 269.33334 0 0 0 34.983368
4.2578564 8.0866699 1.6871115 308 0 0 0 32.381691
5.6716185 8.1424227 1.8274528 129 0 0 0 34.325848
6.0776372 8.2795858 1.6350402 137 0 0 0 34.72337
4.12322 8.8573732 1.6800501 481 0 0 0 31.602909
31.354462 8.6915827 1.8605758 57 0 0 0 45.27636
3.862304 9.0632601 1.7349825 333 0 0 0 31.07723
30.132738 9.1567726 1.8023286 77 0 0 0 44.880848
29.405407 9.7319021 1.7734965 102 0 0 0 44.490059
-8.0054197 10.135557 1.7166079 556 0 0 0 14.03619
-7.7247949 10.287975 1.7106584 35 0 0 0 14.43689
-7.2222896 10.299816 1.7776784 452.33334 0 0 0 14.953334
-6.7574978 10.336517 1.8472462 321 0 0 0 15.4773
-6.3199434 10.39213 1.7701026 312.5 0 0 0 15.99273
-5.7484055 10.380342 1.7787856 633 0 0 0 16.641825
-5.1923752 10.456238 1.7033663 615.5 0 0 0 17.356949
-4.737195 10.490243 1.8225198 671 0 0 0 17.94001
-4.2571974 10.429007 1.6462194 299.25 0 0 0 18.52846
-3.8257322 10.455082 1.7652247 240 0 0 0 19.116039
-6.0593324 10.536664 1.6208864 55 0 0 0 16.3827
-4.7464933 10.511374 1.5416483 646 0 0 0 17.94001
-3.7227826 10.571333 1.6375358 433 0 0 0 19.312901
-0.61912638 11.023769 1.756052 360 0 0 0 23.791451
-0.34824187 11.048777 1.7584687 686 0 0 0 24.184919
0.38061512 11.142812 1.6822239 590.33331 0 0 0 25.226496
3.4169939 11.497236 1.9065303 608 0 0 0 29.254379
4.8183761 11.024223 1.6129602 190 0 0 0 31.20805
3.4246912 11.523064 1.6129771 588 0 0 0 29.254379
3.7443848 11.547215 1.7783597 583.5 0 0 0 29.649389
4.2459164 11.607681 1.809745 521.25 0 0 0 30.23064
4.7715545 11.68671 1.6907594 521 0 0 0 30.81559
5.5012279 11.776326 1.7391587 224 0 0 0 31.602909
-11.826409 12.939192 1.8877081 146 0 0 0 12.86207
-11.273447 13.2817 1.8774312 113 0 0 0 13.455734
11.895526 -14.513874 2.4932513 252 0 0 0 63.640461
11.744342 -13.633778 2.3920565 267 0 0 0 63.24374
11.494821 -12.701138 2.2786798 296 0 0 0 62.84782
11.515429 -12.113091 2.2238405 239 0 0 0 62.461849
11.604751 -11.622261 2.1857436 55 0 0 0 62.064392
10.459885 -9.9758854 2.2857714 477 0 0 0 61.680698
10.862307 -9.8614702 2.3192661 555 0 0 0 61.285858
11.334191 -9.7925549 2.3668785 595 0 0 0 60.890079
12.198781 -9.8584709 2.3473279 54.333332 0 0 0 60.371033
12.537801 -9.7989616 2.1175053 16 0 0 0 60.115021
13.07446 -9.7102137 2.1659648 14 0 0 0 59.722099
13.611721 -9.5991592 2.2140062 18 0 0 0 59.327168
14.147956 -9.4652357 2.2614985 126 0 0 0 58.94223
14.678943 -9.3063898 2.3079252 383 0 0 0 58.552299
15.363621 -9.2187519 2.3776283 333 0 0 0 58.16259
16.082779 -9.1200218 2.4518225 260 0 0 0 57.764759
16.798161 -8.9915686 2.0560853 260 0 0 0 57.375221
17.624533 -8.8835363 2.1278851 245 0 0 0 56.989288
18.50309 -8.7624683 2.2051001 245 0 0 0 56.600121
19.435036 -8.6251698 2.2879541 227 0 0 0 56.204922
20.460104 -8.4840879 2.3809702 193 0 0 0 55.811848
21.572075 -8.3294983 2.4833014 185 0 0 0 55.425327
22.696075 -8.1287317 2.0003512 149 0 0 0 55.044113
24.044928 -7.9502616 2.0986016 144 0 0 0 54.645367
25.504864 -7.74261 2.2058761 110 0 0 0 54.254818
27.153769 -7.519104 2.3287318 97 0 0 0 53.874447
28.99087 -7.2652736 2.4669843 74 0 0 0 53.48
-5.708704 -6.3060226 2.1875026 216 0 0 0 86.315025
-1.7571204 -5.7836275 2.0875249 345.5 0 0 0 79.272758
-1.7068254 -5.1617584 2.0795593 239 0 0 0 79.669113
-4.2221298 -4.9003048 2.1501229 529 0 0 0 85.929245
-3.9109197 -4.8938165 2.1606543 179.5 0 0 0 85.334488
-3.0674925 -4.8498435 2.1920977 185 0 0 0 83.578033
-4.1903057 -4.3034306 2.2206964 163.5 0 0 0 86.902618
-3.3930008 -4.3549852 2.1097777 458 0 0 0 85.136787
-4.3290191 -3.6818759 2.1243198 182.33333 0 0 0 88.398415
-3.9488425 -3.7706509 2.0874031 262 0 0 0 87.490616
5.6615362 5.7226744 2.3830991 496.5 0 0 0 37.073914
8.7874928 5.7568417 2.4450126 268.5 0 0 0 40.396759
5.4169893 6.3510914 2.3675182 401 0 0 0 35.903393
8.9293966 6.0053492 2.2393107 324 0 0 0 40.199169
9.9081879 6.1417098 2.4220176 276 0 0 0 40.788109
4.3865838 6.6617923 2.4613264 368 0 0 0 33.93816
4.680325 6.9126072 2.3683252 360 0 0 0 34.132004
5.3841724 6.6363239 2.3151453 454.5 0 0 0 35.509007
5.7476153 6.9038072 2.2112017 360.5 0 0 0 35.7062
10.618307 6.7619276 2.3016117 244 0 0 0 40.594353
4.4019303 7.0522113 2.3585718 338 0 0 0 33.555779
4.9724398 7.1505775 2.1444888 376.5 0 0 0 34.325848
4.8698263 7.7926197 2.2637148 400.5 0 0 0 33.555779
5.1562362 7.8135643 2.1870747 227 0 0 0 33.93816
5.8991871 7.6405783 2.4909773 136 0 0 0 35.113369
3.8250082 8.2286558 2.3451355 209 0 0 0 31.602909
4.1911759 8.1246567 2.2874649 378 0 0 0 32.25087
4.7060719 8.1095352 2.3446083 422.33334 0 0 0 33.026665
5.3208795 8.0601501 2.4927564 168 0 0 0 33.93816
6.0420451 8.233882 2.3818691 178 0 0 0 34.72337
6.1664624 8.8457003 2.2482264 108 0 0 0 34.325848
3.3300233 9.4969034 2.1027651 353 0 0 0 30.030661
3.7374198 9.187026 2.0730603 370 0 0 0 30.818085
4.504693 9.0832863 2.3661134 226 0 0 0 31.989229
6.9228268 9.4201307 2.4337349 171 0 0 0 34.72337
-7.8089561 10.137241 2.173543 265.5 0 0 0 14.23654
-7.2436461 10.151968 2.274478 456 0 0 0 14.82261
-6.7439613 10.222372 2.2352152 475 0 0 0 15.41167
-6.2514901 10.277742 2.3442817 504.5 0 0 0 15.99273
-5.7800579 10.336724 2.309587 525.5 0 0 0 16.577044
-5.1693645 10.408745 2.2683263 577.75 0 0 0 17.356949
-4.7272286 10.46751 2.2427635 575.5 0 0 0 17.94001
-4.4335518 10.494641 2.2254796 533 0 0 0 18.32935
-4.1429367 10.517823 2.209235 449 0 0 0 18.72757
-3.7291808 10.592525 2.195502 578 0 0 0 19.312901
-3.2220297 10.65876 2.2236741 587.33331 0 0 0 20.031931
-1.2871362 10.894196 2.2849059 599.5 0 0 0 22.817335
-0.75172484 10.970022 2.1558597 673 0 0 0 23.596615
-0.3475115 11.020682 2.1622639 667.5 0 0 0 24.184919
0.28784919 11.098451 2.1324189 388.66666 0 0 0 25.098482
3.3020554 11.452259 2.3856041 553 0 0 0 29.122787
3.733851 11.514683 2.2235003 613 0 0 0 29.649389
4.2345047 11.575929 2.2632856 374 0 0 0 30.23064
4.7632408 11.666236 2.0000896 497 0 0 0 30.81559
-18.36879 12.856678 2.3989167 104 0 0 0 9.3586903
-11.800485 12.905864 2.3117709 107 0 0 0 12.86207
-11.228504 13.223393 2.294817 80.5 0 0 0 13.455734
12.41536 -17.648291 2.8622444 160 0 0 0 64.811096
12.233371 -16.514441 2.7276292 219 0 0 0 64.420982
12.064606 -15.478778 2.6060185 238 0 0 0 64.026352
11.956759 -14.587742 2.9727988 244 0 0 0 63.640461
11.811052 -13.710399 2.8534043 302 0 0 0 63.24374
11.654357 -12.876405 2.7397163 319 0 0 0 62.84782
11.539132 -12.137359 2.6429567 353 0 0 0 62.461849
11.390012 -11.407088 2.5451376 106 0 0 0 62.064392
10.519826 -10.032387 2.6586754 516 0 0 0 61.680698
44.723915 -10.051933 2.6199839 16 0 0 0 53.085926
10.879213 -9.8762531 2.6867468 553 0 0 0 61.285858
11.347548 -9.8035297 2.74106 526 0 0 0 60.890079
11.851476 -9.7404642 2.8029764 432 0 0 0 60.499039
12.397816 -9.6886768 2.873734 395 0 0 0 60.115021
12.94727 -9.6150932 2.7446849 399.5 0 0 0 59.722099
13.490449 -9.5132313 2.6034555 368 0 0 0 59.327168
14.099181 -9.4320707 2.673964 361 0 0 0 58.94223
14.746081 -9.3482513 2.7507327 313 0 0 0 58.552299
15.418324 -9.2508755 2.831301 290 0 0 0 58.16259
16.132254 -9.1473694 2.9185832 310 0 0 0 57.764759
16.847187 -9.0133104 2.5320556 281 0 0 0 57.375221
17.681267 -8.9075222 2.6217225 264 0 0 0 56.989288
18.53167 -8.7713242 2.7129066 196 0 0 0 56.600121
19.52984 -8.6623831 2.8246109 167 0 0 0 56.204922
20.54254 -8.5132933 2.937562 197 0 0 0 55.811848
22.788458 -8.1610346 2.5968325 163 0 0 0 55.044113
24.146835 -7.9831538 2.7256444 152 0 0 0 54.645367
25.607565 -7.7729731 2.8652203 115 0 0 0 54.254818
46.020393 -5.6807413 2.6447828 10 0 0 0 51.52655
47.026897 -4.635324 2.6933925 14 0 0 0 51.133499
5.6929421 5.4802327 2.8286505 269 0 0 0 37.468418
8.5068302 5.4251723 2.8495123 315 0 0 0 40.594353
5.7777281 5.5573649 2.6717508 268 0 0 0 37.468418
6.3323331 5.7933211 2.8569853 201 0 0 0 37.862839
8.6865273 5.5391922 2.6519854 323 0 0 0 40.594353
4.4223118 6.3676262 2.5858417 401 0 0 0 34.325848
5.3182392 6.3160915 2.7488842 297.5 0 0 0 35.804798
6.2151551 6.1250219 2.7966533 288.5 0 0 0 37.271164
8.9615164 6.0289612 2.7784748 194 0 0 0 40.199169
9.1609917 6.4956756 2.6110466 352 0 0 0 39.804619
4.3461695 6.6931386 2.7546718 249 0 0 0 33.842564
4.8310704 6.9516387 2.6096275 392 0 0 0 34.325848
5.3000126 6.535696 2.59392 406 0 0 0 35.509007
6.1424742 6.5182505 2.7577646 242 0 0 0 36.6866
6.5329623 6.9268475 2.6941707 282 0 0 0 36.6866
7.0138998 6.736177 2.7503145 391 0 0 0 37.468418
8.2136221 6.6203814 2.845531 248.5 0 0 0 38.833923
8.8124752 6.5816426 2.8292878 195 0 0 0 39.415779
3.8877578 7.4010282 2.9906931 155 0 0 0 32.381691
4.2056193 7.3962841 2.7638633 273 0 0 0 32.898838
4.5247974 7.2461519 2.8451483 205 0 0 0 33.555779
5.2489176 7.1634703 2.844667 239 0 0 0 34.72337
5.6912107 7.3747187 2.7521825 278.5 0 0 0 35.113369
6.4627924 7.2006149 2.8562839 302.5 0 0 0 36.29306
12.964856 7.3797665 2.7190325 76 0 0 0 41.36692
15.879538 7.0682158 2.7286143 51 0 0 0 42.935249
3.962811 7.5356927 2.8357878 204 0 0 0 32.381691
4.4299798 7.5015421 2.6845763 277 0 0 0 33.154491
4.5548606 7.7074866 2.5369132 336 0 0 0 33.154491
5.7479157 7.8362646 2.7497921 127 0 0 0 34.72337
12.608792 7.5945849 2.6837423 120 0 0 0 40.981861
3.2491212 8.2933273 2.9649262 269.5 0 0 0 30.623104
3.7157178 8.2056065 2.819181 350.79999 0 0 0 31.444965
4.1435981 8.1141701 2.6939349 356.25 0 0 0 32.185459
4.5221219 8.0983477 2.6269338 417 0 0 0 32.771011
14.994109 8.0490961 2.6734583 97 0 0 0 41.757359
6.5543776 8.9255171 2.8516505 162 0 0 0 34.72337
31.284302 8.6783571 2.6657002 44 0 0 0 45.27636
3.9804363 9.1333523 2.5710473 264 0 0 0 31.20805
30.166733 9.1731081 2.5902445 61 0 0 0 44.880848
-9.2773476 9.8775425 2.7971106 298.5 0 0 0 12.667035
-8.6824951 9.9518461 2.7276096 344 0 0 0 13.25795
-8.2857752 9.9744816 2.9952338 325 0 0 0 13.65352
29.439863 9.7492132 2.5485561 76 0 0 0 44.490059
-8.3038645 10.000216 2.6856775 395 0 0 0 13.65352
-7.7488518 10.055506 2.7794127 418.75 0 0 0 14.23654
-7.2257929 10.124501 2.7247825 435.5 0 0 0 14.82261
-6.7228475 10.187832 2.6756761 473.75 0 0 0 15.41167
-6.2327423 10.242183 2.7759626 427 0 0 0 15.99273
-5.7647543 10.304455 2.735575 482.5 0 0 0 16.577045
-5.205061 10.369177 2.7846544 507.66666 0 0 0 17.290419
-4.8074765 10.411046 2.8469658 490 0 0 0 17.812187
-4.3251004 10.468142 2.8129711 528.66669 0 0 0 18.46209
-4.142468 10.510866 2.6220922 522 0 0 0 18.72757
-3.7183843 10.55494 2.7355788 499.25 0 0 0 19.312901
-3.1654105 10.620078 2.7104702 547.75 0 0 0 20.096855
-2.7579064 10.673378 2.6971707 575.5 0 0 0 20.6805
-2.3547783 10.728764 2.6885805 489 0 0 0 21.261936
-1.8200809 10.801242 2.6823654 521.75 0 0 0 22.03927
-1.284727 10.854986 2.6779611 461.5 0 0 0 22.817335
-0.79611015 10.931521 2.6412764 501.33334 0 0 0 23.53167
-0.34872988 10.99379 2.5614574 551 0 0 0 24.184919
0.19388127 11.065421 2.5779977 376 0 0 0 24.97047
1.8757892 11.240537 2.9359076 96 0 0 0 27.30374
2.3638895 11.284045 2.8748181 372 0 0 0 27.958221
2.7719095 11.3587 2.7237864 520 0 0 0 28.472879
3.2331567 11.397413 2.7594755 402.5 0 0 0 29.05699
3.7128689 11.453812 2.6555943 634.5 0 0 0 29.649389
-11.812539 12.9189 2.7457807 97 0 0 0 12.86207
-11.353819 13.043592 2.7136042 160 0 0 0 13.25795
-10.931268 13.19642 2.6900196 403 0 0 0 13.65352
-21.076002 15.544639 2.7981279 92 0 0 0 9.74753
12.644608 -18.943918 3.0194767 142 0 0 0 65.197601
12.397643 -17.622343 3.3915415 139 0 0 0 64.811096
12.321962 -16.633038 3.2594831 204 0 0 0 64.420982
12.121567 -15.550987 3.10621 209 0 0 0 64.026352
12.055531 -14.707304 3.4679105 214 0 0 0 63.640461
11.894812 -13.806759 3.3246248 237 0 0 0 63.24374
11.754993 -12.986718 3.1968019 298 0 0 0 62.84782
11.623128 -12.224906 3.079644 342 0 0 0 62.461849
10.939007 -9.9278679 3.2459793 503 0 0 0 61.285858
11.390976 -9.8404236 3.1220143 510 0 0 0 60.890079
11.902173 -9.7814865 3.1941178 426 0 0 0 60.499039
12.431107 -9.7140741 3.269805 404 0 0 0 60.115021
12.98263 -9.6404352 3.3502805 376 0 0 0 59.722099
13.544922 -9.5506811 3.2288768 366 0 0 0 59.327168
14.130942 -9.4526711 3.1010759 331 0 0 0 58.94223
14.768349 -9.361721 3.1880188 294 0 0 0 58.552299
15.418868 -9.2505665 3.2768741 264 0 0 0 58.16259
16.183935 -9.1759634 3.3887308 225 0 0 0 57.764759
16.900682 -9.0412035 3.0147209 256 0 0 0 57.375221
17.74391 -8.9383287 3.1229897 175 0 0 0 56.989288
18.606274 -8.8058691 3.2335465 209 0 0 0 56.600121
19.549255 -8.6702681 3.3570952 226 0 0 0 56.204922
20.5886 -8.5316257 3.4960849 164 0 0 0 55.811848
21.659163 -8.357995 3.064429 157 0 0 0 55.425327
22.880869 -8.1888227 3.2052026 166 0 0 0 55.044113
24.20653 -7.9974079 3.3596079 129 0 0 0 54.645367
27.252956 -7.5457401 3.0245855 84 0 0 0 53.874447
29.106274 -7.2933393 3.2061329 73 0 0 0 53.48
5.1811485 5.9314508 3.0135508 256.5 0 0 0 36.098228
6.1333795 5.7585807 3.2156367 208.5 0 0 0 37.665627
6.2140179 6.3827605 3.3289664 228.33333 0 0 0 36.944809
11.860299 6.3745694 3.1202815 198 0 0 0 41.757359
12.057228 6.1023965 3.131103 124 0 0 0 42.156353
4.8754096 6.6622181 3.156707 270 0 0 0 34.72337
5.0007358 6.831738 3.0281112 280 0 0 0 34.72337
6.2631645 6.7537675 3.1378953 233 0 0 0 36.55542
7.8851233 6.523531 3.1435013 206 0 0 0 38.633659
9.7614002 6.5641394 3.3151667 138 0 0 0 40.199169
11.39593 6.8693409 3.2487123 199.5 0 0 0 40.981861
11.588655 6.6018224 3.0914302 107 0 0 0 41.36692
3.7968888 7.4484744 3.1964202 178.5 0 0 0 32.185459
4.2014871 7.39292 3.1107168 209.66667 0 0 0 32.898838
4.5910316 7.3563819 3.100527 295 0 0 0 33.555779
5.1090322 7.349184 3.4188075 153 0 0 0 34.325848
5.6410904 7.3087916 3.0710874 261 0 0 0 35.113369
6.4708066 7.2128167 3.4589467 167 0 0 0 36.29306
8.304121 7.2180119 3.2424133 199 0 0 0 38.243961
9.4325485 7.0420704 3.3180995 268 0 0 0 39.415779
10.427919 7.3891573 3.2801328 194 0 0 0 39.804619
15.240738 7.2391214 3.2763155 118.5 0 0 0 42.545361
5.2647691 7.5709953 3.2944186 192 0 0 0 34.325848
5.8425436 7.5725422 3.4150927 160 0 0 0 35.113369
8.2290916 7.5162992 3.2824874 271.5 0 0 0 37.862839
9.6275091 7.5626912 3.4495664 106 0 0 0 39.034191
14.890629 7.5277801 3.4467044 95 0 0 0 42.156353
16.916824 7.5286751 3.3632135 66 0 0 0 42.935249
2.9518228 8.449749 3.4184563 126 0 0 0 30.030661
3.3594134 8.280921 3.1939068 328 0 0 0 30.81559
14.649579 8.335248 3.482105 111 0 0 0 41.36692
15.8482 8.0103998 3.227792 109 0 0 0 42.156353
16.061939 8.6205406 3.3128099 67 0 0 0 41.757359
31.319553 8.6884289 3.4589829 62 0 0 0 45.27636
30.245607 9.1973181 3.3656366 67 0 0 0 44.880848
-9.2442398 9.8382168 3.2802873 309.25 0 0 0 12.667034
-8.6585674 9.9203796 3.2011003 346.5 0 0 0 13.25795
-8.2640553 9.9478827 3.3035071 366 0 0 0 13.65352
29.48807 9.7653704 3.3080254 82 0 0 0 44.490059
-7.7269802 10.024658 3.235064 343.5 0 0 0 14.23654
-7.1983299 10.08333 3.3212042 366 0 0 0 14.82261
-6.6989856 10.149082 3.26191 401 0 0 0 15.41167
-6.2164168 10.214709 3.2089274 461.5 0 0 0 15.99273
-5.7477903 10.273268 3.1610079 444.5 0 0 0 16.577044
-5.2896233 10.327022 3.2608244 422 0 0 0 17.15736
-4.7908621 10.372223 3.3057539 460.66666 0 0 0 17.812187
-4.2639775 10.437029 3.3101025 402.25 0 0 0 18.52846
-3.8413353 10.488876 3.2806368 484.5 0 0 0 19.116039
28.812033 10.334425 3.2606142 77 0 0 0 44.106609
-3.5649817 10.526236 3.2648282 468.5 0 0 0 19.50976
-3.156806 10.586585 3.246829 467.25 0 0 0 20.096855
-2.7484775 10.631622 3.2284455 473 0 0 0 20.6805
-2.3915687 10.682937 3.1750939 519 0 0 0 21.196747
-1.9450932 10.735013 3.0758343 262 0 0 0 21.8484
-0.61565733 10.878749 3.3429449 40 0 0 0 23.791451
-0.34789285 10.887927 3.3427579 366 0 0 0 24.184919
1.2924129 11.090843 3.1542246 404 0 0 0 26.52915
2.7673178 11.745719 3.3063667 274.66666 0 0 0 28.344923
3.6897855 11.87356 3.1997576 292 0 0 0 29.451885
4.9149213 12.037935 3.0238891 239 0 0 0 30.81559
5.261518 12.029939 3.0529556 122 0 0 0 31.20805
-11.313673 12.996889 3.1291151 143 0 0 0 13.25795
-10.840168 13.085361 3.086904 151 0 0 0 13.65352
-17.606112 18.372896 3.3502285 88 0 0 0 12.472
12.097815 -19.124453 3.5607307 313 0 0 0 65.598389
12.676306 -18.990461 3.5920942 248 0 0 0 65.197601
12.089253 -15.508881 3.5849311 84 0 0 0 64.026352
11.799014 -13.034609 3.6413994 273 0 0 0 62.84782
10.978258 -9.9608698 3.8026986 414 0 0 0 61.285858
11.444082 -9.8819008 3.692246 425 0 0 0 60.890079
11.935747 -9.8049812 3.5809183 394 0 0 0 60.499039
12.231649 -9.7961998 3.8234327 325.5 0 0 0 60.30703
13.013533 -9.6592398 3.7547278 338 0 0 0 59.722099
13.6067 -9.5897179 3.855334 289 0 0 0 59.327168
-2.7785971 -9.1640406 3.6406653 184 0 0 0 79.272758
14.18924 -9.4888945 3.7429571 290 0 0 0 58.94223
14.788184 -9.3736544 3.6234145 331 0 0 0 58.552299
15.480783 -9.2870054 3.7344456 252 0 0 0 58.16259
16.205906 -9.1877432 3.8520539 270 0 0 0 57.764759
16.97604 -9.0807648 3.5049703 238 0 0 0 57.375221
17.007811 -9.0970535 3.9864602 236 0 0 0 57.375221
17.792213 -8.9619217 3.6249635 225 0 0 0 56.989288
18.654335 -8.8278704 3.7531178 218 0 0 0 56.600121
19.631815 -8.7061052 3.9031894 164 0 0 0 56.204922
21.740334 -8.3885298 3.6529617 183 0 0 0 55.425327
22.992754 -8.2280521 3.8255701 122 0 0 0 55.044113
25.710558 -7.7985044 3.5377207 100 0 0 0 54.254818
27.359154 -7.5691538 3.7347517 75 0 0 0 53.874447
29.193901 -7.3090186 3.9562325 79 0 0 0 53.48
8.911974 6.3219686 3.756906 235.5 0 0 0 39.804619
8.7530746 6.7062559 3.7904625 177 0 0 0 39.224983
9.2262821 6.8912778 3.5310128 269 0 0 0 39.415779
8.6652317 7.1646085 3.8638508 180 0 0 0 38.633659
9.4228725 7.4038992 3.8224969 182 0 0 0 39.034191
5.8866048 7.6289234 3.6770921 243 0 0 0 35.113369
4.8733883 8.2454033 3.6555371 172 0 0 0 33.154491
5.1058617 8.1710415 3.6770635 211 0 0 0 33.555779
6.7144136 8.2647181 3.7970099 241 0 0 0 35.509007
16.098579 8.6401167 3.7705853 73 0 0 0 41.757359
-9.8243561 9.719059 3.8668022 280 0 0 0 12.08904
-9.2103319 9.8017817 3.7655413 313 0 0 0 12.667035
-8.617137 9.8703442 3.8301802 316.5 0 0 0 13.25795
-8.2406387 9.9173689 3.7705131 274 0 0 0 13.65352
-7.881875 9.9709187 3.7176924 318.5 0 0 0 14.03619
-7.5262804 10.014067 3.665431 357 0 0 0 14.43689
-7.1765928 10.048525 3.7656827 372 0 0 0 14.82261
-6.6246123 10.122289 3.7903347 342.33334 0 0 0 15.4773
-6.1949396 10.176553 3.7834463 358.5 0 0 0 15.99273
-5.7278719 10.234774 3.7267652 378.5 0 0 0 16.577045
-5.2723293 10.290223 3.6753879 401.5 0 0 0 17.15736
-4.8802533 10.342584 3.6835842 368.33334 0 0 0 17.684362
-4.2411366 10.377472 3.8424413 440.5 0 0 0 18.52846
-3.6834524 10.447067 3.7986655 448.25 0 0 0 19.312901
-3.2662427 10.471145 3.8972292 382 0 0 0 19.902081
-3.1452751 10.550425 3.6428456 422.5 0 0 0 20.096855
-2.7424026 10.611123 3.6274829 412 0 0 0 20.6805
28.168867 10.898601 3.9619002 76 0 0 0 43.713886
-0.078538999 11.372916 3.7705138 340 0 0 0 24.58247
0.48305255 11.408102 3.7866125 158 0 0 0 25.354509
1.202889 11.550217 3.5647869 299 0 0 0 26.335289
1.6388899 11.570393 3.5875506 303 0 0 0 26.918819
4.0185499 14.79521 3.936604 255 0 0 0 28.8596
5.3262973 15.095547 3.7143669 165 0 0 0 30.030661
5.7514687 15.103498 3.7493804 125 0 0 0 30.43062
-17.589304 18.354929 3.9746597 77 0 0 0 12.472
12.089406 -22.638102 4.0341153 261 0 0 0 66.767433
12.744314 -22.51631 4.0664215 240 0 0 0 66.369209
13.440134 -22.441971 4.1107044 231 0 0 0 65.981491
12.125117 -19.166668 4.1301827 201 0 0 0 65.598389
12.712953 -19.044395 4.1692805 256 0 0 0 65.197601
12.734535 -18.099508 4.0305467 11 0 0 0 64.811096
12.349122 -15.84087 4.1554775 30 0 0 0 64.026352
12.277469 -14.976817 4.0076685 7 0 0 0 63.640461
12.208974 -14.164319 4.3288789 5 0 0 0 63.24374
11.906777 -13.148161 4.1079526 30 0 0 0 62.84782
11.947807 -12.560019 4.0152168 17 0 0 0 62.461849
11.249016 -9.9539909 4.2265167 392.5 0 0 0 61.087967
11.995859 -9.8531418 4.3661828 361 0 0 0 60.499039
12.489864 -9.7552586 4.0622792 377 0 0 0 60.115021
12.530839 -9.7866211 4.4708037 264 0 0 0 60.115021
13.060897 -9.6937456 4.1679468 263 0 0 0 59.722099
13.644181 -9.615489 4.2760434 228 0 0 0 59.327168
14.234541 -9.5164299 4.3850894 246 0 0 0 58.94223
14.825549 -9.3930492 4.0620284 248 0 0 0 58.552299
15.538899 -9.317482 4.1917982 229 0 0 0 58.16259
16.283497 -9.2272406 4.3284512 215 0 0 0 57.764759
17.055965 -9.1182604 4.4710889 188 0 0 0 57.375221
17.817299 -8.9738388 4.1213236 194 0 0 0 56.989288
18.687408 -8.8427916 4.2688508 200 0 0 0 56.600121
19.724489 -8.746419 4.4528079 142 0 0 0 56.204922
20.697788 -8.5760708 4.0695052 162 0 0 0 55.811848
21.827501 -8.4213686 4.2471032 129 0 0 0 55.425327
23.049614 -8.2476101 4.4414663 113 0 0 0 55.044113
24.307957 -8.030098 4.0076137 94 0 0 0 54.645367
25.815811 -7.8295927 4.2202349 103 0 0 0 54.254818
27.470585 -7.5991278 4.4557638 62 0 0 0 53.874447
49.638107 -6.1168995 4.0955849 6 0 0 0 51.52655
10.481931 5.9785423 4.2922325 130 0 0 0 41.36692
10.411551 6.2831411 4.3254156 94 0 0 0 40.981861
8.1607094 6.7521119 4.0354681 170 0 0 0 38.633659
8.7926569 6.9147463 4.2588449 115 0 0 0 39.034191
10.430463 6.6500497 4.3994594 118 0 0 0 40.594353
10.443654 7.0231104 4.3208799 143.5 0 0 0 40.199169
14.743405 7.4567995 4.2249804 37 0 0 0 42.156353
11.125425 7.8838091 4.1723471 107 0 0 0 39.804619
15.877612 7.544157 4.0596757 91 0 0 0 42.545361
6.6708627 8.2113314 4.0326538 184 0 0 0 35.509007
9.4281902 8.1874409 4.1359038 164 0 0 0 38.243961
9.5283384 8.2796144 4.4907556 128 0 0 0 38.243961
31.309011 8.6917067 4.2578807 48 0 0 0 45.27636
12.955474 9.1717272 4.4585443 72 0 0 0 39.804619
30.262133 9.2083731 4.1463418 71 0 0 0 44.880848
-10.23051 9.6351185 4.2750902 255 0 0 0 11.69711
-9.7973471 9.6885529 4.192802 256 0 0 0 12.08904
-9.2537088 9.7655878 4.2065978 282.66666 0 0 0 12.602023
-8.7794418 9.8112011 4.3339558 262.5 0 0 0 13.06001
-8.2065601 9.8774166 4.2288771 271 0 0 0 13.65352
-7.7318072 9.9436531 4.2526951 251.66667 0 0 0 14.169757
-7.3138742 9.9745092 4.3785706 208 0 0 0 14.629749
29.570803 9.7986803 4.0842896 84 0 0 0 44.490059
-7.166368 10.037565 4.0650959 305 0 0 0 14.82261
-6.8151298 10.051918 4.1521077 279 0 0 0 15.21478
-6.3286567 10.107304 4.2253337 234 0 0 0 15.800645
-5.7068043 10.189583 4.1405425 198.5 0 0 0 16.577045
-5.2529845 10.244944 4.0833106 174 0 0 0 17.15736
-4.8008966 10.273736 4.0238733 338.5 0 0 0 17.748276
28.813953 10.340971 4.0146928 70 0 0 0 44.106609
-4.7043839 10.752549 4.4515872 174.5 0 0 0 18.13468
-4.257535 10.795828 4.4029689 252 0 0 0 18.72757
-3.8215225 10.840261 4.3628078 297 0 0 0 19.312901
-3.2555623 10.914561 4.325192 207.5 0 0 0 20.096855
-2.8448114 11.001579 4.3162599 98 0 0 0 20.6805
2.2685754 14.579486 4.1576729 238.5 0 0 0 27.111279
2.837796 14.654132 4.2052503 128 0 0 0 27.69664
4.2168083 14.797431 4.33356 231.5 0 0 0 29.05699
5.2967863 15.011884 4.4813037 144 0 0 0 30.030661
12.104966 -22.66617 4.675396 176 0 0 0 66.767433
12.782971 -22.583481 4.7210889 215 0 0 0 66.369209
13.459102 -22.47258 4.7649741 164 0 0 0 65.981491
12.214812 -19.307329 4.7226849 111 0 0 0 65.598389
12.749449 -19.098106 4.7462564 226 0 0 0 65.197601
12.817249 -18.216028 4.6046362 30 0 0 0 64.811096
12.402972 -15.903359 4.6663113 41 0 0 0 64.026352
12.344256 -14.320269 4.840817 9 0 0 0 63.24374
-3.7057319 -13.397244 4.7604818 123 0 0 0 78.88044
11.986279 -13.235122 4.5737534 31 0 0 0 62.84782
11.050678 -10.023325 4.7501802 320 0 0 0 61.285858
11.504895 -9.9294291 4.6495023 319 0 0 0 60.890079
12.046837 -9.8908443 4.7676053 278 0 0 0 60.499039
12.568752 -9.8120699 4.8760982 273 0 0 0 60.115021
13.101831 -9.7214146 4.7872009 274.5 0 0 0 59.722099
13.65406 -9.6218395 4.6944599 231 0 0 0 59.327168
14.296071 -9.5568686 4.8314748 229 0 0 0 58.94223
14.913387 -9.4476585 4.7393951 197.5 0 0 0 58.552299
15.5903 -9.3476067 4.6522779 207 0 0 0 58.16259
16.331045 -9.2534771 4.8022919 163 0 0 0 57.764759
17.095955 -9.1389246 4.9579158 162 0 0 0 57.375221
17.885687 -9.0036144 4.6272073 168 0 0 0 56.989288
18.807037 -8.8945808 4.8052654 156 0 0 0 56.600121
19.787785 -8.7695904 4.9968958 155 0 0 0 56.204922
20.737751 -8.5918751 4.6301045 116 0 0 0 55.811848
21.909367 -8.4521627 4.8412127 123 0 0 0 55.425327
24.489784 -8.0893002 4.6762881 102 0 0 0 54.645367
25.96456 -7.8738475 4.916533 69 0 0 0 54.254818
29.354029 -7.3482165 4.7271948 62 0 0 0 53.48
10.530281 6.1802001 4.6429491 116.5 0 0 0 41.174393
10.534026 6.7157087 4.7495012 121 0 0 0 40.594353
10.492359 7.2490497 4.8483977 122.5 0 0 0 40.001892
8.9923496 7.8161721 4.5339484 127 0 0 0 38.243961
10.42014 7.7808013 4.7837667 115.5 0 0 0 39.415779
11.820241 7.5263648 4.6332598 116 0 0 0 40.594353
15.927361 7.5677423 4.5060115 77 0 0 0 42.545361
15.61259 8.3834829 4.5288758 83 0 0 0 41.757359
9.4543247 8.632576 4.5543776 98 0 0 0 37.862839
15.447095 8.7910423 4.5425687 87 0 0 0 41.36692
-11.577993 9.4099245 4.9022141 234 0 0 0 10.532
-11.106828 9.4857349 4.8004336 215 0 0 0 10.9198
30.327021 9.2283535 4.9404626 50 0 0 0 44.880848
-10.642533 9.5474291 4.7001991 254 0 0 0 11.30357
-10.167343 9.5748825 4.7624664 242 0 0 0 11.69711
-9.73876 9.6298599 4.6715469 240.5 0 0 0 12.08904
-9.3011055 9.6530771 4.7377439 260 0 0 0 12.472
-8.7253113 9.743185 4.6247864 243 0 0 0 13.06001
-8.1801176 9.838089 4.5257826 152 0 0 0 13.65352
29.558882 9.7949562 4.8541079 76 0 0 0 44.490059
-8.1422377 10.297487 4.9646974 75 0 0 0 14.03619
28.842958 10.351542 4.7778845 84 0 0 0 44.106609
-5.1657968 10.719188 4.5111437 67 0 0 0 17.55654
28.165739 10.897531 4.7096734 86 0 0 0 43.713886
27.504007 11.426851 4.6456413 63 0 0 0 43.321072
-0.78095263 14.216544 4.7107482 200 0 0 0 23.791451
-0.43239537 14.276253 4.7261834 68 0 0 0 24.184919
1.3396393 14.403338 4.7894788 235 0 0 0 26.14143
1.7018735 14.434255 4.8126607 119 0 0 0 26.52915
2.448781 14.574286 4.5278382 231 0 0 0 27.30374
2.8259001 14.606885 4.5579081 189 0 0 0 27.69664
3.2109172 14.651199 4.5946488 222 0 0 0 28.08901
3.605145 14.706722 4.6380672 199 0 0 0 28.472879
4.2081852 14.776999 4.7057657 213 0 0 0 29.05699
4.8701272 14.977179 4.8219547 18 0 0 0 29.649389
5.2751408 14.958993 4.8560004 16 0 0 0 30.030661
5.7512913 15.105751 4.7474365 79 0 0 0 30.43062
6.1706839 15.075597 4.5841851 6 0 0 0 30.81559
6.6629853 15.197486 4.6687837 75 0 0 0 31.20805
-17.530493 18.292929 4.5870929 66 0 0 0 12.472
12.742545 -25.333212 5.1562076 48 0 0 0 67.159279
12.118887 -22.691183 5.313765 219 0 0 0 66.767433
12.801783 -22.615654 5.3675041 177 0 0 0 66.369209
13.486711 -22.517597 5.420609 160 0 0 0 65.981491
12.76757 -19.117125 5.3145456 193 0 0 0 65.197601
13.007376 -18.478079 5.224442 12 0 0 0 64.811096
12.621803 -17.027678 5.4231768 125 0 0 0 64.420982
12.531485 -15.279201 5.058156 7 0 0 0 63.640461
12.490009 -14.488318 5.3729396 9 0 0 0 63.24374
-3.7141633 -13.436938 5.2870026 46 0 0 0 78.88044
-3.3476186 -13.379414 5.2312183 87 0 0 0 78.493904
12.135283 -13.398648 5.0794306 18 0 0 0 62.84782
50.300007 -11.29214 5.4789801 17 0 0 0 53.085926
11.087872 -10.050891 5.3172917 290 0 0 0 61.285858
11.560158 -9.9761906 5.2372646 253.5 0 0 0 60.890079
12.056221 -9.901495 5.1582832 287 0 0 0 60.499039
12.588362 -9.8303108 5.2798147 271 0 0 0 60.115021
13.14549 -9.7546473 5.4100485 234 0 0 0 59.722099
13.709313 -9.6565237 5.1255102 212 0 0 0 59.327168
14.321663 -9.5697184 5.2635183 200 0 0 0 58.94223
-61.963638 -9.2071447 5.1134844 9 0 0 0 97.249107
14.973398 -9.480999 5.4142628 164 0 0 0 58.552299
15.606869 -9.3568773 5.1096888 188 0 0 0 58.16259
16.362289 -9.270483 5.2790656 147 0 0 0 57.764759
17.150635 -9.1674137 5.457252 135 0 0 0 57.375221
17.922781 -9.0215569 5.1298733 162 0 0 0 56.989288
18.8722 -8.9246368 5.3348546 125 0 0 0 56.600121
20.838148 -8.6284151 5.2045531 111 0 0 0 55.811848
22.003101 -8.4831142 5.4391699 112 0 0 0 55.425327
23.17556 -8.291851 5.0716977 114 0 0 0 55.044113
24.565554 -8.1135159 5.3277512 109 0 0 0 54.645367
47.662212 -8.2659283 5.1408615 7 0 0 0 52.307472
27.660978 -7.6509047 5.197401 69 0 0 0 53.874447
47.750069 -7.077877 5.1288438 5 0 0 0 51.919647
16.062634 8.6244001 5.1118145 65 0 0 0 41.757359
31.225798 8.6689463 5.04948 48 0 0 0 45.27636
15.790107 9.244359 5.1311264 83 0 0 0 41.174393
-10.526257 9.9119835 5.4597383 85 0 0 0 11.69711
-10.095081 9.9815073 5.3620844 138 0 0 0 12.08904
-9.6778898 10.047486 5.270412 157 0 0 0 12.472
-9.2742805 10.110907 5.1847334 142 0 0 0 12.86207
-8.6980038 10.206851 5.0699644 118 0 0 0 13.455734
28.216887 10.917427 5.4679079 59 0 0 0 43.713886
27.522566 11.434649 5.3873196 76 0 0 0 43.321072
3.2521334 13.29983 5.20854 128 0 0 0 28.472879
3.7623007 13.241449 5.2368279 207 0 0 0 29.05699
4.3467913 13.394569 5.182023 173.5 0 0 0 29.649389
4.700263 13.353903 5.0366344 235 0 0 0 30.030661
5.0911717 13.399189 5.2747889 200 0 0 0 30.43062
-3.7282412 13.789289 5.0696192 179 0 0 0 20.486065
5.9077806 13.501688 5.2411203 219 0 0 0 31.20805
6.329742 13.545759 5.3164535 195 0 0 0 31.602909
6.7775822 13.611648 5.218811 182 0 0 0 31.989229
-0.78625447 14.223221 5.0622907 111 0 0 0 23.791451
-0.20282747 14.301209 5.3174949 77.333336 0 0 0 24.449951
0.80022275 14.402627 5.1294365 118.5 0 0 0 25.54991
1.3353577 14.410819 5.1468925 162 0 0 0 26.14143
3.903764 14.396671 5.3051162 68 0 0 0 28.8596
4.2075171 14.132648 5.2446842 114 0 0 0 29.254379
3.5891042 14.6416 5.1755767 78.5 0 0 0 28.472879
4.2040777 14.752734 5.0783653 173 0 0 0 29.05699
4.8284135 14.841289 5.1654334 144 0 0 0 29.649389
5.1506586 14.601503 5.12465 107 0 0 0 30.030661
13.357711 -28.259203 5.6797237 51 0 0 0 67.553078
13.027192 -25.897083 5.9838352 51 0 0 0 67.159279
12.150932 -22.740538 5.9571776 176 0 0 0 66.767433
12.806885 -19.175022 5.8971272 152 0 0 0 65.197601
12.967824 -18.421148 5.7620091 72 0 0 0 64.811096
12.620397 -16.180099 5.7614379 95 0 0 0 64.026352
12.442843 -15.170605 5.5103459 51 0 0 0 63.640461
12.21719 -14.166784 5.7157831 144 0 0 0 63.24374
12.170476 -13.43206 5.5391045 8 0 0 0 62.84782
12.018751 -12.631911 5.7613935 160 0 0 0 62.461849
11.877379 -11.307864 5.8233218 141 0 0 0 61.680698
11.122222 -10.081419 5.7017674 260 0 0 0 61.285858
11.592944 -10.000079 5.8143802 228 0 0 0 60.890079
12.097067 -9.9270668 5.7503204 217.5 0 0 0 60.499039
12.629009 -9.8543234 5.6884246 200 0 0 0 60.115021
13.207933 -9.7931595 5.8376894 131 0 0 0 59.722099
13.765935 -9.695425 5.7703104 142.5 0 0 0 59.327168
14.35471 -9.5947685 5.7037759 146 0 0 0 58.94223
15.036969 -9.5242205 5.8784838 159 0 0 0 58.552299
15.689133 -9.4017372 5.5861526 147 0 0 0 58.16259
16.44388 -9.31217 5.7698975 167 0 0 0 57.764759
17.216915 -9.1982298 5.9582386 129 0 0 0 57.375221
17.988199 -9.0537205 5.6492476 136 0 0 0 56.989288
18.939121 -8.955512 5.8746119 131 0 0 0 56.600121
19.877762 -8.8086824 5.5537992 138 0 0 0 56.204922
20.912739 -8.6585207 5.7793331 95 0 0 0 55.811848
23.263819 -8.3180428 5.695828 71 0 0 0 55.044113
24.65127 -8.1362371 5.9818726 74 0 0 0 54.645367
26.056658 -7.9009438 5.6043701 72 0 0 0 54.254818
27.796925 -7.6876378 5.9329782 55 0 0 0 53.874447
29.489153 -7.3811541 5.5018897 57 0 0 0 53.48
15.818062 8.4933968 5.9220881 51 0 0 0 41.757359
15.841072 8.8460302 5.6849761 43.666668 0 0 0 41.497066
31.284334 8.6854877 5.8633833 39 0 0 0 45.27636
30.38126 9.2451 5.736145 53 0 0 0 44.880848
16.364632 9.8557835 5.8257499 32 0 0 0 40.981861
29.626055 9.8174019 5.6384392 57 0 0 0 44.490059
-12.267794 10.221507 5.6367068 84 0 0 0 10.7259
28.905872 10.374269 5.5492563 77 0 0 0 44.106609
-8.2524986 13.219193 5.8971434 67.5 0 0 0 15.800645
-7.6298666 13.284633 5.7989974 99 0 0 0 16.3827
-7.2492228 13.3694 5.7581525 61 0 0 0 16.771389
-6.8656821 13.43692 5.7144437 43 0 0 0 17.15736
5.4890771 13.438004 5.5193148 167 0 0 0 30.81559
5.8995857 13.482738 5.5950675 175 0 0 0 31.20805
6.3271599 13.539878 5.6810389 163 0 0 0 31.602909
0.98047972 14.438251 5.5006957 9 0 0 0 25.74531
1.3362503 14.419348 5.5050244 162 0 0 0 26.14143
1.6923953 14.397274 5.5114594 152 0 0 0 26.52915
12.845493 -22.682514 6.0222111 164 0 0 0 66.369209
13.530928 -22.581371 6.0811701 123 0 0 0 65.981491
14.243608 -22.498787 6.1506195 65 0 0 0 65.598389
-5.4197054 -21.646921 6.2508974 23 0 0 0 78.493904
12.833712 -19.214239 6.4836254 149 0 0 0 65.197601
13.057449 -18.547384 6.3652654 90 0 0 0 64.811096
12.834246 -17.312948 6.0493646 99 0 0 0 64.420982
12.748373 -16.337231 6.3280277 94 0 0 0 64.026352
12.543642 -15.287103 6.0400486 109 0 0 0 63.640461
12.419667 -14.405487 6.2818065 114 0 0 0 63.24374
12.249419 -13.523083 6.0275183 131 0 0 0 62.84782
12.192757 -12.804828 6.2758732 123 0 0 0 62.461849
12.063299 -12.062012 6.2662382 141.5 0 0 0 62.064392
11.978781 -11.403602 6.2782383 137 0 0 0 61.680698
12.662707 -9.8799934 6.0974116 181 0 0 0 60.115021
13.227551 -9.8070936 6.2501774 149 0 0 0 59.722099
13.810821 -9.7224798 6.4096174 156 0 0 0 59.327168
14.441864 -9.6450024 6.1630564 97 0 0 0 58.94223
15.063083 -9.5327368 6.3248563 146 0 0 0 58.552299
15.706235 -9.4150448 6.0462956 131 0 0 0 58.16259
16.483171 -9.337512 6.253335 118 0 0 0 57.764759
17.283079 -9.2367039 6.4668703 93 0 0 0 57.375221
18.05978 -9.0850306 6.1687756 126 0 0 0 56.989288
18.985069 -8.9724331 6.4052505 120 0 0 0 56.600121
19.900045 -8.8178129 6.1012683 127 0 0 0 56.204922
20.988947 -8.6892824 6.3651638 112 0 0 0 55.811848
22.084839 -8.513833 6.0409484 92 0 0 0 55.425327
23.378744 -8.3583107 6.3339629 77 0 0 0 55.044113
26.210142 -7.941627 6.3077912 78 0 0 0 54.254818
29.596634 -7.4071794 6.2731156 56 0 0 0 53.48
48.34129 -4.7443571 6.3535767 8 0 0 0 51.133499
29.682112 9.8361731 6.4192328 49 0 0 0 44.490059
28.994951 10.40637 6.3250251 57 0 0 0 44.106609
28.25042 10.93052 6.2204943 62 0 0 0 43.713886
27.59115 11.463195 6.136601 53 0 0 0 43.321072
26.910471 11.96465 6.0499506 62 0 0 0 42.935249
-9.7261238 12.964912 6.1277032 81 0 0 0 14.43689
-3.90661 -22.546431 6.9735556 17 0 0 0 77.320831
12.182471 -22.79845 6.6073594 187 0 0 0 66.767433
12.854727 -22.697783 6.6671529 151 0 0 0 66.369209
13.552779 -22.616772 6.7384958 140 0 0 0 65.981491
14.258686 -22.521559 6.8117809 96 0 0 0 65.598389
-2.4791625 -20.097067 6.6767626 38 0 0 0 76.53672
-1.501515 -20.340637 6.7259474 30 0 0 0 75.757027
-1.0007397 -20.340603 6.7163801 67 0 0 0 75.362366
-4.9016981 -19.575171 6.6511106 76 0 0 0 78.493904
13.133259 -18.647123 6.9615664 18 0 0 0 64.811096
12.979534 -17.501396 6.65205 82 0 0 0 64.420982
12.840902 -16.460733 6.89183 131 0 0 0 64.026352
12.647786 -15.41853 6.5847793 99 0 0 0 63.640461
12.532034 -14.52462 6.8063507 111 0 0 0 63.24374
12.33602 -13.608288 6.5181437 124 0 0 0 62.84782
12.25331 -12.867651 6.7425151 125 0 0 0 62.461849
14.474037 -9.6658354 6.6036038 117 0 0 0 58.94223
15.137813 -9.5793085 6.7954359 103 0 0 0 58.552299
15.793425 -9.4587498 6.7564831 127 0 0 0 58.16259
16.522184 -9.3512888 6.7327919 115 0 0 0 57.764759
17.344891 -9.2612085 6.9712658 102 0 0 0 57.375221
18.120737 -9.1188946 6.6924124 89 0 0 0 56.989288
19.071871 -9.0167398 6.9573522 95 0 0 0 56.600121
19.951193 -8.8355494 6.6535707 108 0 0 0 56.204922
21.10294 -8.7313442 6.9612975 76 0 0 0 55.811848
22.181038 -8.5501041 6.6582432 101 0 0 0 55.425327
23.495424 -8.3991899 6.9858603 85 0 0 0 55.044113
24.801037 -8.1848183 6.659832 71 0 0 0 54.645367
27.903208 -7.7109294 6.6644254 61 0 0 0 53.874447
16.477968 8.854085 6.6277056 25 0 0 0 41.757359
31.275305 8.6832933 6.6611576 54 0 0 0 45.27636
30.452259 9.2669392 6.5334725 58 0 0 0 44.880848
28.300444 10.955666 6.9754791 50 0 0 0 43.713886
27.634398 11.486893 6.8799357 61 0 0 0 43.321072
26.958689 11.991752 6.7842107 54 0 0 0 42.935249
-13.898083 12.482634 6.5939784 106 0 0 0 11.30357
-3.8340747 -25.864208 7.3215404 17 0 0 0 76.926735
-5.0352435 -25.330103 7.2306824 23 0 0 0 77.716248
-4.2927012 -24.753752 7.0354977 28 0 0 0 77.320831
-5.849143 -23.381826 7.3417912 27 0 0 0 78.493904
-4.5110736 -22.70977 7.0551939 24 0 0 0 77.716248
12.218092 -22.863972 7.2707543 150 0 0 0 66.767433
12.874615 -22.731819 7.3266096 132 0 0 0 66.369209
13.588981 -22.676065 7.4133506 114 0 0 0 65.981491
14.292304 -22.573551 7.4917278 104 0 0 0 65.598389
-3.8472497 -22.180187 7.4179578 21 0 0 0 77.320831
-3.0431328 -20.566153 7.3634434 13 0 0 0 76.926735
-3.5273435 -20.374138 7.3230672 25 0 0 0 77.320831
-1.9467443 -19.8274 7.0585947 29 0 0 0 76.150955
-1.4592862 -19.86035 7.056015 43 0 0 0 75.757027
-2.8299909 -19.121578 7.3220468 48 0 0 0 76.926735
-2.3375587 -19.000086 7.2522192 47 0 0 0 76.53672
-1.3968532 -19.005285 7.2205391 39 0 0 0 75.757027
-0.93097836 -19.046522 7.2258687 43 0 0 0 75.362366
12.858715 -19.243473 7.063921 121 0 0 0 65.197601
-1.8600695 -18.940536 7.2106109 58 0 0 0 76.150955
13.164051 -17.755404 7.2946849 13 0 0 0 64.420982
12.900926 -16.524881 7.4350691 14 0 0 0 64.026352
12.569179 -15.311266 7.0273504 68 0 0 0 63.640461
12.430387 -13.71151 7.0214586 137 0 0 0 62.84782
16.567589 -9.3762751 7.2181435 92 0 0 0 57.764759
17.357315 -9.2671432 7.4588881 80 0 0 0 57.375221
18.214075 -9.1571074 7.2258816 90 0 0 0 56.989288
19.12668 -9.0337219 7.4952822 98 0 0 0 56.600121
20.055429 -8.8850937 7.2319007 91 0 0 0 56.204922
22.254808 -8.5732813 7.2669425 85 0 0 0 55.425327
24.867264 -8.2058496 7.3286924 62 0 0 0 54.645367
26.300573 -7.9681897 7.0048027 53 0 0 0 54.254818
27.98402 -7.732408 7.3971162 45 0 0 0 53.874447
29.668894 -7.4188952 7.0372643 46 0 0 0 53.48
16.480389 8.8553495 7.0879197 38 0 0 0 41.757359
31.284031 8.691906 7.4588871 45 0 0 0 45.27636
30.442383 9.270009 7.3114514 44 0 0 0 44.880848
29.751703 9.8651867 7.2025957 56 0 0 0 44.490059
29.051363 10.432491 7.0940137 62 0 0 0 44.106609
-17.648106 11.696551 7.4648132 60 0 0 0 8.9758396
-17.229385 12.035501 7.4111743 111 0 0 0 9.3586903
-16.485399 12.124942 7.2176552 25 0 0 0 9.74753
-15.845859 12.2618 7.0679932 29 0 0 0 10.1438
-15.096074 12.281589 7.3417897 93 0 0 0 10.532
-14.473866 12.374604 7.1853709 138 0 0 0 10.9198
-13.887569 12.472912 7.0448074 101 0 0 0 11.30357
-6.1940751 -27.604624 7.9172096 30 0 0 0 78.096169
-3.2908709 -26.701601 7.5332108 13 0 0 0 76.53672
-5.705924 -25.447245 7.9420905 23 0 0 0 78.096169
-4.5158539 -22.713205 7.629456 25 0 0 0 77.716248
-3.3767486 -22.772287 7.5859051 16 0 0 0 76.926735
12.242154 -22.898302 7.9214082 113 0 0 0 66.767433
12.905049 -22.775192 7.9855938 114 0 0 0 66.369209
-5.0306473 -22.413248 7.5675282 57 0 0 0 78.096169
-4.931499 -22.006849 7.9832997 21 0 0 0 78.096169
-2.6949615 -21.916651 7.8196325 27 0 0 0 76.53672
-4.1518469 -20.917343 7.5510912 29 0 0 0 77.716248
-3.9083555 -19.688263 7.6010475 55 0 0 0 77.716248
-3.4052372 -19.667244 7.5591502 29 0 0 0 77.320831
12.893968 -19.302542 7.6595564 101 0 0 0 65.197601
13.481312 -19.146666 7.7262735 14 0 0 0 64.811096
13.212874 -17.807335 7.8621149 10 0 0 0 64.420982
12.925137 -15.743313 7.7245226 20 0 0 0 63.640461
49.155518 -11.023669 7.8420262 8 0 0 0 53.085926
18.239975 -9.1693983 7.7368779 89 0 0 0 56.989288
20.080042 -8.8868656 7.778595 69 0 0 0 56.204922
21.138433 -8.7495852 7.5400438 89 0 0 0 55.811848
22.29023 -8.5906191 7.8705635 67 0 0 0 55.425327
23.467882 -8.3839722 7.5908041 56 0 0 0 55.044113
24.94174 -8.2247744 7.9966464 59 0 0 0 54.645367
26.370354 -7.9884901 7.7084637 64 0 0 0 54.254818
29.881527 -7.4711494 7.8443642 32 0 0 0 53.48
29.802917 9.8823652 7.9867163 56 0 0 0 44.490059
29.081831 10.443595 7.8609676 63 0 0 0 44.106609
28.357758 10.977957 7.7370048 52 0 0 0 43.713886
-17.633356 11.68654 7.9751148 67 0 0 0 8.9758396
-17.164553 11.989785 7.8945384 74 0 0 0 9.3586903
27.684359 11.507725 7.6292834 65 0 0 0 43.321072
-16.462801 12.108031 7.7067738 23 0 0 0 9.74753
-15.773882 12.205589 7.522882 25 0 0 0 10.1438
26.997869 12.009212 7.5203753 63 0 0 0 42.935249
14.311241 -32.281837 8.1457043 21 0 0 0 67.946091
13.885165 -29.356346 8.2919788 35 0 0 0 67.553078
-3.9548445 -26.713316 8.2248936 35 0 0 0 76.926735
-3.2710145 -26.578733 8.1572361 29 0 0 0 76.53672
13.555964 -26.931353 8.4507914 48 0 0 0 67.159279
13.625394 -22.72673 8.0828781 115 0 0 0 65.981491
14.312617 -22.59585 8.1583376 112 0 0 0 65.598389
-4.7916646 -21.381899 8.2944164 18 0 0 0 78.096169
12.928018 -19.33795 8.2462873 115 0 0 0 65.197601
13.523033 -19.190725 8.3221388 49 0 0 0 64.811096
-79.21244 -11.770711 8.4725647 11 0 0 0 97.249107
19.141523 -9.0400038 8.0203381 59 0 0 0 56.600121
20.254459 -8.9632006 8.3890982 69 0 0 0 56.204922
21.268332 -8.7938271 8.1499233 52 0 0 0 55.811848
23.641533 -8.4497957 8.268919 70 0 0 0 55.044113
26.551283 -8.0373535 8.4435854 50 0 0 0 54.254818
28.124048 -7.7702131 8.1594744 55 0 0 0 53.874447
31.307556 8.6987429 8.2631435 40 0 0 0 45.27636
30.594408 9.3165016 8.1338511 38 0 0 0 44.880848
27.71699 11.521368 8.3848009 33 0 0 0 43.321072
27.040508 12.028209 8.2682962 36 0 0 0 42.935249
26.408327 12.533668 8.1679106 38 0 0 0 42.545361
25.833218 13.048428 8.0879202 33 0 0 0 42.156353
23.360306 14.850738 8.4222174 35 0 0 0 40.594353
22.782923 15.283207 8.3483334 28 0 0 0 40.199169
12.298771 -23.012644 8.6061945 58 0 0 0 66.767433
12.928543 -22.824839 8.6517382 96 0 0 0 66.369209
13.639123 -22.757563 8.7499933 74 0 0 0 65.981491
14.345472 -22.655352 8.8429146 79 0 0 0 65.598389
12.963445 -19.389978 8.84056 110 0 0 0 65.197601
13.516686 -19.180859 8.8935184 60 0 0 0 64.811096
21.302856 -8.8073368 8.7285357 65 0 0 0 55.811848
22.43191 -8.6353865 8.5092354 78 0 0 0 55.425327
23.683498 -8.4546738 8.8997269 51 0 0 0 55.044113
25.080811 -8.2746305 8.6955395 53 0 0 0 54.645367
28.300549 -7.8127618 8.9327745 43 0 0 0 53.874447
30.09417 -7.5233836 8.6712437 19 0 0 0 53.48
49.068649 -7.2607355 8.9468288 7 0 0 0 51.919647
30.631199 9.3279581 8.9399357 37 0 0 0 44.880848
29.840992 9.895195 8.7787809 44 0 0 0 44.490059
29.13607 10.463227 8.6455164 48 0 0 0 44.106609
28.453865 11.015244 8.5219584 38 0 0 0 43.713886
26.47135 12.569217 8.9095488 45 0 0 0 42.545361
25.850924 13.06301 8.8073654 37 0 0 0 42.156353
14.159848 -29.934948 9.2780523 22 0 0 0 67.553078
13.841372 -27.484385 9.381875 22 0 0 0 67.159279
12.400513 -23.182222 9.3162365 14 0 0 0 66.767433
12.960863 -22.8622 9.3125715 91 0 0 0 66.369209
13.670341 -22.790525 9.4167385 69 0 0 0 65.981491
49.130997 -11.016813 9.085268 9 0 0 0 53.085926
22.535276 -8.6743593 9.140563 48 0 0 0 55.425327
25.169373 -8.2932711 9.3755293 49 0 0 0 54.645367
26.681484 -8.0809822 9.1756506 54 0 0 0 54.254818
30.10495 -7.5196328 9.4378223 25 0 0 0 53.48
49.537605 -6.0909934 9.0008392 6 0 0 0 51.52655
32.905045 8.277133 9.4701385 11 0 0 0 45.67107
31.406574 8.726531 9.0998096 42 0 0 0 45.27636
29.205023 10.493891 9.4305182 43 0 0 0 44.106609
28.435532 11.014008 9.2679224 43 0 0 0 43.713886
27.769798 11.549071 9.1418571 39 0 0 0 43.321072
27.111801 12.065602 9.0213327 52 0 0 0 42.935249
24.028093 14.452114 9.2244701 33 0 0 0 40.981861
12.988488 -22.909834 9.9779015 80 0 0 0 66.369209
14.377975 -22.688078 9.516881 63 0 0 0 65.598389
23.846586 -8.5120344 9.5817976 36 0 0 0 55.044113
26.759287 -8.0935011 9.8874722 34 0 0 0 54.254818
28.427122 -7.852159 9.7033243 44 0 0 0 53.874447
31.408121 8.733181 9.903327 31 0 0 0 45.27636
30.682022 9.349535 9.7448959 37 0 0 0 44.880848
29.913103 9.9250927 9.5763922 48 0 0 0 44.490059
27.772039 11.544412 9.8869219 40 0 0 0 43.321072
27.108894 12.058702 9.7546225 43 0 0 0 42.935249
26.481266 12.568274 9.638238 41 0 0 0 42.545361
25.832428 13.048005 9.5172338 21 0 0 0 42.156353
-6.9801712 -27.929543 10.181614 18 0 0 0 78.493904
13.69843 -22.836266 10.088804 80 0 0 0 65.981491
14.425054 -22.761234 10.208507 72 0 0 0 65.598389
25.25264 -8.3198757 10.058571 21 0 0 0 54.645367
28.593838 -7.8865628 10.487033 31 0 0 0 53.874447
30.302084 -7.5735655 10.273253 29 0 0 0 53.48
32.623425 8.2128019 10.218134 19 0 0 0 45.67107
29.987511 9.9441557 10.382075 30 0 0 0 44.490059
29.191771 10.483561 10.19395 44 0 0 0 44.106609
28.475704 11.023965 10.036677 48 0 0 0 43.713886
26.485964 12.581858 10.361394 32 0 0 0 42.545361
25.857002 13.071719 10.239216 28 0 0 0 42.156353
17.287048 -48.313477 10.563498 23 0 0 0 69.112144
26.878845 -8.1287966 10.620236 36 0 0 0 54.254818
31.52092 8.7588863 10.748535 21 0 0 0 45.27636
30.761311 9.3680592 10.565898 36 0 0 0 44.880848
29.286861 10.529388 10.992262 22 0 0 0 44.106609
28.532579 11.057549 10.809173 28 0 0 0 43.713886
27.875721 11.598961 10.666283 32 0 0 0 43.321072
27.189886 12.106108 10.515802 25 0 0 0 42.935249
25.898655 13.092728 10.967611 15 0 0 0 42.156353
28.738335 -7.9255214 11.271008 25 0 0 0 53.874447
