# .PCD v0.7 - Point Cloud Data file format
VERSION 0.7
FIELDS x y z intensity normal_x normal_y normal_z curvature
SIZE 4 4 4 4 4 4 4 4
TYPE F F F F F F F F
COUNT 1 1 1 1 1 1 1 1
WIDTH 943
HEIGHT 1
VIEWPOINT 0 0 0 1 0 0 0
POINTS 943
DATA ascii
-14.763141 10.282374 1.2551636 108.5 0 0 0 9.3481798
-14.168074 10.390255 1.2267265 154.5 0 0 0 9.7391901
-13.44076 10.368338 1.3975453 56 0 0 0 10.12587
-12.941854 10.497087 1.3721741 43 0 0 0 10.51676
-13.783894 10.637472 1.0012987 178 0 0 0 10.12587
-11.991723 10.737825 1.325846 227 0 0 0 11.29166
7.2921791 12.360584 1.1646755 260 0 0 0 33.107029
-17.786383 -49.729465 1.75185 9 0 0 0 80.011261
-27.011318 -47.691029 1.8090382 11 0 0 0 82.743591
-28.850182 -45.566345 1.7782559 14 0 0 0 83.531082
-22.621161 -44.950291 1.6658908 5 0 0 0 81.967796
-11.010109 -43.977428 1.5116831 9 0 0 0 78.449448
-16.683403 -43.262733 1.541428 22 0 0 0 80.399162
-46.073601 -37.80933 1.9438182 23 0 0 0 88.609108
-46.378685 -36.191372 1.9177663 31 0 0 0 89.001678
-15.870976 -28.016884 1.8651698 22 0 0 0 82.743591
-20.248838 -27.30274 1.9633297 44 0 0 0 84.693604
-15.664078 -26.133879 1.7660939 49 0 0 0 83.137131
-11.390218 -25.694818 1.6347274 15 0 0 0 81.175903
-26.456079 -18.630404 1.8612692 27 0 0 0 89.793884
-24.055847 -17.839315 1.7259548 41 0 0 0 89.396835
-19.428699 -17.607956 1.5177221 35 0 0 0 87.825745
-1.2993085 -17.615723 1.9101278 291 0 0 0 75.714928
-16.773222 -16.777817 1.967957 37 0 0 0 87.049538
-1.6097789 -16.33379 1.7774482 300 0 0 0 76.097359
-2.5215805 -14.516829 1.599484 439 0 0 0 77.270073
-1.803497 -14.602836 1.5970479 421 0 0 0 76.487183
-2.1417394 -14.42064 1.5828475 421 0 0 0 76.887917
-0.25097987 -10.09211 1.7282299 1015.5 0 0 0 74.927452
0.36601138 -10.03564 1.7189541 1420 0 0 0 73.95034
0.99506521 -10.134855 1.7420279 66 0 0 0 72.968437
1.3658731 -10.078712 1.7396756 60 0 0 0 72.379585
1.7368197 -10.026064 1.7399175 65.5 0 0 0 71.794624
0.73261952 -9.9781513 1.7122836 1469.5 0 0 0 73.361832
1.984226 -9.9891491 1.7410464 74.5 0 0 0 71.411446
2.3396168 -9.8589611 1.7322327 488.75 0 0 0 70.81723
2.8521249 -9.8414793 1.7505593 66.25 0 0 0 70.034996
3.3432219 -9.7223701 1.7558162 89.25 0 0 0 69.253357
3.7674866 -9.5359278 1.7929131 1339 0 0 0 68.535027
3.9336457 -9.4995956 1.6275933 1464 0 0 0 68.278114
4.3308859 -9.4550953 1.774157 1323.75 0 0 0 67.689697
4.8196063 -9.3811483 1.7539331 1404.3334 0 0 0 66.969994
5.1919785 -9.3387642 1.8637885 1175 0 0 0 66.443909
5.7096272 -9.2605619 1.8516171 1209.5 0 0 0 65.730621
6.2940044 -9.1663246 1.7526176 1214 0 0 0 64.944954
6.7662978 -9.1155596 1.7876003 1067 0 0 0 64.361168
7.2379074 -9.0326738 1.6779788 1146.5 0 0 0 63.773037
7.7310057 -8.9516659 1.7129459 1022 0 0 0 63.182846
8.2597294 -8.8770256 1.7542737 1014.25 0 0 0 62.600246
8.8154583 -8.8010759 1.8002403 866.5 0 0 0 62.00872
9.2048626 -8.7480621 1.8337278 899 0 0 0 61.612568
9.5923462 -8.677248 1.7061198 867 0 0 0 61.22345
10.237574 -8.5927134 1.7608775 728 0 0 0 60.638573
10.918966 -8.50002 1.8205785 682 0 0 0 60.04948
11.394102 -8.4293747 1.6892452 618 0 0 0 59.667721
11.887102 -8.3491211 1.7293878 557.5 0 0 0 59.273201
12.424177 -8.2770433 1.7759504 523.5 0 0 0 58.88065
12.973105 -8.1905489 1.6341832 580 0 0 0 58.493832
13.540086 -8.0891466 1.6782514 500 0 0 0 58.101048
14.185968 -8.0076513 1.7314196 469 0 0 0 57.712433
-13.236811 -7.5010476 1.6405191 168 0 0 0 91.350655
14.876988 -7.9209995 1.7894399 395 0 0 0 57.320541
15.597918 -7.8179698 1.8504273 398 0 0 0 56.92522
16.389982 -7.7158551 1.9191297 325 0 0 0 56.533638
17.179062 -7.5764146 1.7592483 293 0 0 0 56.137501
18.029419 -7.4267883 1.5873653 251 0 0 0 55.7509
-13.075452 -6.9943485 1.9639676 228 0 0 0 91.737724
-12.771158 -6.8287287 1.5630057 158 0 0 0 91.737724
34.749363 -6.8245459 1.9608468 17 0 0 0 52.62904
-13.274597 -6.2807097 1.5840271 147 0 0 0 92.501564
-12.768262 -6.302052 1.7709852 273.33334 0 0 0 92.243469
-6.5367846 -4.6070089 1.6671534 5278 0 0 0 89.793884
26.878712 -4.5960121 1.5164496 36 0 0 0 52.243687
-6.4675851 -4.3248329 1.6227618 5664 0 0 0 90.182922
33.275303 -4.0165839 1.853647 6 0 0 0 51.465088
34.474968 -3.3031871 1.9129355 6 0 0 0 51.070328
34.151215 -1.582876 1.886284 12 0 0 0 50.284241
-2.1854575 4.842092 1.6604137 327.33334 0 0 0 18.043659
-0.081450418 5.2957401 1.8756355 309 0 0 0 24.539087
0.045767054 5.1769357 1.8988152 294.5 0 0 0 24.929171
0.73148727 5.4830203 1.9623077 332 0 0 0 26.87924
-1.6709919 5.7289028 1.5240346 561.66669 0 0 0 20.253904
-0.18539888 5.5824909 1.8070772 424 0 0 0 24.241049
0.66143793 5.8075719 1.8418596 388 0 0 0 26.569172
-2.7832911 6.4983201 1.9746387 642 0 0 0 18.30126
-2.0155466 6.3515787 1.8634349 662 0 0 0 19.86096
-1.9238251 6.0499897 1.9312762 310 0 0 0 19.86096
-1.4169679 6.2835054 1.6438274 666 0 0 0 21.228874
-0.34822285 6.1259298 1.7181933 422.5 0 0 0 23.852074
0.32283232 6.3901606 1.8252865 527.59998 0 0 0 25.557785
0.57014155 6.1290679 1.6749096 427.66666 0 0 0 26.232214
4.4126911 6.3947887 1.8858 506.5 0 0 0 34.278141
4.578723 6.297143 1.8912442 436 0 0 0 34.667606
5.3933268 6.0562901 1.868614 438 0 0 0 36.24012
5.6616392 6.0473557 1.7050086 518 0 0 0 36.62764
-2.7578213 6.7399902 1.732087 334.66666 0 0 0 18.561493
-1.9454025 6.706511 1.9521081 387 0 0 0 20.25909
-1.2431651 6.8277321 1.7718086 546.33331 0 0 0 21.874893
-0.67157173 6.756916 1.9007888 331.5 0 0 0 23.172596
-0.14217298 6.8914452 1.8165083 311.66666 0 0 0 24.406626
0.16362166 6.7888489 1.7334083 398 0 0 0 25.125565
4.3262272 6.6095543 1.6274064 535 0 0 0 33.893673
4.5025349 6.5218134 1.6325884 552 0 0 0 34.278141
6.1328602 6.8764405 1.8926411 547 0 0 0 36.24012
-7.2972951 7.1808662 1.8516304 479 0 0 0 12.06345
-1.1282831 7.01091 1.9860716 597 0 0 0 22.200371
0.094952285 7.4469695 1.5347489 607 0 0 0 24.929171
0.90637112 7.3239269 1.8825095 404 0 0 0 26.68597
4.4915237 7.2387152 1.75245 386 0 0 0 33.501419
4.5656242 7.357367 1.5675176 245 0 0 0 33.501419
5.4309325 7.4532232 1.8943775 427 0 0 0 34.667606
5.7762246 7.23033 1.8095419 461.20001 0 0 0 35.377075
6.0079613 7.0803547 1.6784623 489 0 0 0 35.841759
-0.27563137 7.595613 1.6582351 280 0 0 0 24.141701
0.87312478 7.8053927 1.8091179 454 0 0 0 26.492701
1.3068728 7.6682763 1.8233901 373.5 0 0 0 27.402039
1.7601658 7.6459427 1.7432919 503.66666 0 0 0 28.301733
2.0080464 7.5778284 1.8061403 494 0 0 0 28.827419
-1.1146038 8.2830439 1.9226061 599 0 0 0 22.587709
4.864862 8.2773218 1.9709518 435 0 0 0 33.107029
-0.93769801 8.5702076 1.9826225 188 0 0 0 22.97229
-0.16370843 8.7916079 1.663992 250.66667 0 0 0 24.406626
0.69883531 8.7573442 1.7687064 384.33334 0 0 0 25.973608
1.3025522 8.896759 1.6999735 297 0 0 0 27.009964
1.6870382 8.9490747 1.6467997 451 0 0 0 27.663389
1.4696661 9.0045662 1.8741965 436 0 0 0 27.27141
1.939503 9.0523396 1.787112 260 0 0 0 28.043779
18.53838 9.4370489 1.6706589 155 0 0 0 42.100559
-18.574339 9.8195858 1.7247417 160 0 0 0 7.4010501
0.38033497 9.6741495 1.9873049 405 0 0 0 25.32196
1.1233876 9.8877907 1.7973516 38 0 0 0 26.492701
-14.79544 10.304313 1.919233 260 0 0 0 9.3481798
-14.179265 10.397878 1.872123 323 0 0 0 9.7391901
-13.581724 10.478566 1.8268584 275 0 0 0 10.12587
-13.028986 10.569066 1.7870111 172 0 0 0 10.51676
-12.453698 10.616257 1.7434627 71 0 0 0 10.90108
1.4173605 12.344587 1.9301666 416 0 0 0 26.492701
1.730128 12.37717 1.7860936 449 0 0 0 26.87924
2.0511351 12.433558 1.8002906 603 0 0 0 27.27141
-42.197948 -63.165558 2.4887404 7 0 0 0 83.9105
-10.911057 -33.033489 2.0177913 8 0 0 0 79.613403
-14.846956 -31.393875 2.0110321 19 0 0 0 81.572647
-15.584788 -30.963898 2.0067441 17 0 0 0 81.967796
-24.547731 -29.912127 2.2284067 14 0 0 0 85.485489
-20.965311 -29.769548 2.1013968 31 0 0 0 84.306351
-25.130562 -27.727209 2.1544626 12 0 0 0 86.271584
-11.985911 -27.052521 2.4555712 5 0 0 0 81.175903
-32.467266 -26.643402 2.4081552 21 0 0 0 88.609108
-30.501728 -26.309555 2.311929 31 0 0 0 88.210732
-16.721237 -19.3902 2.1228907 68 0 0 0 85.874466
-23.994911 -17.80061 2.4654951 45 0 0 0 89.396835
-1.8835318 -15.278737 2.0477197 16 0 0 0 76.487183
-22.326668 -14.922089 2.2184985 46 0 0 0 90.182922
-2.2124174 -14.918176 2.0068882 306 0 0 0 76.887917
35.251068 -13.514521 2.0996666 5 0 0 0 55.370312
37.717548 -12.369352 2.202354 19 0 0 0 54.588272
38.652905 -10.601935 2.2199624 14 0 0 0 53.804367
-0.12714973 -10.159155 2.2387099 1233.25 0 0 0 74.73098
0.36890259 -10.079939 2.2225232 1182.25 0 0 0 73.95034
0.86588848 -10.070791 2.2265735 698.25 0 0 0 73.165131
1.3686368 -10.090219 2.2423449 57.5 0 0 0 72.379585
1.7387335 -10.035084 2.1177771 74 0 0 0 71.794624
1.8973188 -9.969388 2.2755229 341.33334 0 0 0 71.539177
2.3455493 -9.8801098 2.2352562 590.75 0 0 0 70.81723
2.8413758 -9.8001099 2.2447743 463.75 0 0 0 70.034996
3.3402138 -9.7091627 2.2581651 592 0 0 0 69.253357
3.8304405 -9.5762072 2.2682352 1151.5 0 0 0 68.470795
4.2202387 -9.5181742 2.2887964 1214 0 0 0 67.880791
4.5004673 -9.5094042 2.4403367 1007 0 0 0 67.498611
4.476037 -9.4629803 2.1721528 1292 0 0 0 67.498611
4.7590351 -9.4502163 2.3243232 1129 0 0 0 67.102608
5.1244664 -9.3956327 2.3060553 1194.6666 0 0 0 66.574341
5.7388372 -9.3066387 2.2648876 1121 0 0 0 65.730621
6.3228865 -9.2073936 2.174561 1094 0 0 0 64.944954
6.7907095 -9.1474829 2.2162828 1105 0 0 0 64.361168
7.2729664 -9.0752621 2.2608626 1008 0 0 0 63.773037
7.7779179 -9.0044966 2.4574723 949 0 0 0 63.182846
7.7654357 -8.9906168 2.161288 1012 0 0 0 63.182846
8.2415094 -8.9298086 2.3084211 895.66669 0 0 0 62.664906
8.8522739 -8.8369894 2.2717655 683 0 0 0 62.00872
9.2458391 -8.7861767 2.3151777 718 0 0 0 61.612568
9.6489248 -8.7275887 2.1992986 760.5 0 0 0 61.22345
10.209812 -8.6409521 2.2032585 723 0 0 0 60.705566
10.72966 -8.5639935 2.3152401 619.5 0 0 0 60.243538
35.73325 -8.8627291 2.0402994 15 0 0 0 53.417953
11.430683 -8.4541979 2.2209384 609 0 0 0 59.667721
11.941511 -8.3850746 2.2777152 539 0 0 0 59.273201
12.468026 -8.3040218 2.3367462 541 0 0 0 58.88065
13.027727 -8.221199 2.2107837 452.5 0 0 0 58.493832
13.633371 -8.1409731 2.2770252 450 0 0 0 58.101048
14.245958 -8.0378075 2.1409259 389 0 0 0 57.712433
-13.609254 -7.7152152 2.0703192 149 0 0 0 91.350655
14.922343 -7.941401 2.210587 384 0 0 0 57.320541
15.662729 -7.8466187 2.2888937 311 0 0 0 56.92522
16.426912 -7.7293506 2.3699582 318 0 0 0 56.533638
17.273447 -7.613843 2.4620583 273 0 0 0 56.137501
35.956585 -7.9847255 2.0396314 18 0 0 0 53.021648
18.087187 -7.450201 2.0678434 198 0 0 0 55.7509
-13.890976 -6.997613 2.4428005 205 0 0 0 92.114418
-5.205771 5.359642 2.4497962 439 0 0 0 12.44939
0.8573879 5.409287 2.0772901 277 0 0 0 27.27141
1.001601 5.4433274 2.0990982 182 0 0 0 27.663389
-5.123168 5.5384865 2.3810711 422 0 0 0 12.84949
-4.9390926 5.7020302 2.4128084 410.33334 0 0 0 13.361964
-1.8578814 5.835176 2.3121595 353 0 0 0 19.86096
-0.22192806 5.6516323 2.141474 323 0 0 0 24.141701
0.73197931 5.752347 2.1268678 298 0 0 0 26.784014
4.4878602 5.864502 2.4343281 220 0 0 0 35.062481
4.5474963 5.9424925 2.0967491 166 0 0 0 35.062481
-5.570569 6.0294232 2.2895591 341 0 0 0 12.84949
-1.6029557 6.2391243 2.2972357 384 0 0 0 20.754457
-1.1921309 6.3619728 2.4457095 333.66666 0 0 0 21.811163
-0.38625804 6.1389117 2.1766007 398 0 0 0 23.755529
0.30374131 6.2853184 2.1916673 357.5 0 0 0 25.518543
0.52244419 6.1537337 2.188128 388.66666 0 0 0 26.101969
4.3880873 6.1969023 2.2201982 379 0 0 0 34.472874
4.5654936 6.1216807 2.2324371 286 0 0 0 34.865044
5.6186085 6.0030036 2.0962048 372 0 0 0 36.62764
-2.6519556 6.7973595 2.2782326 423.16666 0 0 0 18.823347
-2.3405557 6.808691 2.0996792 593 0 0 0 19.48027
-1.9881469 6.8561854 2.1697845 438 0 0 0 20.25909
-0.62301707 6.6830444 2.1651602 445 0 0 0 23.272749
0.18397926 6.607296 2.1754627 353.66666 0 0 0 25.191031
5.8068881 6.8463097 2.2855124 415 0 0 0 35.841759
6.2500486 6.6716156 2.1020634 409 0 0 0 36.62764
-7.1480942 7.0313859 2.3024027 309 0 0 0 12.06345
-1.819814 7.2829566 2.1894763 540.5 0 0 0 20.837021
-1.2517867 7.2363434 2.2330728 427 0 0 0 22.004061
-0.88733256 7.2077131 2.3879192 247.5 0 0 0 22.779999
1.2442956 7.4006567 2.1923923 424.75 0 0 0 27.369358
1.566931 7.3680954 2.1996646 335.5 0 0 0 28.043779
5.7175455 7.1587806 2.1973786 345.60001 0 0 0 35.377079
-1.5996556 7.5805349 2.3541322 463 0 0 0 21.425369
1.2241712 7.5615973 2.1429191 327 0 0 0 27.27141
1.7618833 7.6538544 2.0665457 350.66666 0 0 0 28.301733
2.0230908 7.6313434 2.0123799 229 0 0 0 28.827419
3.3031812 7.6557555 2.3314903 454 0 0 0 31.162029
3.8126874 7.7576618 2.3074861 377.5 0 0 0 31.948851
4.974967 7.5892639 2.3097908 372 0 0 0 33.893673
5.039701 7.6876316 2.1135252 325 0 0 0 33.893673
-1.1144691 8.2878952 2.2317474 533 0 0 0 22.587709
2.6705961 8.3618317 2.3441463 447 0 0 0 29.59762
3.1598384 8.4327879 2.2917914 146 0 0 0 30.390579
3.7127132 8.3052673 2.315284 392 0 0 0 31.356609
4.2994943 8.2228794 2.1330659 465 0 0 0 32.33522
4.652606 8.3848505 2.2033165 321 0 0 0 32.72406
5.0888023 8.1911774 2.3346076 227.5 0 0 0 33.501419
0.76140493 8.6705379 2.0019116 485 0 0 0 26.101971
2.9688258 8.5575991 2.3048913 419 0 0 0 29.99074
3.4948645 8.6654367 2.3768315 378 0 0 0 30.777201
4.6631708 8.6477337 2.2560754 184 0 0 0 32.52964
-0.5509541 9.273756 2.1347198 317 0 0 0 23.755529
-0.09542881 9.4143305 2.163147 245 0 0 0 24.539089
5.3281879 9.0591154 2.4117763 346 0 0 0 33.107029
18.539677 9.437211 2.1765504 188 0 0 0 42.100559
0.13801104 9.5176382 2.1867564 430 0 0 0 24.929171
18.095358 9.7794571 2.15219 209 0 0 0 41.71114
-16.904593 10.022089 2.089962 186 0 0 0 8.1695604
-15.389561 10.166513 2.4144735 242 0 0 0 8.9565001
-14.730578 10.255928 2.350167 239 0 0 0 9.3481798
-14.113393 10.346387 2.291749 291 0 0 0 9.7391901
-13.532161 10.437226 2.2384439 281 0 0 0 10.12587
-12.977398 10.524125 2.1888466 262 0 0 0 10.51676
-10.942825 -43.709518 2.6055067 22 0 0 0 78.449448
-11.851644 -42.84576 2.5703616 33 0 0 0 78.837723
-12.857025 -42.400734 2.5612321 24 0 0 0 79.222649
-32.454178 -34.087982 2.6997204 18 0 0 0 86.663116
-16.637236 -31.141464 2.9213877 20 0 0 0 82.352737
-15.714698 -31.23583 2.8942223 6 0 0 0 81.967796
-11.906439 -30.885302 2.7442579 16 0 0 0 80.399162
-10.436885 -29.186766 2.5725317 18 0 0 0 80.011261
-11.57016 -27.947174 2.5100555 12 0 0 0 80.789986
-20.275894 -27.349195 2.8137543 31 0 0 0 84.693604
-15.619861 -26.070433 2.5181131 43 0 0 0 83.137131
-16.737478 -19.409014 2.7472219 71 0 0 0 85.874466
-26.393066 -18.592918 2.6607144 16 0 0 0 89.793884
-16.691187 -16.695724 2.5316994 68 0 0 0 87.049538
-14.713749 -14.017085 2.6830461 33 0 0 0 87.448921
-0.12642652 -10.205382 2.7506685 1056.75 0 0 0 74.73098
0.37212986 -10.13147 2.7324095 1078 0 0 0 73.95034
0.8650763 -10.055506 2.7198572 1143 0 0 0 73.165131
1.2344629 -10.012716 2.8433802 1163 0 0 0 72.577858
1.395842 -9.9748516 2.6722481 1123 0 0 0 72.313499
1.8470732 -9.9212627 2.7188377 1174.75 0 0 0 71.603035
2.3383932 -9.8449688 2.7256043 1115.5 0 0 0 70.81723
2.8345463 -9.7711658 2.7396882 1082.5 0 0 0 70.034996
3.3386002 -9.6998444 2.7615156 1029.25 0 0 0 69.253357
3.8523929 -9.6267242 2.7903376 1018.25 0 0 0 68.470795
4.2443943 -9.5686741 2.8158455 987 0 0 0 67.880791
4.6048527 -9.5248146 2.8890676 1073.3334 0 0 0 67.366615
4.7781162 -9.4848547 2.7233856 1120 0 0 0 67.102608
5.2363243 -9.4125795 2.6724961 1025 0 0 0 66.443909
5.7610836 -9.3379564 2.6762085 1002.5 0 0 0 65.730621
6.301333 -9.2527533 2.6825058 920.33331 0 0 0 65.009453
6.7211189 -9.2044783 2.8228092 895.33331 0 0 0 64.491272
7.2527733 -9.1224613 2.7894316 876.66669 0 0 0 63.839321
7.8056226 -9.0327644 2.7578003 821 0 0 0 63.182846
8.1700811 -8.9970055 2.8062017 708 0 0 0 62.794231
8.7089119 -8.9062023 2.7224431 751 0 0 0 62.207489
9.2864046 -8.8223562 2.7973027 701.5 0 0 0 61.612568
9.6700039 -8.7458982 2.686162 791 0 0 0 61.22345
10.105563 -8.6972055 2.745357 644 0 0 0 60.83955
10.764469 -8.5911999 2.662621 578.5 0 0 0 60.243538
11.005479 -8.5658922 2.8686275 622 0 0 0 60.04948
11.507329 -8.509901 2.9422882 466 0 0 0 59.667721
11.454878 -8.4716234 2.5783772 523 0 0 0 59.667721
11.994746 -8.421957 2.6506584 414 0 0 0 59.273201
12.531529 -8.3458223 2.7213311 420 0 0 0 58.88065
13.096623 -8.2639961 2.7972524 420 0 0 0 58.493832
13.677746 -8.1668463 2.8757722 377 0 0 0 58.101048
14.310373 -8.0735302 2.7612066 357.5 0 0 0 57.712433
14.971828 -7.9673252 2.6377497 336 0 0 0 57.320541
15.71805 -7.8739223 2.7321603 325 0 0 0 56.92522
16.482727 -7.7552109 2.8289473 263 0 0 0 56.533638
17.343019 -7.6441045 2.9411335 256 0 0 0 56.137501
36.041515 -7.9965558 2.9638658 13 0 0 0 53.021648
18.195404 -7.4906435 2.5640574 159 0 0 0 55.7509
-14.604044 -6.9127107 2.5360336 187 0 0 0 92.501564
34.762501 -6.8204608 2.8439302 11 0 0 0 52.62904
33.414639 -4.8638468 2.7096612 11 0 0 0 51.846939
33.697052 -4.0612726 2.7221704 11 0 0 0 51.465088
34.005753 -3.2520556 2.7382941 10 0 0 0 51.070328
-5.1056209 5.3398018 2.6609342 329.66666 0 0 0 12.582757
-4.5561256 5.8576508 2.7951698 326.5 0 0 0 14.21609
-6.3778181 6.3909073 2.6931987 334 0 0 0 12.217826
-5.3388109 6.2195625 2.8870888 417 0 0 0 13.426775
-4.5760407 6.0331621 2.6679747 501 0 0 0 14.41625
-4.4481406 6.338562 2.9169464 371.5 0 0 0 14.996045
-3.6846943 6.3374429 2.7033298 377.66666 0 0 0 16.356857
-3.2269144 6.4182749 2.6203651 245 0 0 0 17.325134
6.371232 6.4737167 2.6495595 462.5 0 0 0 37.020206
-4.2904472 6.6178937 2.9709039 273 0 0 0 15.57631
-3.0337932 6.6325998 2.6605325 305.5 0 0 0 17.91486
-2.6778433 6.7976732 2.6481929 395.20001 0 0 0 18.770977
-2.3090103 6.7131 2.6776862 295 0 0 0 19.48027
-0.57296747 6.5911155 2.5005484 423 0 0 0 23.3729
0.2435068 6.7098794 2.539186 256 0 0 0 25.32196
4.9688435 6.8294072 2.9861586 246 0 0 0 34.667606
5.8743854 6.9245672 2.5372045 376 0 0 0 35.841759
6.1009188 6.6757236 2.6379278 386.25 0 0 0 36.43388
-3.6747775 7.3271828 2.7870371 221 0 0 0 17.325134
-2.9958198 7.0052085 2.8714983 222 0 0 0 18.30126
-0.85610771 7.1860595 2.6740167 314 0 0 0 22.844095
1.977715 7.4604502 2.5397706 302 0 0 0 28.827419
4.3947439 7.4858723 2.8548465 305 0 0 0 33.107029
5.1453943 7.2537374 2.8131008 232 0 0 0 34.472874
-7.1024489 7.7090783 2.6621666 179 0 0 0 12.84949
-2.5876055 7.546268 2.8129387 248 0 0 0 19.48027
-2.2839119 7.5548029 2.6878264 342 0 0 0 20.060024
-1.5951627 7.5618424 2.632607 251 0 0 0 21.425369
3.3077047 7.6686625 2.5405786 231 0 0 0 31.162029
4.3119783 7.7823734 2.8171837 376.5 0 0 0 32.721123
4.6529789 7.704587 2.5150213 270.5 0 0 0 33.304222
6.7551823 7.5694399 2.5783892 261 0 0 0 36.24012
-1.1145347 8.2827606 2.5386267 272 0 0 0 22.587709
2.6916878 8.4291697 2.6892498 286 0 0 0 29.59762
3.3474336 8.3050957 2.8314481 343 0 0 0 30.777201
3.7552147 8.3105431 2.7706983 334.33334 0 0 0 31.421469
4.308115 8.2372789 2.5960567 230 0 0 0 32.33522
5.2977719 8.2232466 2.8918588 247.33333 0 0 0 33.762924
20.198757 8.4709845 2.8296454 145 0 0 0 43.271778
1.4384034 8.8151274 2.9340219 301 0 0 0 27.27141
2.494082 8.5214109 2.9176419 276 0 0 0 29.20927
2.7497609 8.6004419 2.7452803 320.33334 0 0 0 29.599211
3.192193 8.7304125 2.7481537 328 0 0 0 30.257299
3.5263522 8.740963 2.6314299 376 0 0 0 30.777201
4.4688168 8.5430965 2.9284344 146 0 0 0 32.33522
4.8009558 8.6482344 2.7589502 223.33333 0 0 0 32.72406
19.495403 8.7468157 2.7610424 154 0 0 0 42.87888
2.1979575 9.1532507 2.858573 279 0 0 0 28.43071
5.3524346 9.0989647 2.6815739 158 0 0 0 33.107029
18.758812 9.2615757 2.7038307 180 0 0 0 42.296478
18.097383 9.7841015 2.658936 180 0 0 0 41.71114
-15.343886 10.137004 2.8605151 250 0 0 0 8.9565001
-14.67894 10.220622 2.7827199 232 0 0 0 9.3481798
-14.074224 10.31837 2.7154334 268 0 0 0 9.7391901
-12.900833 10.463016 2.7896433 251 0 0 0 10.51676
-12.31599 10.497198 2.9178069 266 0 0 0 10.90108
17.662718 10.118987 2.6310558 172 0 0 0 41.318619
-11.837255 10.598691 2.8650377 279 0 0 0 11.29166
-11.346029 10.66894 2.8085341 295 0 0 0 11.6839
14.062985 12.889273 2.9391029 241 0 0 0 37.803162
13.312355 13.464957 2.9181499 209 0 0 0 37.020206
13.68112 13.173463 2.9266148 220 0 0 0 37.416889
12.93962 13.748485 2.9101372 201 0 0 0 36.62764
3.0710149 16.036942 2.5263574 318 0 0 0 27.663389
-20.815451 -31.165968 3.0956793 29 0 0 0 83.9105
-21.122705 -30.004213 3.0307748 9 0 0 0 84.306351
-9.9774437 -30.223022 3.4140968 9 0 0 0 79.613403
-23.269115 -29.828125 3.1219339 10 0 0 0 85.087875
-11.536638 -29.925613 3.4389462 15 0 0 0 80.399162
-12.051044 -29.109833 3.3781788 13 0 0 0 80.789986
-14.52164 -28.863403 3.4616735 9 0 0 0 81.967796
-25.04464 -27.642052 3.0760744 13 0 0 0 86.271584
-15.587152 -26.01586 3.2493978 26 0 0 0 83.137131
-31.478168 -25.840878 3.3499684 14 0 0 0 88.609108
-23.678934 -22.551041 3.4927623 9 0 0 0 87.448921
-20.802032 -22.958822 3.3131204 19 0 0 0 86.271584
-33.119617 -20.977636 3.2219427 23 0 0 0 90.576279
-16.841608 -19.536663 3.3987389 39 0 0 0 85.874466
-23.931385 -17.753475 3.182667 32 0 0 0 89.396835
-16.620258 -16.630543 3.0994675 84 0 0 0 87.049538
-26.797735 -16.065769 3.3330717 46 0 0 0 90.962257
37.270042 -14.279835 3.2119052 27 0 0 0 55.370312
-14.663657 -13.969341 3.174958 51 0 0 0 87.448921
36.142658 -10.86895 3.0340645 15 0 0 0 54.196369
38.777248 -10.628203 3.2283399 31 0 0 0 53.804367
-0.16797058 -10.263639 3.3153236 777 0 0 0 74.795662
0.30021238 -10.183235 3.2234421 914 0 0 0 74.067657
0.87064314 -10.104375 3.2336087 937 0 0 0 73.165131
1.3228642 -10.043755 3.2714169 928 0 0 0 72.445679
-17.86504 -9.5558205 3.1719179 130 0 0 0 91.737724
1.484638 -9.9973421 3.0967782 1007 0 0 0 72.181313
1.8558586 -9.960969 3.2298636 953.5 0 0 0 71.603035
2.3499055 -9.887598 3.2390504 970.75 0 0 0 70.81723
2.850451 -9.8209085 3.2586222 911.5 0 0 0 70.034996
3.355206 -9.7431889 3.2826898 901 0 0 0 69.253357
3.8226864 -9.6626577 3.2664878 937 0 0 0 68.535027
4.1775985 -9.6260519 3.3843219 827 0 0 0 68.013237
4.6608019 -9.5353546 3.2468295 925 0 0 0 67.300613
5.2099109 -9.4524832 3.1675713 905 0 0 0 66.509125
5.7872615 -9.3772135 3.2322178 814.5 0 0 0 65.730621
6.2359419 -9.3180237 3.2871144 745.5 0 0 0 65.138435
6.6420636 -9.252614 3.2909594 790 0 0 0 64.621368
7.3232136 -9.1332731 3.1383009 826.5 0 0 0 63.773041
7.7240181 -9.085577 3.2454357 705.33331 0 0 0 63.313297
8.2003593 -9.0292082 3.4189682 633 0 0 0 62.794231
8.1678867 -8.9940767 3.1037714 555 0 0 0 62.794231
8.6821356 -8.9497776 3.2867572 672.33331 0 0 0 62.273746
9.3241568 -8.8558598 3.2811773 665 0 0 0 61.612568
9.7208061 -8.78794 3.1816723 593.5 0 0 0 61.22345
10.147938 -8.7298136 3.2487311 553 0 0 0 60.83955
10.601719 -8.6752577 3.3229771 503.5 0 0 0 60.437599
11.068096 -8.6109781 3.2276893 419 0 0 0 60.04948
11.54371 -8.5332031 3.3025725 446 0 0 0 59.667721
12.046243 -8.4558392 3.2045691 396 0 0 0 59.273201
12.592081 -8.3838654 3.2923789 353.5 0 0 0 58.88065
13.132957 -8.2864838 3.1871495 406 0 0 0 58.493832
13.748269 -8.2084932 3.2845588 364 0 0 0 58.101048
14.39819 -8.122427 3.389101 343 0 0 0 57.712433
15.030473 -7.9981108 3.0696082 320 0 0 0 57.320541
15.791968 -7.9105248 3.1822703 251 0 0 0 56.92522
16.577524 -7.7993789 3.2987401 221 0 0 0 56.533638
17.454227 -7.6926856 3.4321537 221 0 0 0 56.137501
18.259537 -7.5166521 3.0619087 118 0 0 0 55.7509
38.149403 -6.5146089 3.1022804 11 0 0 0 52.243687
43.705112 -0.94198841 3.4900687 27 0 0 0 49.89978
-5.7195458 5.6105466 3.0155475 287 0 0 0 12.06345
-5.4841065 5.9327674 3.041481 306 0 0 0 12.84949
6.3103681 6.4142947 3.2895684 184.5 0 0 0 37.020206
-5.729682 6.6813283 3.3138363 279.5 0 0 0 13.426775
-5.4479403 6.8437557 3.08076 422 0 0 0 14.01593
5.2987561 6.9154468 3.0793381 230 0 0 0 35.062481
5.5541496 6.8890162 3.1273196 144 0 0 0 35.459328
6.1016355 6.5165935 3.1548119 274 0 0 0 36.62764
-7.5599318 7.0864811 3.3948395 142 0 0 0 11.6839
-3.8134344 7.3808169 3.1294374 301 0 0 0 17.12895
4.3738985 7.2522736 3.0970542 265.75 0 0 0 33.304222
5.9768105 7.0468493 3.4905057 214 0 0 0 35.841759
6.8634968 7.3184562 3.2950201 167 0 0 0 36.62764
-4.2710524 7.8017707 3.349664 110 0 0 0 16.743521
3.3810649 7.8373914 3.016114 245 0 0 0 31.162029
4.1434383 7.701663 3.1978171 266.75 0 0 0 32.52964
5.0790677 7.7484393 3.4991615 293 0 0 0 33.893673
2.25736 8.4920521 3.3177037 163 0 0 0 28.827419
3.222616 8.194356 3.2541115 254 0 0 0 30.648325
4.1006155 8.3348198 3.2778018 217 0 0 0 31.948851
4.5365462 8.1747141 3.0720537 198 0 0 0 32.72406
5.3426857 8.3605709 3.2587192 255.5 0 0 0 33.697548
5.5874939 8.0731297 3.2248733 235 0 0 0 34.278141
20.175934 8.461009 3.3682597 133 0 0 0 43.271778
-4.2117853 8.6943779 3.1663899 243 0 0 0 17.52132
-3.0322123 8.8865776 3.079071 206 0 0 0 19.48027
-1.1427426 8.5017595 3.0261295 96 0 0 0 22.587709
1.6939075 8.9766588 3.0001609 205 0 0 0 27.663389
2.4998076 8.5497026 3.145154 256 0 0 0 29.20927
2.8306088 8.8568316 3.2819791 191 0 0 0 29.59762
3.0660553 8.8280125 3.0697448 339 0 0 0 29.99074
4.3408422 8.8201284 3.4692283 208 0 0 0 31.948851
19.469984 8.7349939 3.2859302 152 0 0 0 42.87888
-1.4602189 9.2004337 3.1696219 137 0 0 0 22.200371
4.349021 9.1105337 3.1897047 201 0 0 0 31.750019
18.537506 9.4391832 3.2035871 178 0 0 0 42.100559
19.003975 9.0945101 3.2443004 177 0 0 0 42.492393
-15.967322 9.9986515 3.394258 194 0 0 0 8.5651798
-1.7783228 9.6874256 3.3489351 204 0 0 0 21.807751
18.091852 9.7805853 3.167417 154 0 0 0 41.71114
-15.2831 10.097456 3.3007255 208 0 0 0 8.9565001
-14.636921 10.192043 3.214395 231 0 0 0 9.3481798
-14.015308 10.275791 3.1324418 258 0 0 0 9.7391901
-13.383431 10.324467 3.4611084 205 0 0 0 10.12587
-12.853983 10.42613 3.3892851 233 0 0 0 10.51676
-12.314347 10.496701 3.3138266 293 0 0 0 10.90108
17.236362 10.44619 3.1043158 200 0 0 0 40.924801
17.649342 10.110784 3.1327698 176 0 0 0 41.318619
-11.788571 10.55576 3.2409446 260 0 0 0 11.29166
-11.297314 10.623795 3.1764305 287 0 0 0 11.6839
-10.799504 10.663863 3.1088843 191 0 0 0 12.06345
14.834782 12.308479 3.4470708 184 0 0 0 38.586967
14.260637 12.749371 3.4211235 186.5 0 0 0 37.999584
13.316195 13.467799 3.3878736 224 0 0 0 37.020206
13.690547 13.181518 3.3991356 205 0 0 0 37.416889
12.946923 13.75514 3.3794022 183 0 0 0 36.62764
-1.2393178 15.239406 3.4977047 167 0 0 0 23.3729
-13.643575 -45.025803 3.8887715 16 0 0 0 79.222649
-12.26772 -44.382389 3.8075104 25 0 0 0 78.837723
-28.638821 -34.910431 3.7186184 19 0 0 0 85.485489
-52.173485 -33.032776 3.5175016 14 0 0 0 90.576279
-29.684919 -31.18992 3.5446115 14 0 0 0 86.663116
-11.065582 -30.946859 3.5237887 14 0 0 0 80.011261
-14.276919 -30.201851 3.5786228 7 0 0 0 81.572647
-32.914913 -28.401121 3.5746512 19 0 0 0 88.210732
-20.199984 -27.246767 3.6270552 32 0 0 0 84.693604
-15.548667 -25.961914 3.9864051 28 0 0 0 83.137131
-27.078812 -21.138308 3.6646457 12 0 0 0 89.001678
-28.833574 -18.263054 3.6384165 34 0 0 0 90.576279
-16.548187 -16.558397 3.6652639 67 0 0 0 87.049538
-14.60041 -13.909061 3.6603131 67 0 0 0 87.448921
35.536377 -13.61541 3.9887998 24 0 0 0 55.370312
34.004059 -11.144686 3.749573 10 0 0 0 54.588272
-0.24902856 -10.27696 3.7821217 64 0 0 0 74.925041
0.12906837 -10.258309 3.7749906 706.5 0 0 0 74.34108
0.62987214 -10.194859 3.7583916 702.75 0 0 0 73.55864
1.200604 -10.111356 3.7217305 688 0 0 0 72.654778
1.7466538 -10.040507 3.8119183 772.5 0 0 0 71.795502
33.889305 -10.191284 3.7069869 25 0 0 0 54.196369
-17.809748 -9.5262804 3.6619518 117 0 0 0 91.737724
1.9902239 -9.9832325 3.6196997 739 0 0 0 71.411446
2.3635662 -9.9309387 3.7549181 799.25 0 0 0 70.81723
2.8642893 -9.8567848 3.7750187 718.5 0 0 0 70.034996
3.3296757 -9.7894602 3.7597163 748.66669 0 0 0 69.319107
3.6719501 -9.7366076 3.8680325 723.66669 0 0 0 68.794365
4.1052985 -9.6666069 3.8171997 705 0 0 0 68.145668
4.6787357 -9.570467 3.6531079 704.5 0 0 0 67.300613
5.0961995 -9.5190992 3.7011833 742 0 0 0 66.704765
36.057579 -9.8827686 3.9128227 13 0 0 0 53.804367
5.3790102 -9.4794512 3.735198 741 0 0 0 66.313477
5.8135228 -9.4165144 3.7914772 628.5 0 0 0 65.730621
6.265336 -9.3588123 3.8569541 603 0 0 0 65.138435
6.7708116 -9.2696123 3.6939251 677.33331 0 0 0 64.491272
7.1978445 -9.2051477 3.7108066 631 0 0 0 63.971878
7.7037554 -9.1342621 3.7933946 609.5 0 0 0 63.378525
8.2199135 -9.0469856 3.7269828 656 0 0 0 62.794231
8.8434973 -8.9646463 3.7339077 580 0 0 0 62.141235
9.3811989 -8.9076042 3.7812819 534.5 0 0 0 61.612568
9.7681274 -8.829896 3.6855247 507 0 0 0 61.22345
10.194033 -8.768671 3.7622037 480 0 0 0 60.83955
10.645111 -8.7099981 3.8468509 463 0 0 0 60.437599
11.107727 -8.641077 3.7598751 397.5 0 0 0 60.04948
11.588198 -8.565587 3.6690736 389 0 0 0 59.667721
35.472561 -8.7906504 3.8239503 7 0 0 0 53.417953
12.108703 -8.4973898 3.7648127 338 0 0 0 59.273201
12.659338 -8.4263554 3.868593 339 0 0 0 58.88065
13.209108 -8.3306236 3.7795708 345.5 0 0 0 58.493832
13.808949 -8.241003 3.6923094 268 0 0 0 58.101048
14.452339 -8.1492262 3.807636 267 0 0 0 57.712433
15.129581 -8.0485134 3.721169 269.5 0 0 0 57.320541
15.835633 -7.9319968 3.6269393 299 0 0 0 56.92522
16.606613 -7.8126817 3.7562242 242 0 0 0 56.533638
17.475163 -7.7015386 3.9063056 214 0 0 0 56.137501
18.324383 -7.5429506 3.5634151 82 0 0 0 55.7509
35.861217 -7.9561758 3.8418558 12 0 0 0 53.021648
35.155529 -6.8971715 3.7463133 20 0 0 0 52.62904
37.109013 -4.4720922 3.9026999 8 0 0 0 51.465088
37.591698 -3.5947182 3.9411821 16 0 0 0 51.070328
-7.5188456 7.0433064 3.6262224 308 0 0 0 11.6839
5.8710213 7.2775302 3.5316689 187 0 0 0 35.459328
6.0740557 7.9160299 3.7661421 218 0 0 0 35.062481
20.133327 8.4427633 3.9019225 112 0 0 0 43.271778
21.528358 8.4102182 3.5566585 36 0 0 0 43.663448
5.7599435 8.776494 3.7030876 183 0 0 0 33.893673
6.0338187 8.717205 3.7394812 184 0 0 0 34.278141
19.477436 8.7378788 3.8158836 131 0 0 0 42.87888
4.3699231 9.4526768 3.6730807 142 0 0 0 31.551189
18.756481 9.2595587 3.7396317 163.5 0 0 0 42.296478
-16.607002 9.844039 3.9506257 145 0 0 0 8.1695604
-15.898211 9.9559517 3.8392131 173 0 0 0 8.5651798
4.1538892 9.5969086 3.9441741 246 0 0 0 31.162029
18.093136 9.7807465 3.6770189 156 0 0 0 41.71114
-15.18601 10.033789 3.7257519 195 0 0 0 8.9565001
-14.534384 10.121088 3.6258473 130 0 0 0 9.3481798
-13.956429 10.233228 3.543298 207 0 0 0 9.7391901
3.9204097 10.425022 3.7899654 167.5 0 0 0 30.390579
17.229792 10.441624 3.6020896 184 0 0 0 40.924801
17.653122 10.11238 3.6372778 170 0 0 0 41.318619
16.827631 10.773194 3.5725086 153 0 0 0 40.535278
16.218803 11.247488 3.7713904 168.5 0 0 0 39.946541
15.621299 11.711312 3.9717321 184 0 0 0 39.370602
14.845569 12.316567 3.924248 196 0 0 0 38.586967
15.22854 12.013785 3.9459915 175 0 0 0 38.972019
14.260015 12.747722 3.8916628 202.5 0 0 0 37.999584
13.332774 13.483478 3.8586102 183 0 0 0 37.020206
13.694557 13.184384 3.8678758 193 0 0 0 37.416889
-1.6088556 15.173921 3.864737 160 0 0 0 22.97229
-1.2381077 15.235367 3.8713484 117 0 0 0 23.3729
-43.255459 -55.433041 4.0224433 15 0 0 0 85.087875
-10.717486 -47.801498 4.0501127 18 0 0 0 78.051605
-22.52541 -31.9972 4.1801767 38 0 0 0 84.306351
-21.328428 -31.934246 4.103807 30 0 0 0 83.9105
-10.271852 -31.134409 4.32196 9 0 0 0 79.613403
-28.708351 -30.163706 4.4405026 14 0 0 0 86.663116
-24.57966 -29.961643 4.1375856 16 0 0 0 85.485489
-15.570273 -29.155907 4.3524446 11 0 0 0 82.352737
-13.612501 -28.808712 4.198245 10 0 0 0 81.572647
-29.904531 -25.803457 4.2101727 21 0 0 0 88.210732
-30.338196 -24.905016 4.1832066 13 0 0 0 88.609108
-20.818436 -22.984959 4.0787745 29 0 0 0 86.271584
-26.360697 -18.576998 4.2338753 36 0 0 0 89.793884
-27.664127 -16.591736 4.2331958 27 0 0 0 90.962257
-16.455881 -16.465996 4.2210221 66 0 0 0 87.049538
-14.491471 -13.805249 4.1254635 95 0 0 0 87.448921
-17.796228 -9.5190802 4.155571 83 0 0 0 91.737724
4.2899618 -9.6584883 4.0132327 682 0 0 0 67.880791
4.6987619 -9.6061373 4.0600338 659 0 0 0 67.300613
5.2578068 -9.5306435 4.1309319 581 0 0 0 66.509125
5.8418088 -9.4571829 4.2169256 497 0 0 0 65.730621
6.2884035 -9.38871 4.2850704 590 0 0 0 65.138435
6.7507415 -9.3148928 4.2204685 530.5 0 0 0 64.55632
7.2414489 -9.2546253 4.3091431 496.5 0 0 0 63.971878
7.7309055 -9.1608152 4.2473669 540.5 0 0 0 63.378525
8.2723351 -9.1037235 4.2057562 499 0 0 0 62.794231
8.6449766 -9.0556259 4.2792315 468.5 0 0 0 62.406261
9.0283432 -9.0061216 4.2010269 424 0 0 0 62.00872
9.4137516 -8.9392576 4.2753792 442 0 0 0 61.612568
9.8205967 -8.8749352 4.1944919 478.5 0 0 0 61.22345
10.250242 -8.8146477 4.2823944 414.5 0 0 0 60.83955
10.685371 -8.739295 4.2002521 383 0 0 0 60.437599
11.1675 -8.6836758 4.3028374 327 0 0 0 60.04948
11.639196 -8.6009769 4.2225838 362.5 0 0 0 59.667721
12.153889 -8.5286055 4.1476765 304 0 0 0 59.273201
12.699965 -8.4529285 4.2599912 266 0 0 0 58.88065
13.264969 -8.3651857 4.3773551 221 0 0 0 58.493832
13.835726 -8.2565699 4.0951343 314 0 0 0 58.101048
14.504076 -8.1779747 4.2301044 233 0 0 0 57.712433
15.204877 -8.0862474 4.3731165 179 0 0 0 57.320541
15.89197 -7.956336 4.0745716 233 0 0 0 56.92522
16.74719 -7.8747797 4.2405424 155 0 0 0 56.533638
17.565678 -7.7373476 4.3960323 192 0 0 0 56.137501
18.36149 -7.557847 4.0593176 54 0 0 0 55.7509
38.221405 -6.526556 4.050313 23 0 0 0 52.243687
38.659706 -2.7392445 4.0425267 6 0 0 0 50.674049
20.100922 8.4287863 4.4322233 106 0 0 0 43.271778
21.357811 8.3433418 4.0966339 61 0 0 0 43.663448
6.1704907 8.6829586 4.0184464 164 0 0 0 34.472874
19.462591 8.730792 4.3380713 127 0 0 0 42.87888
18.759108 9.2601929 4.2551227 129.5 0 0 0 42.296478
4.5182915 9.7681522 4.0585294 84 0 0 0 31.551189
18.117353 9.7932692 4.188818 125 0 0 0 41.71114
-16.393335 10.264369 4.4296765 36 0 0 0 8.5651798
-15.731742 10.393103 4.3186231 100 0 0 0 8.9565001
-15.025983 10.462196 4.1941624 166 0 0 0 9.3481798
17.248293 10.452209 4.102325 152 0 0 0 40.924801
17.6728 10.123057 4.1425967 137 0 0 0 41.318619
-14.416782 10.56964 4.095283 146 0 0 0 9.7391901
-13.870077 10.699074 4.0132909 63 0 0 0 10.12587
16.819241 10.767215 4.0622802 162 0 0 0 40.535278
16.211849 11.244221 4.2544775 169.5 0 0 0 39.946541
15.621201 11.714758 4.4502134 161 0 0 0 39.370602
14.840246 12.31571 4.3954763 171 0 0 0 38.586967
15.223518 12.013364 4.4199557 157 0 0 0 38.972019
14.277495 12.767042 4.3658447 165 0 0 0 37.999584
13.326055 13.480391 4.3212724 161 0 0 0 37.020206
13.703774 13.19685 4.3367314 168 0 0 0 37.416889
-13.213424 13.718319 4.3621926 93 0 0 0 12.44939
3.8807032 14.431569 4.1543226 234 0 0 0 28.827419
4.2709217 14.454411 4.1896119 316 0 0 0 29.20927
4.7194986 15.954494 4.2087913 178 0 0 0 29.20927
-27.201801 -34.870262 4.7179942 12 0 0 0 85.087875
-15.672402 -31.165527 4.5924811 18 0 0 0 81.967796
-22.194094 -29.948065 4.8992982 9 0 0 0 84.693604
-31.510691 -28.56847 4.5320044 9 0 0 0 87.825745
-28.185337 -25.562397 4.9935617 19 0 0 0 87.825745
-28.513737 -24.612009 4.9427066 10 0 0 0 88.210732
-14.849236 -24.793629 4.5235605 19 0 0 0 83.137131
-20.778336 -22.940651 4.8367805 29 0 0 0 86.271584
-28.41004 -21.083601 4.6422124 16 0 0 0 89.396835
-16.293629 -19.86668 4.6576962 30 0 0 0 85.485489
-25.727356 -19.092747 4.9997606 22 0 0 0 89.396835
-26.836435 -16.095385 4.8818321 36 0 0 0 90.962257
-16.384514 -16.39455 4.7729445 64 0 0 0 87.049538
-14.481509 -13.800556 4.6127467 89 0 0 0 87.448921
35.293438 -13.514691 4.89114 16 0 0 0 55.370312
34.953865 -12.408133 4.7993116 9 0 0 0 54.971832
36.541237 -10.980699 4.9327426 10 0 0 0 54.196369
-17.756327 -9.5017519 4.6394525 104 0 0 0 91.737724
35.287388 -9.6647091 4.7298212 23 0 0 0 53.804367
7.7694082 -9.2055759 4.5633793 456 0 0 0 63.378525
8.3027534 -9.1331224 4.6737814 434 0 0 0 62.794231
8.6818342 -9.090188 4.7584972 369 0 0 0 62.406261
9.0555878 -9.0261784 4.6825709 430.5 0 0 0 62.00872
9.4594936 -8.9755764 4.7742038 383 0 0 0 61.612568
9.8571539 -8.9024858 4.6986055 398 0 0 0 61.22345
10.286223 -8.8401327 4.7965178 330 0 0 0 60.83955
10.744226 -8.7866259 4.7370291 320 0 0 0 60.437599
11.186564 -8.7011499 4.6613665 316 0 0 0 60.04948
11.712041 -8.6556139 4.7883739 259 0 0 0 59.667721
12.19981 -8.5585403 4.7141013 219 0 0 0 59.273201
12.756452 -8.4868259 4.6551766 219 0 0 0 58.88065
13.304566 -8.3864641 4.7767096 276 0 0 0 58.493832
13.915096 -8.3016109 4.7206631 198 0 0 0 58.101048
14.546451 -8.2014475 4.6573343 252 0 0 0 57.712433
15.258368 -8.1142721 4.8178291 185 0 0 0 57.320541
15.974797 -7.9973683 4.5344052 189 0 0 0 56.92522
16.779934 -7.8897877 4.7041874 168 0 0 0 56.533638
17.667208 -7.781641 4.8953838 180 0 0 0 56.137501
18.480974 -7.6028304 4.574512 26 0 0 0 55.7509
35.258549 -6.9106174 4.6409369 13 0 0 0 52.62904
36.022404 -5.236258 4.698494 13 0 0 0 51.846939
36.351772 -4.3741846 4.724401 9 0 0 0 51.465088
37.556004 -3.584482 4.8654861 18 0 0 0 51.070328
43.959221 -0.94740283 4.5785975 8 0 0 0 49.89978
20.094528 8.4298182 4.9646888 130 0 0 0 43.271778
21.242842 8.29813 4.6361313 79 0 0 0 43.663448
19.474363 8.7396994 4.8636446 133 0 0 0 42.87888
18.76709 9.2679472 4.7698126 116 0 0 0 42.296478
-19.945692 9.9296856 4.5576034 55 0 0 0 7.0009499
18.117182 9.7967358 4.6934433 179 0 0 0 41.71114
17.232311 10.446075 4.5923486 146 0 0 0 40.924801
17.673567 10.127033 4.6418934 132 0 0 0 41.318619
16.828943 10.776921 4.5542998 132 0 0 0 40.535278
16.278992 11.193432 4.8257546 127.66666 0 0 0 40.011089
15.622192 11.714759 4.9299474 134 0 0 0 39.370602
14.842292 12.316576 4.8696103 136 0 0 0 38.586967
15.231203 12.018624 4.898541 173 0 0 0 38.972019
14.266731 12.756435 4.8324442 160 0 0 0 37.999584
-16.253851 13.196649 4.7945986 66 0 0 0 10.51676
-15.607368 13.317467 4.6986537 122 0 0 0 10.90108
-14.985166 13.432961 4.6089158 153 0 0 0 11.29166
-14.304986 13.468814 4.9805851 155 0 0 0 11.6839
13.331388 13.484746 4.7884588 162 0 0 0 37.020206
13.710334 13.202164 4.8060298 149 0 0 0 37.416889
-14.352668 13.512715 4.5146894 158 0 0 0 11.6839
-13.780167 13.625387 4.9123716 143 0 0 0 12.06345
3.0900431 14.249356 4.7724171 209 0 0 0 28.043779
3.8656604 14.383335 4.5063305 267 0 0 0 28.827419
-22.115864 -31.42696 5.0506978 12 0 0 0 84.306351
-16.377644 -30.668522 5.43681 21 0 0 0 82.352737
-12.264944 -29.642012 5.0215845 12 0 0 0 80.789986
-24.15896 -29.459192 5.0049782 10 0 0 0 85.485489
-16.379608 -28.938965 5.2006555 18 0 0 0 82.743591
-18.7509 -28.084642 5.2786317 28 0 0 0 83.9105
-17.939144 -28.351799 5.2454238 15 0 0 0 83.531082
-26.366262 -27.712294 5.0222631 16 0 0 0 86.663116
-19.51593 -27.731556 5.2998185 13 0 0 0 84.306351
-20.361343 -27.474463 5.3435669 21 0 0 0 84.693604
-14.826282 -26.193537 5.4553399 21 0 0 0 82.743591
-29.734522 -24.418104 5.047287 15 0 0 0 88.609108
-19.484529 -22.603104 5.403769 6 0 0 0 85.874466
-17.63718 -22.615402 5.1958704 11 0 0 0 85.087875
-16.865294 -22.75598 5.1325474 19 0 0 0 84.693604
-19.831253 -21.894823 5.3488822 28 0 0 0 86.271584
-25.713715 -20.079872 5.0914617 43 0 0 0 89.001678
-28.81975 -16.336563 5.1654878 17 0 0 0 91.350655
-16.375368 -16.391092 5.338048 50 0 0 0 87.049538
-26.040934 -14.761561 5.4115314 23 0 0 0 91.350655
-14.455451 -13.775704 5.094595 51 0 0 0 87.448921
-26.403105 -13.299033 5.3439689 23 0 0 0 92.114418
-14.842916 -13.465623 5.1126027 43 0 0 0 87.825745
38.503994 -12.610365 5.2375889 19 0 0 0 54.588272
-26.11285 -12.358822 5.2225347 18 0 0 0 92.501564
40.186699 -9.9501629 5.3457484 9 0 0 0 53.417953
-17.677839 -9.4597874 5.1112094 96 0 0 0 91.737724
9.8802261 -8.9227934 5.0357022 347 0 0 0 61.22345
10.348642 -8.8931789 5.1597133 287 0 0 0 60.83955
10.787336 -8.8179789 5.2671537 305 0 0 0 60.437599
11.26089 -8.7518587 5.2157893 230 0 0 0 60.04948
11.723967 -8.6576519 5.1493602 221 0 0 0 59.667721
12.262371 -8.5969124 5.2895379 217 0 0 0 59.273201
12.816008 -8.5257416 5.2467051 219 0 0 0 58.88065
13.418726 -8.4611521 5.2104325 244 0 0 0 58.493832
14.000605 -8.3536043 5.3531256 180 0 0 0 58.101048
14.599723 -8.2276964 5.0860491 210 0 0 0 57.712433
15.338573 -8.1530466 5.2698245 195 0 0 0 57.320541
16.080988 -8.0481272 5.2325029 172 0 0 0 56.92522
16.858 -7.926065 5.1888137 162 0 0 0 56.533638
17.777185 -7.8296394 5.4083304 127 0 0 0 56.137501
18.527512 -7.6215882 5.0779901 15 0 0 0 55.7509
-15.935321 -7.076211 5.3100381 27 0 0 0 92.905991
38.341125 -6.539753 5.0195618 23 0 0 0 52.243687
20.076685 8.4219284 5.4949985 80 0 0 0 43.271778
21.095398 8.2445164 5.1590648 62 0 0 0 43.663448
19.481993 8.7426691 5.3899565 123 0 0 0 42.87888
18.774986 9.2712021 5.2860651 119.5 0 0 0 42.296478
18.107763 9.7911272 5.1965566 112 0 0 0 41.71114
17.256025 10.459814 5.0941381 90 0 0 0 40.924801
17.682232 10.131424 5.1446085 113 0 0 0 41.318619
16.8204 10.770842 5.0424805 116 0 0 0 40.535278
16.221901 11.251329 5.4750991 118 0 0 0 39.946541
15.609877 11.704807 5.4107575 153 0 0 0 39.370602
-23.42292 12.393222 5.4185095 92 0 0 0 7.4010501
-22.095264 12.39086 5.1802726 85 0 0 0 7.78474
14.842042 12.315529 5.3485713 133 0 0 0 38.586967
15.225813 12.013595 5.3785801 130 0 0 0 38.972019
14.280795 12.768244 5.3130159 130 0 0 0 37.999584
-16.188778 13.144687 5.285778 52 0 0 0 10.51676
-15.542418 13.262928 5.1791725 100 0 0 0 10.90108
-14.924636 13.379614 5.0808768 117 0 0 0 11.29166
-14.275852 13.442476 5.4560552 114 0 0 0 11.6839
13.693231 13.18477 5.2721815 179 0 0 0 37.416889
2.7060845 14.174603 5.0769248 213 0 0 0 27.663389
3.2034667 14.223939 5.2482028 199.66667 0 0 0 28.172754
3.8478863 14.322026 5.2168756 215 0 0 0 28.827419
5.0503225 14.445745 5.3825464 170 0 0 0 29.99074
11.870762 14.639112 5.228878 123 0 0 0 35.459328
-14.417543 -52.16777 5.7841926 9 0 0 0 78.837723
-15.574394 -51.403393 5.7394891 15 0 0 0 79.222649
-23.819887 -35.679077 5.6354299 10 0 0 0 83.9105
-27.099598 -34.751705 5.7850919 16 0 0 0 85.087875
-24.000256 -29.26561 5.9088483 11 0 0 0 85.485489
-22.865129 -29.320656 5.8063116 24 0 0 0 85.087875
-25.189474 -26.475266 5.703826 22 0 0 0 86.663116
-27.381639 -24.833422 5.7668004 7 0 0 0 87.825745
-27.999352 -24.167961 5.7693543 6 0 0 0 88.210732
-16.264133 -23.109629 5.8165903 23 0 0 0 84.306351
-14.628113 -23.117216 5.63308 20 0 0 0 83.531082
-27.67988 -22.73077 5.5870967 16 0 0 0 88.609108
-12.90903 -21.561346 5.7927866 20 0 0 0 83.137131
-12.414799 -21.940283 5.8114219 23 0 0 0 82.743591
-17.072384 -20.81642 5.5410328 21 0 0 0 85.485489
-15.118253 -20.405493 5.8513627 30 0 0 0 84.693604
-13.05488 -19.558176 5.9986439 31 0 0 0 83.9105
-21.123419 -19.157257 5.8635435 12 0 0 0 87.825745
-21.166674 -18.269989 5.7493415 37 0 0 0 88.210732
-21.81003 -17.910294 5.8019915 29 0 0 0 88.609108
-23.240746 -17.247393 5.9479423 28 0 0 0 89.396835
-16.272352 -16.287943 5.869813 16 0 0 0 87.049538
-26.476181 -15.879363 5.5808249 26 0 0 0 90.962257
-14.34705 -13.672367 5.5487981 57 0 0 0 87.448921
-19.425869 -12.99328 5.9540105 84 0 0 0 90.182922
-24.753525 -12.468317 5.6940217 32 0 0 0 92.114418
35.408905 -11.596797 5.7416615 15 0 0 0 54.588272
-22.392052 -10.602992 5.6993012 55 0 0 0 92.501564
35.116936 -10.552463 5.6494865 17 0 0 0 54.196369
-20.347271 -9.0304298 5.6703835 24 0 0 0 92.905991
-18.249599 -9.1968794 5.716289 68 0 0 0 92.114418
-17.605732 -9.4212389 5.5864043 98 0 0 0 91.737724
-13.994237 -9.360487 5.5465379 73 0 0 0 90.182922
-19.567921 -8.6846781 5.9861879 18 0 0 0 92.905991
-17.447048 -8.7963657 5.9472165 56 0 0 0 92.114418
-14.160164 -8.9765196 5.5231676 71 0 0 0 90.576279
11.787556 -8.704073 5.5361261 208 0 0 0 59.667721
12.338329 -8.6496277 5.6912904 166 0 0 0 59.273201
12.876974 -8.5623627 5.8390489 150 0 0 0 58.88065
-19.469692 -8.0750875 5.8939548 28 0 0 0 93.292076
-17.310612 -8.2011166 5.8306985 42 0 0 0 92.501564
-15.342978 -8.2106514 5.7307649 79 0 0 0 91.737724
13.423686 -8.4573278 5.600265 190 0 0 0 58.493832
14.042493 -8.3715181 5.768815 167 0 0 0 58.101048
14.709257 -8.2887392 5.7491574 148.5 0 0 0 57.712433
15.397231 -8.1872444 5.7218385 165 0 0 0 57.320541
16.176231 -8.0969248 5.9332652 161 0 0 0 56.92522
-15.46582 -7.7943354 5.7033911 67 0 0 0 92.114418
16.953856 -7.9670806 5.6784835 178 0 0 0 56.533638
17.850918 -7.8579812 5.9099679 138 0 0 0 56.137501
-16.483299 -7.3160791 5.9371247 49 0 0 0 92.905991
-15.703767 -7.4367218 5.7217693 71 0 0 0 92.501564
35.962116 -7.0480633 5.6399751 15 0 0 0 52.62904
-16.906183 -6.5307107 5.966125 29 0 0 0 93.685432
-15.763099 -6.5382929 5.6197562 79 0 0 0 93.292076
37.311428 -5.4232492 5.7986674 19 0 0 0 51.846939
20.97805 8.1983652 5.6837115 74 0 0 0 43.663448
19.464571 8.7344217 5.9152522 107 0 0 0 42.87888
18.774818 9.2707291 5.8063121 111.5 0 0 0 42.296478
18.111277 9.7924871 5.7090964 114 0 0 0 41.71114
17.253366 10.457609 5.5945935 112 0 0 0 40.924801
17.678448 10.128696 5.6497107 96 0 0 0 41.318619
16.84243 10.784271 5.5458784 103 0 0 0 40.535278
16.224342 11.256611 5.9622064 109.5 0 0 0 39.946541
15.630685 11.723875 5.8990541 136 0 0 0 39.370602
-22.04888 12.36067 5.7856936 65 0 0 0 7.78474
14.844622 12.321202 5.8245816 119 0 0 0 38.586967
15.238486 12.027087 5.8610773 128 0 0 0 38.972019
-21.12879 12.532989 5.6234694 79 0 0 0 8.1695604
-18.578333 12.949361 5.7392821 47 0 0 0 9.3481798
14.273964 12.765438 5.7820811 125.5 0 0 0 37.999584
-16.926912 13.072283 5.9502969 62 0 0 0 10.12587
-16.120703 13.090281 5.7777982 56 0 0 0 10.51676
-15.49009 13.21922 5.6660309 77 0 0 0 10.90108
-14.879458 13.340107 5.5603909 114 0 0 0 11.29166
-14.226218 13.392035 5.9152145 76 0 0 0 11.6839
13.711282 13.205709 5.7479253 110 0 0 0 37.416889
3.450181 14.228146 5.5087996 176 0 0 0 28.43071
4.2255259 14.31011 5.6139655 151 0 0 0 29.20927
4.6397924 14.397608 5.6910777 167 0 0 0 29.59762
5.0359063 14.40266 5.7401476 170 0 0 0 29.99074
12.215247 14.33291 5.68753 120 0 0 0 35.841759
11.854169 14.622726 5.6853728 114 0 0 0 35.459328
-41.349934 -65.338028 6.3522544 9 0 0 0 83.531082
-9.4789591 -47.785767 6.4101048 19 0 0 0 77.659393
-8.2464199 -47.681587 6.3670697 15 0 0 0 77.270073
-13.916363 -45.957218 6.3155899 23 0 0 0 79.222649
-25.311998 -29.364552 6.0507889 10 0 0 0 85.874466
-18.512909 -29.25893 6.2691665 14 0 0 0 83.531082
-20.405138 -28.995428 6.4174089 20 0 0 0 84.306351
-19.238665 -28.815434 6.2726812 11 0 0 0 83.9105
-17.074305 -28.510437 6.0192213 18 0 0 0 83.137131
-16.194927 -27.041561 6.4862628 29 0 0 0 83.137131
-14.467173 -27.089628 6.3218608 11 0 0 0 82.352737
-14.854741 -26.2439 6.2076612 45 0 0 0 82.743591
-24.677015 -25.936556 6.4745278 25 0 0 0 86.663116
-19.099642 -24.4911 6.3881454 32 0 0 0 85.087875
-17.860519 -24.099184 6.1714878 16 0 0 0 84.693604
-15.009037 -23.72863 6.4677095 29 0 0 0 83.531082
-26.293093 -22.695103 6.2794452 20 0 0 0 88.210732
-20.814301 -22.980307 6.375186 17 0 0 0 86.271584
-16.051167 -22.815382 6.4249358 34 0 0 0 84.306351
-15.125488 -22.66157 6.2765379 22 0 0 0 83.9105
-26.855104 -22.053425 6.2816687 13 0 0 0 88.609108
-27.272671 -21.297256 6.2545362 16 0 0 0 89.001678
-11.891685 -21.015352 6.1605644 41 0 0 0 82.743591
-14.459919 -20.552834 6.4078956 17 0 0 0 84.306351
-27.607712 -20.488171 6.2136149 31 0 0 0 89.396835
-15.037308 -20.296196 6.4403 24 0 0 0 84.693604
-12.809206 -20.249441 6.1122999 30 0 0 0 83.531082
-12.092842 -20.19747 6.0062852 53 0 0 0 83.137131
-17.010485 -19.739471 6.0012665 38 0 0 0 85.874466
-11.746355 -19.618498 6.4029951 18 0 0 0 83.137131
-12.779402 -19.145302 6.4444356 32 0 0 0 83.9105
-12.179023 -19.252771 6.3788819 40 0 0 0 83.531082
-20.352114 -18.464142 6.3239751 54 0 0 0 87.825745
-20.893087 -17.163368 6.2218962 7 0 0 0 88.609108
-19.126211 -16.514463 6.4376616 22 0 0 0 88.210732
-15.756902 -16.565807 6.3973713 35 0 0 0 86.663116
-25.195475 -15.111333 6.0352321 42 0 0 0 90.962257
-22.416981 -14.993801 6.2037468 45 0 0 0 90.182922
-25.575684 -14.497889 6.0386682 34 0 0 0 91.350655
37.850437 -14.492414 6.2461414 21 0 0 0 55.370312
-14.301027 -13.633246 6.0177832 15 0 0 0 87.448921
-23.677704 -13.427593 6.2596827 43 0 0 0 91.350655
-26.427282 -12.507676 6.0042696 27 0 0 0 92.501564
-24.810099 -12.502282 6.3873458 26 0 0 0 92.114418
-24.870306 -11.037284 6.2555099 12 0 0 0 92.905991
-22.23303 -10.527761 6.2629437 53 0 0 0 92.501564
-13.994637 -9.8735466 6.0618978 30 0 0 0 89.793884
-17.493593 -9.3651953 6.0394101 47 0 0 0 91.737724
-14.834581 -8.9084091 6.1233225 43 0 0 0 90.962257
13.483591 -8.4945936 6.0155931 170 0 0 0 58.493832
14.128225 -8.4221439 6.2068472 162 0 0 0 58.101048
14.809024 -8.3408937 6.4117708 103 0 0 0 57.712433
15.433563 -8.1992493 6.1627483 127 0 0 0 57.320541
16.266068 -8.1343479 6.4109325 139 0 0 0 56.92522
-18.688065 -7.7548757 6.1565557 50 0 0 0 93.292076
16.988171 -7.9864321 6.1548653 148 0 0 0 56.533638
