# .PCD v0.7 - Point Cloud Data file format
VERSION 0.7
FIELDS x y z intensity normal_x normal_y normal_z curvature
SIZE 4 4 4 4 4 4 4 4
TYPE F F F F F F F F
COUNT 1 1 1 1 1 1 1 1
WIDTH 969
HEIGHT 1
VIEWPOINT 0 0 0 1 0 0 0
POINTS 969
DATA ascii
43.491474 -21.050882 4.0358748 5 0 0 0 56.609558
12.310467 -20.904352 4.4265838 89 0 0 0 66.008301
8.1256304 -20.03743 4.4774666 44 0 0 0 68.350594
18.486576 -19.740696 4.2666278 52 0 0 0 62.482712
-7.3833694 -17.615181 4.4050217 52 0 0 0 80.869194
7.601459 -17.503704 4.4236751 78 0 0 0 67.967216
4.9237332 -16.665924 4.0283103 114 0 0 0 69.92131
6.294241 -16.687874 4.1354346 97 0 0 0 68.737114
6.8637414 -16.929766 4.2356148 36 0 0 0 68.350594
5.6730528 -16.236116 4.1976423 161.5 0 0 0 69.136108
4.5952625 -15.562006 4.162076 161 0 0 0 69.92131
5.0953937 -15.818484 4.2626286 207 0 0 0 69.52536
3.3149002 -15.274289 4.0082641 37 0 0 0 71.095749
3.674727 -15.13838 4.1883764 130 0 0 0 70.704956
4.1134062 -15.301256 4.2613945 147.5 0 0 0 70.313362
-11.55498 -14.714669 4.3105154 38 0 0 0 85.165924
-10.825488 -14.500957 4.1705499 30 0 0 0 84.765572
2.7927678 -14.588422 4.1790428 243 0 0 0 71.482964
3.2158372 -14.823601 4.2677765 177 0 0 0 71.095749
-11.666695 -14.131701 4.2223611 50 0 0 0 85.558228
1.9986126 -14.16176 4.0237055 193 0 0 0 72.268951
2.1957254 -14.276458 4.240324 229.5 0 0 0 72.072357
1.2647868 -13.797614 4.2383876 194 0 0 0 73.037926
1.6267275 -13.975633 4.3042283 310 0 0 0 72.649323
37.79097 -13.92049 4.3479285 17 0 0 0 55.062553
-0.086717397 -13.10534 4.3322625 333 0 0 0 74.607903
0.2373549 -13.235649 4.2125559 200 0 0 0 74.213699
0.56935161 -13.423754 4.2759418 297.5 0 0 0 73.822723
-1.0098954 -12.603488 4.1789474 414 0 0 0 75.781822
-0.7088359 -12.755656 4.2226539 225 0 0 0 75.396675
-0.4018259 -12.930926 4.2763572 301 0 0 0 75.007042
-2.1558216 -12.003676 4.0298495 443 0 0 0 77.346611
-1.734395 -12.219772 4.0789537 307 0 0 0 76.764694
-1.3039064 -12.44428 4.1352577 253 0 0 0 76.172127
-8.8284397 -10.692888 4.2269635 129 0 0 0 85.558228
-8.8778667 -10.230835 4.2982135 80 0 0 0 85.955276
-11.929778 -9.2711554 4.2306871 67 0 0 0 89.072083
-10.99861 -9.4470758 4.4173436 113 0 0 0 88.298225
-9.8870726 -9.3651714 4.4874835 92 0 0 0 87.5196
-9.2160625 -9.1681786 4.1223221 112 0 0 0 87.134193
-8.7276363 -9.3407364 4.2147722 143.5 0 0 0 86.546684
-8.3665161 -9.1821718 4.400291 128 0 0 0 86.351402
29.23839 -9.1696072 4.0710731 36 0 0 0 54.283501
-12.171141 -8.9906111 4.2370453 47 0 0 0 89.47506
-11.006731 -8.9961214 4.3314886 80 0 0 0 88.681007
-9.7175541 -8.7657204 4.1489921 153.5 0 0 0 87.906242
-8.5940819 -8.9812708 4.4031239 145 0 0 0 86.741966
-13.256682 -8.365345 4.3882747 77 0 0 0 90.650108
-10.832438 -8.2114582 4.143363 150.5 0 0 0 89.273575
-10.355563 -8.0464973 4.3221478 107 0 0 0 89.072083
-9.6174564 -8.2594166 4.3333273 112 0 0 0 88.298225
-9.6946058 -7.9252281 4.4347467 201 0 0 0 88.681007
29.240425 -7.6197891 4.0142369 84 0 0 0 53.498329
-12.531096 -7.4883003 4.4473686 100 0 0 0 91.047081
-10.598959 -7.4348793 4.2672715 170 0 0 0 89.863609
-14.27477 -6.7329445 4.2199063 77 0 0 0 92.587669
-13.025969 -6.9438691 4.4969196 124 0 0 0 91.806923
-11.752199 -6.6369591 4.2799878 147.5 0 0 0 91.429482
29.765226 -6.982585 4.0606484 72 0 0 0 53.10738
-16.489286 -6.3465061 4.071465 71 0 0 0 93.762764
-13.57303 -6.0007625 4.1567111 178 0 0 0 92.979698
30.308187 -6.3309317 4.1113124 65 0 0 0 52.70842
-14.323465 -5.9184632 4.3397679 80 0 0 0 93.372246
30.854458 -5.6599646 4.1642871 37 0 0 0 52.321632
30.677788 -4.854166 4.122961 24 0 0 0 51.938648
30.382053 -4.0474668 4.0685678 23 0 0 0 51.537479
-18.482626 -3.6743562 4.3422508 66 0 0 0 96.488647
30.015234 -3.2526197 4.0075307 19 0 0 0 51.152111
-20.768236 -2.5609972 4.3075371 110 0 0 0 97.667961
-19.618217 -2.9079273 4.0838695 92 0 0 0 97.276329
-19.010559 -2.8212171 4.4286199 112 0 0 0 97.276329
12.400348 -0.42175117 4.4308219 190 0 0 0 49.982487
14.739053 3.1588948 4.2513819 230 0 0 0 46.071098
20.69729 4.4274535 4.3843398 61 0 0 0 46.071098
9.7792683 5.7468662 4.3212953 120 0 0 0 40.994049
-18.299181 6.3975754 4.4174523 88 0 0 0 4.67207
10.391352 6.1043334 4.2920933 223 0 0 0 40.994049
10.822508 6.1726074 4.1298876 204.5 0 0 0 41.194771
-18.616201 6.5128856 4.0138388 93 0 0 0 4.67207
10.66458 6.6184521 4.3111486 150 0 0 0 40.605888
15.652966 6.7543149 4.3707557 32 0 0 0 42.961807
-14.689496 8.1507969 4.2455215 29 0 0 0 7.4078598
-14.253076 8.3684025 4.1779842 68 0 0 0 7.8020301
-4.8854685 9.947403 4.1763997 235 0 0 0 17.16188
-5.2853117 10.133141 4.3057952 104 0 0 0 16.775801
-4.6228046 10.023801 4.1604595 159 0 0 0 17.552679
-4.2267075 10.488623 4.262732 157 0 0 0 18.33725
-3.6369455 10.471027 4.1798711 127 0 0 0 19.11985
-3.3132546 10.344276 4.0968213 97 0 0 0 19.50589
5.900485 10.216535 4.4714041 20 0 0 0 32.792702
-4.5490685 10.540688 4.3268104 198 0 0 0 17.948839
-4.0579624 10.830868 4.2183218 139 0 0 0 18.731621
5.1913466 10.741398 4.2249827 17 0 0 0 31.61867
-1.8473538 11.242788 4.1600385 196.5 0 0 0 21.85313
3.9036942 11.486008 4.2909799 225 0 0 0 29.6563
24.365744 11.210014 4.2063427 21 0 0 0 42.564114
-10.523013 11.927544 4.0287657 84 0 0 0 12.86752
-4.1104903 11.87765 4.1223907 128 0 0 0 19.11985
-1.6032977 11.522322 4.3900127 167 0 0 0 22.245541
-1.3313191 11.656796 4.1409478 203 0 0 0 22.63278
4.1803746 11.81132 4.2767792 209 0 0 0 29.85358
-13.785356 12.247014 4.2143798 111 0 0 0 10.92534
-13.305546 12.413766 4.1596284 87 0 0 0 11.3113
-3.9731286 12.468396 4.2914748 55 0 0 0 19.50589
-2.3369343 12.369218 4.4391313 88 0 0 0 21.461929
-1.6716779 12.037776 4.2878585 138 0 0 0 22.245541
-1.3949416 12.286797 4.060286 146 0 0 0 22.63278
3.6708455 12.245035 4.2055779 165.5 0 0 0 29.076031
13.685664 12.153911 4.2238531 123 0 0 0 37.8825
-13.040394 12.776082 4.17342 91 0 0 0 11.69517
-2.7583168 12.904531 4.3289151 151 0 0 0 21.07358
-2.0784993 12.736924 4.2351928 182 0 0 0 21.85313
3.3598952 12.896474 4.3816676 44 0 0 0 28.49637
5.4963088 12.925198 4.272234 41 0 0 0 30.83193
6.1923909 12.781327 4.3218904 36 0 0 0 31.61867
7.0303965 12.859061 4.4608564 49 0 0 0 32.395081
-12.77219 13.13986 4.1894107 70 0 0 0 12.08359
-3.1140225 13.008041 4.3869495 88 0 0 0 20.67589
-2.8011477 13.099511 4.0633368 70 0 0 0 21.07358
-2.1656477 13.276034 4.081111 212 0 0 0 21.85313
-1.5105751 13.339813 4.0740976 155 0 0 0 22.63278
1.7959591 13.485293 4.4694052 16 0 0 0 26.539339
4.9769344 13.494766 4.0184278 299 0 0 0 30.050859
7.3855195 13.496625 4.3022437 15 0 0 0 32.395081
-4.4095583 13.8564 4.407115 120 0 0 0 19.50589
-2.5960791 13.800037 4.2585893 198 0 0 0 21.461929
1.5016632 13.868272 4.236444 19 0 0 0 26.14539
5.0277162 13.639066 4.4184036 281 0 0 0 30.050859
6.2980599 13.838452 4.2485852 31 0 0 0 31.223471
17.700041 13.512989 4.0395055 86 0 0 0 39.05455
-4.101511 14.07257 4.4426532 99 0 0 0 19.90634
-3.7206721 14.032639 4.4005837 12 0 0 0 20.29109
2.9925358 14.313612 4.4414558 66 0 0 0 27.70936
3.0279377 14.465534 4.1250396 41 0 0 0 27.70936
4.0710888 14.17503 4.4806571 91 0 0 0 28.881479
6.8072572 14.030957 4.3580027 71 0 0 0 31.61867
8.6108809 14.044835 4.1967778 28 0 0 0 33.17654
9.2590084 14.299629 4.3396268 34 0 0 0 33.569538
0.15606317 14.998848 4.1823988 67 0 0 0 24.58197
1.2282848 14.656891 4.4646025 90 0 0 0 25.756571
5.7691526 14.521286 4.362833 41 0 0 0 30.44768
7.7227144 14.961396 4.2845855 21 0 0 0 32.014881
-12.168376 15.255107 4.4615293 38 0 0 0 13.64338
-10.706259 15.240284 4.260386 64.5 0 0 0 14.629129
0.89698887 15.077711 4.2122674 139 0 0 0 25.371969
1.3057976 15.499882 4.3373599 128 0 0 0 25.756571
2.8538356 15.496222 4.0037689 28 0 0 0 27.32546
7.350853 15.140435 4.2817407 13 0 0 0 31.61867
-11.833881 15.603204 4.4776425 55 0 0 0 14.03931
-0.21678863 15.580956 4.3432107 28 0 0 0 24.199381
7.0955539 15.572821 4.3517461 64 0 0 0 31.223471
-10.433492 16.98344 4.0716481 95 0 0 0 15.60703
0.1804996 16.611408 4.2163138 81 0 0 0 24.58197
0.58710623 16.599411 4.2160687 97 0 0 0 24.971069
1.0057575 16.772972 4.265161 40 0 0 0 25.371969
4.8925447 16.977243 4.4870234 21 0 0 0 28.881479
14.640443 16.604996 4.004499 80 0 0 0 35.924042
2.3432388 17.440727 4.4665012 95 0 0 0 26.539339
1.5069665 17.763577 4.0860896 69 0 0 0 25.756571
2.2281108 18.260632 4.2162561 74 0 0 0 26.342365
4.3286223 18.337236 4.3189836 61 0 0 0 28.098869
5.0806231 19.355173 4.0955191 16 0 0 0 28.49637
8.6886034 19.027851 4.2846055 161 0 0 0 31.223471
3.1927977 19.944099 4.1319261 16 0 0 0 26.93784
-11.960155 20.607235 4.277566 113 0 0 0 16.00106
13.555961 20.882162 4.4889479 15 0 0 0 33.569538
-11.536197 21.046646 4.3087931 123 0 0 0 16.378969
-11.130221 21.540617 4.3526244 116 0 0 0 16.775801
6.3591123 21.980976 4.1154261 88 0 0 0 28.881479
-10.708981 22.031662 4.3973203 99 0 0 0 17.16188
10.84551 22.26498 4.4578342 9 0 0 0 31.61867
4.8326373 22.876949 4.2033143 16 0 0 0 27.70936
-8.6175451 23.276054 4.4550328 9 0 0 0 18.731621
22.769457 23.37533 4.2713833 22 0 0 0 36.69783
5.6202621 23.705738 4.3785782 75 0 0 0 28.098869
-10.730414 25.153303 4.2298827 20 0 0 0 17.948839
-8.5943508 25.096922 4.1037974 7 0 0 0 19.11985
2.9592137 26.645651 4.1494823 10 0 0 0 26.14539
17.503828 26.933884 4.1894736 8 0 0 0 33.569538
2.359673 27.314215 4.2422919 11 0 0 0 25.756571
7.9172392 30.018677 4.0334024 24 0 0 0 28.49637
9.882699 31.178885 4.248292 84 0 0 0 29.27058
4.3547497 31.936289 4.1846023 16 0 0 0 26.539339
22.68231 46.396404 4.1728501 18 0 0 0 31.61867
22.021732 75.453377 4.3586426 8 0 0 0 28.881479
1.0633163 -55.613617 4.592689 17 0 0 0 74.213699
-9.5396891 -41.576736 4.553813 16 0 0 0 78.125694
-10.456557 -40.951885 4.5113091 19 0 0 0 78.520233
46.03727 -38.418491 4.9999976 108 0 0 0 60.528599
1.6495997 -37.907265 4.9998231 3918 0 0 0 73.822723
28.625051 -33.717201 4.7687144 5 0 0 0 63.26194
20.853685 -28.571966 4.6893115 19 0 0 0 64.436501
21.780573 -28.357267 4.7405739 8 0 0 0 64.054237
12.522339 -26.977373 4.6789231 13 0 0 0 67.566116
10.72399 -24.673908 4.9012251 18 0 0 0 67.967216
11.484953 -24.749556 4.9709373 24 0 0 0 67.566116
11.558632 -22.023924 4.5361075 111 0 0 0 66.788849
10.493996 -21.246881 4.9060693 29 0 0 0 67.18029
9.6842966 -20.880854 4.7655969 40 0 0 0 67.566116
13.058879 -20.982641 4.509563 45 0 0 0 65.612846
8.8783216 -20.440651 4.6144762 56 0 0 0 67.967216
14.037786 -19.251005 4.9373221 38 0 0 0 64.436501
9.3113174 -18.852264 4.8720722 37 0 0 0 67.18029
8.4114084 -18.137823 4.6337328 62 0 0 0 67.566116
7.6264124 -17.56218 4.9087081 115 0 0 0 67.967216
6.8933802 -17.003849 4.7047238 83 0 0 0 68.350594
6.2268653 -16.512096 4.7451215 127 0 0 0 68.737114
5.6473465 -16.165085 4.8172255 190 0 0 0 69.136108
4.5986571 -15.57509 4.5691056 158 0 0 0 69.92131
5.114079 -15.877723 4.6930232 209 0 0 0 69.52536
-10.65422 -15.023427 4.6962924 21 0 0 0 84.377129
3.6684084 -15.104053 4.7555914 178 0 0 0 70.704956
-11.098113 -14.865973 4.7298517 30 0 0 0 84.765572
2.8068261 -14.649799 4.563509 166 0 0 0 71.482964
3.2201462 -14.833019 4.6439819 192 0 0 0 71.095749
-11.595821 -14.045248 4.6435461 18 0 0 0 85.558228
-8.6509838 -10.740629 4.5454063 126 0 0 0 85.362076
-9.1020374 -10.494504 4.91781 69 0 0 0 85.955276
-13.90891 -9.2599716 4.6757445 67 0 0 0 90.254173
-10.067582 -9.0861168 4.8008103 75 0 0 0 87.906242
-9.6470118 -9.1436625 4.7059813 81 0 0 0 87.5196
-9.2448559 -9.4276047 4.8364401 135 0 0 0 86.93808
-8.2261982 -9.0276661 4.6256223 179 0 0 0 86.351402
-7.881402 -9.085043 4.5556612 4 0 0 0 85.955276
30.0425 -9.4211798 4.9622302 51 0 0 0 54.283501
-10.816 -8.8367243 4.6013451 65 0 0 0 88.681007
-9.5638275 -8.6307945 4.8770113 112 0 0 0 87.906242
-9.3998156 -8.9088554 4.9028535 130 0 0 0 87.5196
-14.119344 -8.4347153 4.6028433 28 0 0 0 91.047081
-13.16923 -8.3131533 4.742557 51 0 0 0 90.650108
-12.693164 -8.4531622 4.644671 50 0 0 0 90.254173
-11.150319 -8.2356443 4.5669675 130 0 0 0 89.47506
29.133343 -8.3587122 4.7779088 39 0 0 0 53.892792
-14.433424 -7.6913924 4.5774126 117 0 0 0 91.806923
-12.971868 -7.7485857 4.9756947 96 0 0 0 91.047081
-12.208327 -7.7031212 4.7547865 86 0 0 0 90.650108
-11.456681 -7.6261959 4.534514 127 0 0 0 90.254173
-10.230306 -7.7559538 4.5463538 86.5 0 0 0 89.273575
29.511368 -7.6900406 4.8068953 48 0 0 0 53.498329
-14.395557 -7.2251091 4.5086007 113 0 0 0 92.191376
-11.166526 -7.4383764 4.7499032 161 0 0 0 90.254173
30.023148 -7.0427237 4.8597841 53 0 0 0 53.10738
-13.202938 -6.6275826 4.681509 38 0 0 0 92.191376
-12.895906 -6.8714776 4.8129802 90 0 0 0 91.806923
-14.373203 -6.3575101 4.7864656 83 0 0 0 92.979698
-13.420122 -6.3323808 4.5207582 144 0 0 0 92.587669
30.60585 -6.3927059 4.9262109 66 0 0 0 52.70842
-15.944098 -5.6929884 4.7383714 9 0 0 0 94.161133
-14.231215 -5.8831334 4.6906614 114 0 0 0 93.372246
-16.43955 -5.4205995 4.8443418 36 0 0 0 94.55661
-19.835302 -3.4413517 4.6370726 61 0 0 0 96.888649
-19.058081 -3.3064697 4.9312901 68 0 0 0 96.888649
-18.611179 -2.76192 4.797967 72 0 0 0 97.276329
12.644392 -0.74116588 4.6785145 151 0 0 0 50.368286
14.810493 -0.69185507 4.9215412 100.5 0 0 0 50.175385
15.087675 -0.51527309 4.6350913 55 0 0 0 49.982487
11.84559 -0.11176838 4.5235906 153 0 0 0 49.586288
12.509922 -0.42525098 4.7774272 185 0 0 0 49.982487
14.098927 -0.13777201 4.681643 122 0 0 0 49.586288
11.969891 0.47549841 4.5733905 99 0 0 0 48.811138
13.088451 0.19831714 4.9933691 170 0 0 0 49.195641
14.375127 0.21250865 4.7724195 147 0 0 0 49.195641
15.693979 0.23468873 4.8165812 92 0 0 0 49.195641
14.661307 3.1442072 4.785491 90.5 0 0 0 46.071098
12.099998 4.5413599 4.7645693 101.5 0 0 0 43.73164
11.104661 5.2978778 4.6867213 90.5 0 0 0 42.36689
19.858734 5.2828732 4.7602072 76 0 0 0 45.293247
10.851521 5.6769638 4.6636562 138 0 0 0 41.779041
-16.396984 6.1806855 4.8558187 102 0 0 0 5.0699701
11.366401 6.3049364 4.7874589 76.5 0 0 0 41.395489
-17.622335 6.6457705 4.7529726 81 0 0 0 5.0699701
-17.247343 6.9884815 4.6973281 68 0 0 0 5.4589901
11.004653 6.8320365 4.927031 169 0 0 0 40.605888
15.551657 6.7113175 4.7647214 68 0 0 0 42.961807
-17.154167 7.4425797 4.7207828 40 0 0 0 5.8517199
-16.345072 7.0892415 4.9386277 86 0 0 0 5.8517199
-23.392351 7.558095 4.9982018 116 0 0 0 4.28935
11.550793 7.9792423 4.9891729 90 0 0 0 39.831779
-15.299034 8.9865074 4.9226642 28 0 0 0 7.8020301
11.880143 8.6365376 4.8554873 14 0 0 0 39.439201
12.391704 8.5531664 4.6040254 23 0 0 0 39.831779
-13.500897 9.3124256 4.9548464 83 0 0 0 8.9645796
11.509811 9.263629 4.8817992 40 0 0 0 38.663914
-14.278332 9.8562679 4.8162465 98 0 0 0 8.9645796
-13.72362 9.9745779 4.7106438 136 0 0 0 9.3641996
21.36314 9.8328333 4.8561654 81 0 0 0 42.564114
7.2228894 10.071964 4.6998296 20 0 0 0 34.351158
4.9148965 10.841529 4.5064821 37 0 0 0 31.223471
6.4681625 10.585526 4.7005525 27 0 0 0 33.17654
4.6647167 11.379509 4.6532736 157 0 0 0 30.639805
9.138648 11.483071 4.8389478 29 0 0 0 35.13406
4.2851243 11.658144 4.697506 270 0 0 0 30.050859
5.6763287 11.734189 4.9322324 57 0 0 0 31.61867
6.9298186 11.969876 4.5559502 68 0 0 0 32.792702
-3.0000372 12.499748 4.8456678 139 0 0 0 20.67589
-2.6521382 12.371508 4.7704554 140 0 0 0 21.07358
-2.3183451 12.267021 4.7078953 187 0 0 0 21.461929
3.4555876 12.075871 4.7481208 197 0 0 0 28.881479
3.6989779 12.348463 4.5566473 166 0 0 0 29.076031
7.6151032 12.434279 4.8018999 17 0 0 0 33.17654
13.617426 12.094408 4.6511841 106 0 0 0 37.8825
-3.7225316 12.73894 4.6768565 168 0 0 0 19.90634
-3.3511 12.600121 4.9139895 116 0 0 0 20.29109
-2.6933289 12.569661 4.5321441 157 0 0 0 21.07358
1.7064066 12.872604 4.7449741 90 0 0 0 26.539339
2.3656926 12.937016 4.9673061 40 0 0 0 27.32546
3.2633443 12.552139 4.7420363 235.5 0 0 0 28.49637
5.7893066 12.745821 4.9494858 62 0 0 0 31.223471
6.4559598 12.540487 4.9890251 41 0 0 0 32.014881
8.162055 12.620682 4.7636061 32.5 0 0 0 33.569538
-16.67956 13.432937 4.8906941 123 0 0 0 10.1352
-3.3052969 13.074255 4.752799 141 0 0 0 20.48349
2.051878 13.013833 4.6526914 52 0 0 0 26.93784
5.9660091 13.117773 4.7403293 22 0 0 0 31.223471
17.680527 13.499127 4.5834432 96 0 0 0 39.05455
-3.7945375 13.633817 4.6399069 147 0 0 0 20.098715
1.1498479 13.80239 4.887794 29 0 0 0 25.756571
2.179949 13.768849 4.5794787 35 0 0 0 26.93784
5.0192103 13.61009 4.7683516 217 0 0 0 30.050859
6.3360415 13.928535 4.6522274 41 0 0 0 31.223471
7.1163001 13.803501 4.7234178 20 0 0 0 32.014881
9.0584087 13.992748 4.6616921 22 0 0 0 33.569538
2.9551325 14.127895 4.7414007 120 0 0 0 27.70936
7.4540782 14.446023 4.5422201 38 0 0 0 32.014881
8.3049965 14.323133 4.6280828 25 0 0 0 32.792702
0.15265717 14.9603 4.5392971 178 0 0 0 24.58197
0.51691836 14.89974 4.5240073 98 0 0 0 24.971069
2.730056 14.844082 4.9558311 86 0 0 0 27.32546
-12.106857 15.177207 4.9140773 76 0 0 0 13.64338
-11.580967 15.267125 4.8509269 38 0 0 0 14.03931
-10.881381 15.093697 4.7112489 48 0 0 0 14.43666
-10.276874 15.012609 4.6072555 55 0 0 0 14.8216
-0.21612667 15.208221 4.613729 143 0 0 0 24.199381
0.90216351 15.203983 4.6215134 61 0 0 0 25.371969
3.6968946 15.717002 4.9008102 33 0 0 0 28.098869
1.5112971 17.815836 4.5367732 110 0 0 0 25.756571
4.7146158 17.994062 4.7216377 21 0 0 0 28.49637
1.984226 18.100492 4.6200891 83 0 0 0 26.14539
5.5728951 19.30608 4.6047478 12 0 0 0 28.881479
21.794386 20.290386 4.6425276 25 0 0 0 37.488232
-11.975183 20.632971 4.8685713 83 0 0 0 16.00106
-11.568954 21.106482 4.9119306 99 0 0 0 16.378969
11.658476 21.229542 4.9597349 16 0 0 0 32.395081
-11.157422 21.593269 4.9600215 93 0 0 0 16.775801
6.6465392 22.966602 4.8867836 15 0 0 0 28.881479
5.5248713 23.310163 4.8954463 43 0 0 0 28.098869
-10.717278 25.121798 4.8996487 17 0 0 0 17.948839
17.370953 26.731993 4.9477167 77 0 0 0 33.569538
16.86916 27.405214 4.9920611 6 0 0 0 33.17654
12.532408 29.247543 4.9251294 16 0 0 0 30.83193
22.724651 29.894485 4.8980207 25 0 0 0 34.744339
4.241044 37.926022 4.9479361 16 0 0 0 26.14539
20.408983 41.761703 4.8888402 24 0 0 0 31.61867
21.561718 41.512222 4.9223375 6 0 0 0 32.014881
8.7114172 46.468502 4.95998 7 0 0 0 27.32546
4.6611381 -50.297142 5.4060626 29 0 0 0 73.037926
3.3759785 -49.608162 5.3203435 17 0 0 0 73.438477
2.1187367 -48.695129 5.2143178 4 0 0 0 73.822723
-11.340607 -40.301407 5.4974179 47 0 0 0 78.905754
-0.21415405 -39.776386 5.2371411 7 0 0 0 74.607903
-1.1491272 -38.483383 5.0689025 10 0 0 0 75.007042
18.69101 -26.975302 5.1651897 15 0 0 0 64.834282
12.467467 -25.22924 5.1268272 23 0 0 0 67.18029
19.167658 -22.585621 5.4024539 24 0 0 0 63.26194
11.307594 -21.548141 5.0378995 14 0 0 0 66.788849
14.395549 -21.914141 5.4283614 14 0 0 0 65.220711
16.857763 -21.959877 5.0500059 14 0 0 0 64.054237
17.490963 -21.665497 5.0797215 29 0 0 0 63.658607
23.631805 -21.778444 5.0644817 17 0 0 0 61.307152
11.948774 -21.475521 5.0881801 19 0 0 0 66.39473
13.137478 -21.109653 5.1488438 41 0 0 0 65.612846
12.314289 -20.911911 5.0256648 53 0 0 0 66.008301
15.776752 -20.555376 5.3671784 16 0 0 0 64.054237
20.585144 -20.927952 5.3558726 11 0 0 0 62.088921
11.34835 -20.391987 5.4051414 41 0 0 0 66.39473
14.120461 -20.392582 5.1379447 26 0 0 0 64.834282
16.33357 -20.235489 5.3869801 26 0 0 0 63.658607
18.854183 -20.133133 5.0341878 54 0 0 0 62.482712
21.803501 -20.096762 5.4106636 38 0 0 0 61.307152
44.508289 -20.21343 5.2707953 9 0 0 0 56.229767
10.286797 -19.601084 5.128161 43 0 0 0 66.788849
16.80549 -19.808075 5.3817749 19 0 0 0 63.26194
20.480665 -19.827805 5.2025371 27 0 0 0 61.692318
18.292582 -18.601948 5.4067678 45 0 0 0 62.088921
21.468094 -18.838076 5.2132716 28 0 0 0 60.917393
8.4360237 -18.19191 5.1401072 103 0 0 0 67.566116
4.5990562 -17.087013 5.410264 50 0 0 0 70.313362
4.9285984 -16.676943 5.3182659 31 0 0 0 69.92131
5.870748 -16.793442 5.4413304 32 0 0 0 69.136108
5.300755 -16.445911 5.2852793 23 0 0 0 69.52536
-11.701254 -15.674165 5.4708571 29 0 0 0 84.765572
-12.141881 -15.462252 5.0102277 30 0 0 0 85.165924
-12.579323 -14.50011 5.3686342 30 0 0 0 85.955276
-11.54138 -14.696196 5.2274456 14 0 0 0 85.165924
-11.665295 -14.128956 5.1258492 14 0 0 0 85.558228
-10.901169 -13.884572 5.3736095 33 0 0 0 85.165924
-9.7251062 -9.6794157 5.1929808 60 0 0 0 87.134193
-11.389165 -8.8561697 5.458416 42 0 0 0 89.072083
-12.001306 -8.425313 5.1884832 73 0 0 0 89.863609
-11.880442 -7.706286 5.1853638 126.5 0 0 0 90.452141
-12.879502 -7.2781057 5.2345557 87 0 0 0 91.429482
-12.167775 -7.2736378 5.0171118 110 0 0 0 91.047081
-11.852418 -7.0848708 5.2256956 81 0 0 0 91.047081
-14.63473 -6.9024434 5.3267827 13 0 0 0 92.587669
-13.084077 -6.9774966 5.2468534 73 0 0 0 91.806923
-12.032358 -6.7990313 5.2302775 54 0 0 0 91.429482
-16.278231 -6.2681866 5.3095527 79 0 0 0 93.762764
-14.579767 -6.0241761 5.1943836 102 0 0 0 93.372246
-14.104295 -6.235476 5.0782361 107 0 0 0 92.979698
-13.08639 -6.177402 5.1214495 105 0 0 0 92.587669
-16.395582 -5.857348 5.2998328 47 0 0 0 94.161133
-14.603477 -5.6201468 5.1527858 105 0 0 0 93.762764
-19.939863 -3.9640017 5.1809902 73 0 0 0 96.488647
-18.908352 -3.7588909 5.3932638 10 0 0 0 96.488647
14.908577 0.59224921 5.3178196 133 0 0 0 48.811138
15.098701 0.96586031 5.0191164 46 0 0 0 48.41452
16.489712 1.4619261 5.4869723 124 0 0 0 48.032272
14.477023 2.739403 5.2488523 144 0 0 0 46.465019
16.082855 3.0363548 5.4228868 39 0 0 0 46.465019
12.922759 3.7906582 5.1302576 78 0 0 0 44.904282
13.454849 3.5899532 5.303926 17 0 0 0 45.293247
12.45616 4.3289433 5.0230384 37 0 0 0 44.12051
-24.658741 6.0186563 5.1572337 114 0 0 0 3.1207199
-24.258511 6.5513325 5.1065626 96 0 0 0 3.5065999
-16.993534 6.8848286 5.0813236 111 0 0 0 5.4589901
13.07519 6.8347602 5.2460561 27 0 0 0 41.779041
15.46704 6.6787 5.1549225 83 0 0 0 42.961807
-23.789782 7.0509748 5.0437679 104 0 0 0 3.9063201
11.27614 8.4184132 5.345397 22 0 0 0 39.246876
11.608599 8.4467907 5.0999398 31 0 0 0 39.439201
12.832856 8.4040909 5.4483643 11 0 0 0 40.22633
10.739342 8.6537132 5.2379608 33 0 0 0 38.663914
-13.522114 9.330451 5.3675427 69 0 0 0 8.9645796
11.858109 9.0802956 5.302639 54 0 0 0 39.05455
-13.607656 9.8876181 5.2876997 81.5 0 0 0 9.3641996
21.287352 9.8033667 5.4142957 31 0 0 0 42.564114
-13.328684 10.192282 5.4835262 46 0 0 0 9.7467003
8.5562515 10.240602 5.0605106 33 0 0 0 35.521767
-13.960624 10.675208 5.3102188 52 0 0 0 9.7467003
7.1997023 11.151468 5.0278769 34 0 0 0 33.569538
8.6534452 11.450074 5.436759 35 0 0 0 34.744339
6.3407917 11.615588 5.009172 215 0 0 0 32.395081
8.9613485 11.854015 5.2629285 17 0 0 0 34.744339
13.472274 11.971916 5.4958286 65 0 0 0 37.8825
13.08341 12.213984 5.4568529 112 0 0 0 37.488232
13.515026 12.00468 5.0666623 134 0 0 0 37.8825
8.1353922 12.588273 5.3041329 19 0 0 0 33.569538
12.574317 12.949129 5.4999027 36 0 0 0 36.69783
-18.290495 13.316892 5.1641641 101 0 0 0 9.3641996
17.667332 13.494955 5.1258512 65 0 0 0 39.05455
-17.924688 13.732127 5.15481 93 0 0 0 9.7467003
2.8835993 13.819618 5.330101 35 0 0 0 27.70936
4.2439127 13.537793 5.3588934 58 0 0 0 29.27058
5.3978591 13.613446 5.1733994 9 0 0 0 30.44768
7.454495 13.635842 5.4940386 11 0 0 0 32.395081
2.9675696 14.211733 5.1248569 155 0 0 0 27.70936
10.070897 14.004168 5.2499895 26 0 0 0 34.351158
10.738128 14.182468 5.4143195 33 0 0 0 34.744339
-11.671369 14.627226 5.2005315 71 0 0 0 13.64338
-11.192449 14.750991 5.1465397 69 0 0 0 14.03931
2.6798694 14.607185 5.2409 19 0 0 0 27.32546
3.4903677 14.84404 5.0077434 50 0 0 0 28.098869
7.2543154 14.94651 5.4603734 19 0 0 0 31.61867
10.593007 14.719667 5.0708723 42 0 0 0 34.351158
-11.024589 15.293628 5.2401161 69 0 0 0 14.43666
-10.545959 15.408628 5.1903667 18 0 0 0 14.8216
0.71994114 15.245073 5.0083456 78.5 0 0 0 25.17152
-0.21962757 15.834305 5.193706 109 0 0 0 24.199381
0.17728192 16.445503 5.3933134 97 0 0 0 24.58197
-15.405958 16.666092 5.1845479 77 0 0 0 12.47956
14.587915 17.393417 5.21945 54 0 0 0 35.521767
0.64956647 18.188105 5.0683002 101 0 0 0 24.971069
12.104971 18.66626 5.1083932 21 0 0 0 33.569538
-12.793351 19.742104 5.37536 81 0 0 0 15.21288
-12.421344 20.236319 5.4255328 85 0 0 0 15.60703
11.204832 20.41754 5.3411655 19 0 0 0 32.395081
-11.998604 20.664936 5.4601517 83 0 0 0 16.00106
4.9425349 20.901632 5.4457488 16 0 0 0 28.098869
9.7516623 21.351114 5.3781085 58 0 0 0 31.223471
-10.71651 22.046873 5.0023303 93 0 0 0 17.16188
-9.1154575 22.883854 5.0266576 9 0 0 0 18.33725
11.071931 22.728889 5.1723323 19 0 0 0 31.61867
16.275715 22.559242 5.0146866 38 0 0 0 34.351158
10.04685 23.478634 5.2210703 39 0 0 0 30.83193
-8.5867147 25.073244 5.406209 14 0 0 0 19.11985
14.132839 30.86311 5.2536163 10 0 0 0 31.223471
9.8722982 31.148849 5.0529585 32 0 0 0 29.27058
1.322904 35.020824 5.4129372 8 0 0 0 24.971069
16.424559 38.283741 5.4054742 16 0 0 0 30.83193
-6.8777041 51.527733 5.4481936 14 0 0 0 22.245541
27.638008 -63.493729 5.7445059 8 0 0 0 67.967216
8.882369 -53.078423 5.7631998 18 0 0 0 71.875755
7.3935533 -51.961506 5.6195316 6 0 0 0 72.268951
5.9952898 -51.064018 5.5038128 12 0 0 0 72.649323
-9.4987803 -41.42622 5.5823283 24 0 0 0 78.125694
-10.416711 -40.820808 5.5326657 48 0 0 0 78.520233
1.6358018 -37.6199 5.8940787 46 0 0 0 73.822723
27.010626 -33.431183 5.6917677 11 0 0 0 63.658607
31.146646 -30.13327 5.7428417 20 0 0 0 61.692318
20.661987 -28.310938 5.5146923 21 0 0 0 64.436501
21.309443 -27.74596 5.5054502 36 0 0 0 64.054237
33.137882 -27.65436 5.7208204 11 0 0 0 60.528599
25.140848 -25.550463 5.6436725 9 0 0 0 62.088921
18.624849 -20.890526 5.7962046 19 0 0 0 62.867489
25.109386 -20.963188 5.9653983 7 0 0 0 60.528599
18.729836 -20.001253 5.6762962 59 0 0 0 62.482712
15.793183 -19.561193 5.8252234 17 0 0 0 63.658607
20.056797 -19.418756 5.7834835 25 0 0 0 61.692318
17.599007 -17.892366 5.8176093 15 0 0 0 62.088921
4.5732236 -17.00535 5.8201423 97 0 0 0 70.313362
4.8792782 -16.523302 5.6957097 145 0 0 0 69.92131
5.8079262 -16.625364 5.8227844 81 0 0 0 69.136108
5.2342029 -16.25177 5.6455727 116 0 0 0 69.52536
-10.891639 -14.593216 5.5425768 15 0 0 0 84.765572
-12.15755 -8.7580376 5.6682987 57.5 0 0 0 89.669334
30.470024 -8.7413378 5.7811489 34 0 0 0 53.892792
-12.555844 -7.9282713 5.6174703 93 0 0 0 90.650108
30.64583 -7.9848909 5.7752647 23 0 0 0 53.498329
-14.742293 -7.4051838 5.8344827 68 0 0 0 92.191376
31.664238 -7.426712 5.929543 48 0 0 0 53.10738
-13.190941 -6.6255302 5.5847459 93 0 0 0 92.191376
-16.843838 -6.0141029 5.8857284 76 0 0 0 94.161133
-14.644005 -6.1969743 5.7536721 69.333336 0 0 0 93.241394
-17.766893 -5.8616662 5.6931176 46 0 0 0 94.55661
-14.650591 -5.6440482 5.5546012 144 0 0 0 93.762764
-16.65811 -5.2686596 5.7510538 70.5 0 0 0 94.74939
-14.788651 -5.2858109 5.9410033 83 0 0 0 94.161133
-19.443848 -4.3621993 5.5733714 18 0 0 0 96.106384
-20.372318 -3.023221 5.7604151 58 0 0 0 97.276329
-20.0429 -2.4750304 5.6494904 13 0 0 0 97.667961
16.50695 -0.15467711 5.8795133 75 0 0 0 49.586288
16.262287 0.24668312 5.7930555 74 0 0 0 49.195641
15.21612 0.97931808 5.8078661 114 0 0 0 48.41452
16.763103 0.6598835 5.5608845 98 0 0 0 48.811138
16.331045 1.2509985 5.8328381 46 0 0 0 48.223396
37.726997 1.4751065 5.9316964 20 0 0 0 48.811138
16.333403 1.8591789 5.852757 30 0 0 0 47.637272
16.265976 2.2571011 5.8461256 52 0 0 0 47.240593
37.954479 2.4160929 5.9734426 34 0 0 0 48.41452
14.366367 2.7188795 5.5686035 134 0 0 0 46.465019
15.654754 2.5655 5.6483531 63 0 0 0 46.8503
15.074702 3.237813 5.8689122 92 0 0 0 46.071098
16.056795 3.4478412 5.844418 110 0 0 0 46.071098
15.454854 3.7178745 5.6576271 88 0 0 0 45.677849
-24.721478 6.0292826 5.7902493 77 0 0 0 3.1207199
-24.29958 6.5577302 5.7283435 100 0 0 0 3.5065999
15.384655 6.6440983 5.7491398 70 0 0 0 42.961807
-23.854586 7.0655427 5.6635485 86 0 0 0 3.9063201
-23.415173 7.5607834 5.6024666 95 0 0 0 4.28935
16.171511 7.9413915 5.954082 63 0 0 0 42.16967
11.988391 8.2808619 5.5342827 21 0 0 0 39.831779
-22.60404 8.5361271 5.5037193 89 0 0 0 5.0699701
11.515651 10.76237 5.9757195 24 0 0 0 37.488232
-13.778175 11.082703 5.7790437 50 0 0 0 10.1352
11.825025 11.604512 5.8708687 31 0 0 0 37.09684
12.853144 11.996549 5.7968817 94 0 0 0 37.488232
22.868656 11.920897 5.9505668 11 0 0 0 41.779041
12.827067 12.573773 5.9199114 35 0 0 0 37.09684
22.617861 12.504484 5.9616423 33 0 0 0 41.395489
-18.308584 13.329873 5.7232442 87 0 0 0 9.3641996
17.652908 13.484963 5.6682138 84 0 0 0 39.05455
-17.963373 13.761662 5.7194967 123 0 0 0 9.7467003
-17.596664 14.175322 5.7120252 112 0 0 0 10.1352
-11.464465 14.360669 5.557436 59 0 0 0 13.64338
4.7840405 14.036407 5.6002674 52 0 0 0 29.6563
13.058084 14.120634 5.8561735 19 0 0 0 36.308739
-17.238918 14.595176 5.7104249 105 0 0 0 10.52929
-11.15187 14.691548 5.5787191 91 0 0 0 14.03931
-16.689306 15.213579 5.7104225 131 0 0 0 11.11832
-0.22027403 15.295493 5.767035 84 0 0 0 24.199381
0.15543295 15.374232 5.796876 101 0 0 0 24.58197
0.53583211 15.468043 5.8358507 98 0 0 0 24.971069
2.4139066 15.24017 5.8212256 29 0 0 0 26.93784
-16.149063 15.842101 5.720645 110 0 0 0 11.69517
-0.22523564 15.820788 5.5768132 87 0 0 0 24.199381
0.93565607 15.784147 5.9619088 88 0 0 0 25.371969
6.2166452 15.638094 5.5263662 53 0 0 0 30.44768
6.6384115 15.591171 5.9815402 15 0 0 0 30.83193
12.597857 15.800985 5.6488581 14 0 0 0 35.13406
-15.788482 16.263992 5.732399 98 0 0 0 12.08359
0.16768159 16.197355 5.7091227 72 0 0 0 24.58197
0.57167637 16.379137 5.7766023 62 0 0 0 24.971069
-15.42213 16.68342 5.7460818 119 0 0 0 12.47956
1.8168284 16.68585 5.9169083 60 0 0 0 26.14539
10.502482 17.110554 5.6049733 13 0 0 0 33.17654
14.522734 17.317204 5.7521629 39 0 0 0 35.521767
15.042232 17.068573 5.791708 37 0 0 0 35.924042
-14.702091 17.552589 5.7914758 91 0 0 0 13.25729
12.761565 17.715624 5.5536613 21 0 0 0 34.351158
13.41907 17.695902 5.6499157 24 0 0 0 34.744339
13.997697 17.547729 5.7116804 19 0 0 0 35.13406
-12.812728 19.771889 5.9605289 82 0 0 0 15.21288
-11.600901 21.156029 5.513176 85 0 0 0 16.378969
-9.7572346 21.370403 5.9447145 18 0 0 0 17.552679
-8.5472908 21.433514 5.8397632 9 0 0 0 18.33725
-11.174283 21.616484 5.5601678 73 0 0 0 16.775801
10.584873 21.745642 5.5417423 32 0 0 0 31.61867
11.248199 21.737259 5.6093736 16 0 0 0 32.014881
-10.744669 22.095001 5.613801 101 0 0 0 17.16188
9.5686302 22.380264 5.5738678 25 0 0 0 30.83193
16.191288 22.444202 5.6706619 47 0 0 0 34.351158
4.7591553 22.559736 5.8427911 46 0 0 0 27.70936
6.119875 23.283346 5.509089 19 0 0 0 28.49637
5.0510154 23.922152 5.5935225 16 0 0 0 27.70936
13.806318 23.729475 5.6185327 15 0 0 0 32.792702
16.724081 27.172277 5.740087 18 0 0 0 33.17654
22.5448 29.660566 5.7824678 28 0 0 0 34.744339
18.342445 31.488241 5.6457367 25 0 0 0 32.792702
16.018814 32.824154 5.6521015 27 0 0 0 31.61867
16.990301 32.754078 5.7117777 16 0 0 0 32.014881
9.4498692 35.786221 5.7179141 29 0 0 0 28.49637
8.6813202 36.466686 5.7901006 18 0 0 0 28.098869
7.878437 37.099796 5.8574409 25 0 0 0 27.70936
-5.8167791 53.561821 5.6453085 11 0 0 0 22.63278
6.4556451 -45.345581 6.0350323 7 0 0 0 72.268951
7.5666428 -45.198738 6.0400062 9 0 0 0 71.875755
-0.21749188 -40.22644 6.2915492 20 0 0 0 74.607903
19.25955 -29.30022 6.3838539 17 0 0 0 65.220711
20.405666 -27.961481 6.3044887 22 0 0 0 64.436501
18.914202 -27.298054 6.0492263 21 0 0 0 64.834282
22.187943 -24.878538 6.0756831 21 0 0 0 62.867489
14.704569 -22.37602 6.1986222 29 0 0 0 65.220711
17.422321 -19.538107 6.0652771 13 0 0 0 62.867489
18.476213 -19.724682 6.261384 17 0 0 0 62.482712
15.689482 -18.490221 6.2168059 11 0 0 0 63.26194
-10.663068 -15.034016 6.0657649 16 0 0 0 84.377129
29.359568 -8.42311 6.3246789 66 0 0 0 53.892792
-14.993056 -7.9957738 6.4242663 86 0 0 0 91.806923
29.523329 -7.6927013 6.3171072 57 0 0 0 53.498329
-14.723423 -6.7326107 6.1231699 70.5 0 0 0 92.783684
29.818714 -6.994348 6.3411417 52 0 0 0 53.10738
-16.795155 -5.772047 6.2802148 61.5 0 0 0 94.358871
-15.17763 -5.8470302 6.1515794 10 0 0 0 93.762764
-19.367821 -4.3486295 6.0398436 68 0 0 0 96.106384
41.214725 0.60137182 6.4733839 21 0 0 0 49.195641
16.167597 1.4397669 6.1791062 97 0 0 0 48.032272
16.020788 2.2235048 6.156321 108 0 0 0 47.240593
15.837656 2.5958064 6.1083331 72 0 0 0 46.8503
16.157021 3.8868525 6.3209972 74 0 0 0 45.677849
-24.788599 6.0455236 6.4297042 67 0 0 0 3.1207199
-24.344345 6.569654 6.3553109 60 0 0 0 3.5065999
-23.899632 7.0787282 6.2835913 73 0 0 0 3.9063201
-23.467758 7.5776186 6.2179213 88 0 0 0 4.28935
-23.053328 8.0693502 6.1595459 97 0 0 0 4.67207
16.36611 8.0444565 6.4745307 30 0 0 0 42.16967
-15.687563 9.7310133 6.4788599 120 0 0 0 8.1941996
21.679535 9.9844513 6.1005039 23 0 0 0 42.564114
-15.399742 10.084416 6.2371259 92 0 0 0 8.5746498
25.237499 10.151695 6.2806392 17 0 0 0 43.34914
-13.81902 10.56201 6.1082907 47 0 0 0 9.7467003
24.75316 10.669105 6.2222438 25 0 0 0 42.961807
-13.733451 11.038414 6.1886487 37 0 0 0 10.1352
13.561768 11.474993 6.2959442 7 0 0 0 38.274059
12.781657 11.939297 6.1966591 35 0 0 0 37.488232
23.56324 11.557153 6.0565133 23 0 0 0 42.16967
12.081416 12.449809 6.1438646 37 0 0 0 36.69783
18.041754 12.431879 6.1394329 7 0 0 0 39.831779
17.615688 13.457614 6.2082043 61 0 0 0 39.05455
-17.970972 13.767257 6.2822404 114 0 0 0 9.7467003
11.040001 13.868508 6.2711072 47 0 0 0 35.13406
12.140182 13.79051 6.0500898 35 0 0 0 35.924042
12.93325 13.9823 6.2718196 33 0 0 0 36.308739
13.335197 13.725519 6.3027668 11 0 0 0 36.69783
-17.608006 14.184247 6.2753854 108 0 0 0 10.1352
-17.261072 14.613773 6.2776313 106 0 0 0 10.52929
-16.718933 15.240461 6.2806873 107.5 0 0 0 11.11832
-16.18059 15.872935 6.2930422 95 0 0 0 11.69517
1.3407075 15.969435 6.0426898 72 0 0 0 25.756571
-15.814359 16.290531 6.3040047 94 0 0 0 12.08359
1.7756656 16.323812 6.1912479 42 0 0 0 26.14539
-15.444511 16.707502 6.3178773 99 0 0 0 12.47956
10.354489 16.878559 6.0161366 42 0 0 0 33.17654
14.945213 16.960087 6.3172231 24 0 0 0 35.924042
26.700323 16.505362 6.4584918 9 0 0 0 40.605888
-15.091578 17.148064 6.3434734 100 0 0 0 12.86752
1.0152146 17.031073 6.0127859 61 0 0 0 25.371969
14.454463 17.237328 6.2851505 28 0 0 0 35.521767
26.342623 17.190231 6.4699955 23 0 0 0 40.22633
-14.728726 17.584299 6.3701138 87 0 0 0 13.25729
13.290349 17.528107 6.1435757 31 0 0 0 34.744339
-12.416629 20.22827 6.0048261 64 0 0 0 15.60703
-12.023701 20.70812 6.0581427 82 0 0 0 16.00106
-11.619215 21.189312 6.1138959 89 0 0 0 16.378969
-11.201439 21.669025 6.1713161 86 0 0 0 16.775801
-10.663733 21.92695 6.1688499 17 0 0 0 17.16188
16.187803 22.449198 6.3490572 34 0 0 0 34.351158
16.80003 22.134157 6.376193 39 0 0 0 34.744339
13.910452 22.628822 6.089695 17 0 0 0 33.17654
2.5604706 23.189022 6.4892244 15 0 0 0 26.14539
3.0777082 35.401424 6.367898 11 0 0 0 25.756571
3.9890556 35.71891 6.4406042 28 0 0 0 26.14539
19.97468 36.290909 6.4102507 14 0 0 0 32.395081
21.640064 41.683403 6.0973558 14 0 0 0 32.014881
3.4542408 -50.642353 6.6790457 14 0 0 0 73.438477
4.6816583 -50.438267 6.6670966 13 0 0 0 73.037926
-1.2481568 -41.824707 6.5416155 6 0 0 0 75.007042
54.664722 -29.838102 6.7059488 11 0 0 0 57.402328
55.613907 -28.612553 6.733963 12 0 0 0 56.999512
12.675873 -24.140982 6.9785624 5 0 0 0 66.788849
12.415524 -22.305487 6.5366459 9 0 0 0 66.39473
14.551621 -22.144831 6.7860932 22 0 0 0 65.220711
14.707293 -21.232033 6.616262 17 0 0 0 64.834282
18.154989 -20.358761 6.9892302 35 0 0 0 62.867489
14.967146 -19.498131 6.9111328 14 0 0 0 64.054237
16.092953 -18.965332 6.9944077 8 0 0 0 63.26194
18.856167 -17.380159 6.5751019 7 0 0 0 61.307152
-10.673768 -15.059624 6.526855 44 0 0 0 84.377129
30.010597 -9.4108467 6.5117898 39 0 0 0 54.283501
-17.384512 -5.7385759 6.9210033 64 0 0 0 94.55661
-17.152924 -5.2006674 6.7770524 15 0 0 0 94.942162
41.360672 -3.4563327 6.5222764 5 0 0 0 50.761593
42.948532 -2.5316143 6.7584023 32 0 0 0 50.368286
38.195763 -0.37779158 6.9498196 30 0 0 0 49.586288
38.115601 0.55664361 6.9346218 25 0 0 0 49.195641
37.54364 1.4686321 6.8345003 13 0 0 0 48.811138
-24.382332 6.5797362 6.9898705 75 0 0 0 3.5065999
-23.937183 7.0896816 6.9109535 64 0 0 0 3.9063201
-23.526718 7.5965176 6.8450437 72 0 0 0 4.28935
-23.103142 8.0866356 6.7783065 86 0 0 0 4.67207
-15.730122 9.7573709 6.9477463 110 0 0 0 8.1941996
30.109081 10.418891 6.5710382 17 0 0 0 44.12051
12.4373 12.815813 6.7616935 15 0 0 0 36.69783
12.905109 12.660575 6.8458319 19 0 0 0 37.09684
17.595886 13.448386 6.7479043 50 0 0 0 39.05455
12.247392 13.922501 6.5609674 33 0 0 0 35.924042
-17.631493 14.197944 6.8375778 83 0 0 0 10.1352
-17.300217 14.641655 6.8463492 133 0 0 0 10.52929
12.435654 14.852697 6.8506269 17 0 0 0 35.521767
18.546562 14.899794 6.6577511 17 0 0 0 38.663914
28.72971 14.962335 6.6692557 10 0 0 0 41.779041
-16.7542 15.267065 6.8484902 106 0 0 0 11.11832
-16.200962 15.887223 6.8560748 88 0 0 0 11.69517
28.170565 15.560293 6.6243834 8 0 0 0 41.395489
-15.854149 16.325787 6.8765917 99 0 0 0 12.08359
14.167527 16.087576 6.5206819 17 0 0 0 35.924042
-15.495527 16.756865 6.8970823 93 0 0 0 12.47956
-15.11071 17.163618 6.9109139 86 0 0 0 12.86752
14.447048 17.235826 6.8372803 5 0 0 0 35.521767
-14.754435 17.60865 6.9431982 87 0 0 0 13.25729
13.971993 17.524364 6.8122816 16 0 0 0 35.13406
10.865493 18.71677 6.5699344 35 0 0 0 32.792702
-12.854981 19.837194 6.5659485 7 0 0 0 15.21288
-12.489828 20.347977 6.6319423 6 0 0 0 15.60703
-12.072117 20.791729 6.678431 9 0 0 0 16.00106
-11.63727 21.222109 6.7233109 77 0 0 0 16.378969
-11.223331 21.711304 6.7892289 83 0 0 0 16.775801
17.429224 26.825159 6.5446138 19 0 0 0 33.569538
18.190039 26.549137 6.5858693 34 0 0 0 33.964447
16.980501 27.589392 6.6251307 16 0 0 0 33.17654
5.5203786 29.646908 6.8904114 14 0 0 0 27.32546
22.421131 29.500351 6.6691046 24 0 0 0 34.744339
30.469481 29.770742 6.6219745 5 0 0 0 37.09684
18.250071 31.332418 6.515851 11 0 0 0 32.792702
30.240997 31.02972 6.7320013 6 0 0 0 36.69783
1.3724898 36.283051 6.5052609 13 0 0 0 24.971069
0.48801059 36.558414 6.550015 8 0 0 0 24.58197
-7.9688091 50.217712 6.579371 8 0 0 0 21.85313
-6.7712555 50.64959 6.6121297 12 0 0 0 22.245541
52.089119 -43.465549 7.301373 5 0 0 0 60.528599
53.197842 -42.226322 7.3100352 12 0 0 0 60.131401
-0.21665138 -39.812187 7.2126741 6 0 0 0 74.607903
24.565248 -37.356392 7.0227652 10 0 0 0 65.220711
13.286988 -21.344156 7.0651526 14 0 0 0 65.612846
16.621042 -20.585869 7.4370928 10 0 0 0 63.658607
19.439005 -20.751184 7.2845545 17 0 0 0 62.482712
30.27154 -9.4865561 7.3454704 18 0 0 0 54.283501
29.534878 -8.467536 7.1152067 70 0 0 0 53.892792
29.894156 -7.7833486 7.1530499 66 0 0 0 53.498329
46.089943 -7.2873945 7.330832 8 0 0 0 51.938648
40.630993 2.5872843 7.401094 14 0 0 0 48.41452
-24.856897 6.0620489 7.0802341 80 0 0 0 3.1207199
17.92017 7.2245688 7.3353605 49 0 0 0 43.34914
18.407503 7.4198966 7.0458322 28 0 0 0 43.34914
-23.565477 7.6043425 7.4622478 80 0 0 0 4.28935
17.917545 7.7395782 7.4080997 18 0 0 0 42.961807
-23.138657 8.0943785 7.3885555 90 0 0 0 4.67207
-22.729815 8.5786295 7.323792 80 0 0 0 5.0699701
-22.291697 9.0398893 7.252645 86 0 0 0 5.4589901
-20.247719 9.385994 7.2810483 46 0 0 0 6.2433801
-21.922808 9.5190001 7.2071443 76 0 0 0 5.8517199
-15.700346 10.278271 7.0443754 14 0 0 0 8.5746498
22.219543 10.239104 7.4639268 20 0 0 0 42.564114
30.217709 10.463349 7.3790545 16 0 0 0 44.12051
29.760859 11.129109 7.3305125 18 0 0 0 43.73164
13.975568 12.424463 7.0824938 21 0 0 0 37.8825
17.804462 12.270678 7.1284547 27 0 0 0 39.831779
17.569828 13.424664 7.2853174 46 0 0 0 39.05455
-17.311312 14.656014 7.4108939 115 0 0 0 10.52929
-16.775631 15.291689 7.4179931 78 0 0 0 11.11832
-16.234488 15.925575 7.4321837 73 0 0 0 11.69517
-15.880445 16.358454 7.4514351 73 0 0 0 12.08359
-15.513601 16.782125 7.4700384 86 0 0 0 12.47956
-15.146723 17.210539 7.4942069 83 0 0 0 12.86752
13.510229 17.819368 7.3492045 20 0 0 0 34.744339
-13.650021 18.956032 7.0609779 52 0 0 0 14.43666
-13.251651 19.385424 7.0983696 61 0 0 0 14.8216
13.105927 19.171762 7.052103 20 0 0 0 33.964447
-12.855936 19.83077 7.144393 80 0 0 0 15.21288
-12.464235 20.297724 7.2007818 68 0 0 0 15.60703
-12.060636 20.763119 7.2591672 73 0 0 0 16.00106
-11.658991 21.252817 7.3285136 59 0 0 0 16.378969
-11.247119 21.74794 7.4021459 81 0 0 0 16.775801
8.5987816 21.580675 7.0393105 27 0 0 0 30.44768
-10.758323 22.112257 7.4344916 6 0 0 0 17.16188
27.811474 23.450974 7.4649959 16 0 0 0 38.274059
21.947901 27.460821 7.197011 16 0 0 0 35.13406
-5.8691964 53.95599 7.0208926 9 0 0 0 22.63278
-4.6645198 55.498154 7.2037411 18 0 0 0 23.02421
27.208757 -66.93808 7.7465024 5 0 0 0 68.350594
13.629804 -55.852058 7.575067 17 0 0 0 70.704956
4.6053777 -49.636715 7.7955475 18 0 0 0 73.037926
16.177008 -22.172256 7.7119384 27 0 0 0 64.436501
14.305617 -21.765074 7.9599419 9 0 0 0 65.220711
41.104771 -3.4344423 7.5046329 32 0 0 0 50.761593
42.096657 -2.480921 7.670444 30 0 0 0 50.368286
41.662632 -1.4326329 7.5821466 39 0 0 0 49.982487
38.28685 0.55982029 7.9091949 32 0 0 0 49.195641
-25.339275 5.5243855 7.810605 54 0 0 0 2.7319801
-24.89356 6.0662394 7.7177219 64 0 0 0 3.1207199
-24.447729 6.5926933 7.6282644 72 0 0 0 3.5065999
-24.001259 7.1039901 7.5419664 62 0 0 0 3.9063201
-22.758587 8.5938234 7.9327683 59 0 0 0 5.0699701
42.008472 8.9775743 7.7967529 12 0 0 0 46.071098
-22.34013 9.0639095 7.862781 70 0 0 0 5.4589901
-21.972496 9.5449753 7.8141541 93 0 0 0 5.8517199
-19.129986 10.621526 7.6760454 29 0 0 0 7.4078598
-18.827229 11.062552 7.6616597 46 0 0 0 7.8020301
-17.770588 12.272964 7.5806336 107 0 0 0 8.9645796
-17.433203 12.67905 7.5674844 63 0 0 0 9.3641996
-17.356319 14.683678 7.9833732 74 0 0 0 10.52929
-16.988556 15.099398 7.9821367 86 0 0 0 10.92534
-16.630051 15.524049 7.9901476 111 0 0 0 11.3113
-16.26088 15.940219 7.9981365 96 0 0 0 11.69517
-14.780273 17.645647 7.5245543 69 0 0 0 13.25729
-14.401518 18.073118 7.5548806 54 0 0 0 13.64338
-14.028375 18.516121 7.5947933 66 0 0 0 14.03931
-13.650394 18.963249 7.6393337 75 0 0 0 14.43666
-13.26576 19.413174 7.6878915 66 0 0 0 14.8216
-12.890374 19.891537 7.7503777 55 0 0 0 15.21288
-12.492008 20.350906 7.8081856 72 0 0 0 15.60703
-12.089713 20.821564 7.8731022 77 0 0 0 16.00106
-11.684457 21.30805 7.9466944 53 0 0 0 16.378969
-10.587173 23.191214 7.706934 6 0 0 0 17.552679
26.203691 26.898314 7.6948314 6 0 0 0 36.69783
22.3356 29.390158 7.553021 18 0 0 0 34.744339
114.93075 -82.390282 8.2210741 27 0 0 0 59.356602
7.4557724 -52.354286 8.271616 6 0 0 0 72.268951
6.0464869 -51.44738 8.101305 10 0 0 0 72.649323
55.044834 -31.805271 8.4095764 9 0 0 0 57.785358
55.539722 -30.30295 8.3693113 9 0 0 0 57.402328
16.580223 -21.587778 8.3197947 25 0 0 0 64.054237
18.337992 -19.572475 8.2013311 10 0 0 0 62.482712
45.924477 -7.2607627 8.4570713 35 0 0 0 51.938648
45.192631 -6.0151563 8.2925406 23 0 0 0 51.537479
40.504868 -0.39976808 8.3656645 42 0 0 0 49.586288
40.566231 2.5839615 8.3910141 16 0 0 0 48.41452
-25.455389 5.5542536 8.4883928 26 0 0 0 2.7319801
-24.937149 6.0812922 8.3637533 56 0 0 0 3.1207199
-24.491131 6.6088014 8.2669525 73 0 0 0 3.5065999
-24.042555 7.1205935 8.1729298 79 0 0 0 3.9063201
-23.613564 7.6242371 8.089077 72 0 0 0 4.28935
-23.166351 8.1084003 8.0024061 72 0 0 0 4.67207
23.913506 8.9489498 8.4252234 17 0 0 0 43.73164
-22.387474 9.073904 8.4680185 67 0 0 0 5.4589901
-21.973858 9.5362463 8.3982201 79 0 0 0 5.8517199
-21.610979 10.011748 8.3515472 43 0 0 0 6.2433801
29.656099 10.270143 8.0147276 5 0 0 0 44.12051
-17.795473 12.290001 8.1189613 41 0 0 0 8.9645796
-17.439758 12.683603 8.0965471 66 0 0 0 9.3641996
-17.102121 13.087815 8.0867472 69 0 0 0 9.7467003
-15.912734 16.380199 8.0219889 67 0 0 0 12.08359
-15.545716 16.805023 8.0421734 61 0 0 0 12.47956
-15.166733 17.22101 8.0620079 80 0 0 0 12.86752
-14.813498 17.672729 8.1020098 62 0 0 0 13.25729
35.928364 17.600929 8.2297277 18 0 0 0 42.16967
-14.437769 18.105619 8.1366949 54 0 0 0 13.64338
-14.066146 18.552519 8.1809492 52 0 0 0 14.03931
-13.676274 18.985134 8.2221994 58 0 0 0 14.43666
-13.297945 19.445667 8.2786608 60 0 0 0 14.8216
-12.90724 19.902164 8.3364191 53 0 0 0 15.21288
-12.520266 20.380926 8.4063959 49 0 0 0 15.60703
-12.112306 20.843601 8.4727068 43 0 0 0 16.00106
-11.247828 21.758289 8.0096989 60 0 0 0 16.775801
27.112694 22.872599 8.1490574 16 0 0 0 38.274059
5.7888222 35.875248 8.2954559 22 0 0 0 26.93784
12.061153 -55.268307 8.8523502 6 0 0 0 71.095749
10.471245 -54.332161 8.6573772 9 0 0 0 71.482964
16.54789 -21.554411 8.979002 14 0 0 0 64.054237
42.594273 -2.5095847 8.812006 63 0 0 0 50.368286
41.511055 -1.426815 8.5781965 46 0 0 0 49.982487
42.051384 1.6458899 8.6871796 48 0 0 0 48.811138
-24.546078 6.6143303 8.905221 52 0 0 0 3.5065999
-24.072231 7.1201019 8.7949057 59 0 0 0 3.9063201
-23.65221 7.6274681 8.7080116 51 0 0 0 4.28935
42.39883 7.9816804 8.895318 15 0 0 0 46.465019
-23.229885 8.1214457 8.6240654 72 0 0 0 4.67207
-22.795877 8.5986795 8.5394478 52 0 0 0 5.0699701
-21.999475 9.5471745 8.9930477 48 0 0 0 5.8517199
-21.607552 10.00991 8.9311762 31 0 0 0 6.2433801
21.859671 10.079964 8.5329037 18 0 0 0 42.564114
-21.308548 10.509997 8.9121141 84 0 0 0 6.6311102
-20.942484 10.972267 8.8695049 83 0 0 0 7.0213099
-20.474178 11.371436 8.7871819 17 0 0 0 7.4078598
-20.098118 11.812899 8.7480345 60 0 0 0 7.8020301
-17.744993 14.283947 8.5546989 58 0 0 0 10.1352
-17.383984 14.706949 8.552 77 0 0 0 10.52929
46.826344 14.921065 8.9050121 17 0 0 0 44.516361
-17.027529 15.133963 8.5566549 77 0 0 0 10.92534
-16.667351 15.558795 8.5648031 65 0 0 0 11.3113
-16.301859 15.980346 8.5757389 84 0 0 0 11.69517
-15.947794 16.41622 8.5985975 50 0 0 0 12.08359
-15.569433 16.830542 8.6144009 49 0 0 0 12.47956
-15.197545 17.255926 8.6400232 71 0 0 0 12.86752
-14.828486 17.690437 8.6740541 70 0 0 0 13.25729
-14.464053 18.138494 8.7182541 55 0 0 0 13.64338
-14.085948 18.57851 8.7620726 58 0 0 0 14.03931
-13.708526 19.029884 8.8146486 40 0 0 0 14.43666
-13.323122 19.482412 8.8710766 47 0 0 0 14.8216
-12.949068 19.966764 8.9450407 43 0 0 0 15.21288
-11.703966 21.325809 8.5499334 60 0 0 0 16.378969
33.4958 26.860939 8.8057432 22 0 0 0 38.663914
-8.8138552 55.588196 8.6715908 20 0 0 0 21.85313
3.4849632 -51.133976 9.2810926 9 0 0 0 73.438477
4.5961719 -49.55397 9.0147877 24 0 0 0 73.037926
22.568611 -22.93568 9.0399685 18 0 0 0 62.088921
44.549721 -5.9291878 9.2825098 17 0 0 0 51.537479
44.031384 -3.6779084 9.1247768 28 0 0 0 50.761593
40.393585 -0.39097103 9.3330956 44 0 0 0 49.586288
41.075932 0.60865837 9.4894457 41 0 0 0 49.195641
-25.860874 4.9763055 9.2214813 40 0 0 0 2.3380201
-25.452204 5.544085 9.1224871 42 0 0 0 2.7319801
-24.971769 6.0803704 9.0019712 47 0 0 0 3.1207199
-24.142572 7.1407838 9.4347038 38 0 0 0 3.9063201
-23.702492 7.6435323 9.3339968 51 0 0 0 4.28935
-23.283291 8.1399727 9.2455454 39 0 0 0 4.67207
-22.763016 8.5859928 9.1205759 11 0 0 0 5.0699701
-12.543592 20.418825 9.0077362 40 0 0 0 15.60703
-12.134426 20.881588 9.0784874 36 0 0 0 16.00106
-11.72164 21.357882 9.1583662 49 0 0 0 16.378969
1.0560374 -55.078358 9.9693718 8 0 0 0 74.213699
22.440483 -22.798428 9.775403 12 0 0 0 62.088921
16.38559 -21.328884 9.5481024 16 0 0 0 64.054237
18.924496 -19.226686 9.5809555 6 0 0 0 62.088921
51.092316 -16.010929 9.7381744 13 0 0 0 54.283501
45.61927 -8.3618498 9.5797625 17 0 0 0 52.321632
45.86898 -7.2514968 9.591095 48 0 0 0 51.938648
42.463802 -2.493881 9.8278236 35 0 0 0 50.368286
41.368484 -1.4140779 9.5635653 48 0 0 0 49.982487
42.002934 1.652117 9.7077656 40 0 0 0 48.811138
43.011887 2.7481363 9.9510307 47 0 0 0 48.41452
-26.026535 5.0081463 9.9270163 47 0 0 0 2.3380201
-25.524061 5.5596094 9.7853918 49 0 0 0 2.7319801
-25.065844 6.1031766 9.6651306 51 0 0 0 3.1207199
-24.574762 6.6218796 9.5364122 33 0 0 0 3.5065999
47.574207 7.7541313 9.9353399 31 0 0 0 46.8503
33.486012 26.864656 9.8564701 13 0 0 0 38.663914
4.738575 34.781631 9.7473183 7 0 0 0 26.539339
6.0934877 37.746571 9.6649837 12 0 0 0 26.93784
16.41724 -21.370842 10.228079 9 0 0 0 64.054237
43.813053 -3.6514208 10.157353 23 0 0 0 50.761593
40.288033 -0.38930726 10.299741 49 0 0 0 49.586288
40.975269 0.60787207 10.474174 26 0 0 0 49.195641
44.022839 3.8973634 10.201346 46 0 0 0 48.032272
45.022091 5.0997262 10.455975 24 0 0 0 47.637272
2.3237503 -53.285831 10.967903 7 0 0 0 73.822723
22.072571 -23.559587 10.66413 9 0 0 0 62.482712
46.595676 -8.5317068 10.944765 26 0 0 0 52.321632
45.809341 -7.2333822 10.71524 33 0 0 0 51.938648
46.722023 -6.209022 10.888248 32 0 0 0 51.537479
