# .PCD v0.7 - Point Cloud Data file format
VERSION 0.7
FIELDS x y z intensity normal_x normal_y normal_z curvature
SIZE 4 4 4 4 4 4 4 4
TYPE F F F F F F F F
COUNT 1 1 1 1 1 1 1 1
WIDTH 951
HEIGHT 1
VIEWPOINT 0 0 0 1 0 0 0
POINTS 951
DATA ascii
8.4584932 5.4509587 1.5701838 759 0 0 0 40.658421
30.204779 5.3671799 1.6808904 54 0 0 0 46.9151
-8.1957283 5.6178327 1.8311138 248 0 0 0 9.3811197
-1.6637511 5.5576639 1.6401956 435 0 0 0 20.32341
-1.1896805 5.7204885 1.652061 300.5 0 0 0 21.68651
3.4637835 5.9701519 1.6032549 820 0 0 0 33.227428
3.7249768 5.6939311 1.7499962 562.33331 0 0 0 34.067425
7.8228874 5.8063979 1.6025096 655.33331 0 0 0 39.617226
8.1461535 5.6381907 1.7116865 710 0 0 0 40.142673
10.920326 5.9335861 1.6210328 448 0 0 0 41.828911
11.367458 5.8167682 1.6642817 133 0 0 0 42.231327
14.086489 5.9295063 1.6075824 383 0 0 0 43.402721
14.56109 5.7099781 1.6443204 287 0 0 0 43.79179
-29.885939 6.4745779 1.8684324 31 0 0 0 3.1305201
-23.850359 6.3976889 1.5122422 30 0 0 0 3.90657
-1.1853217 6.1069202 1.6038122 313 0 0 0 21.884077
7.6863065 6.2651505 1.6718657 605 0 0 0 38.903793
10.657242 6.3136821 1.6162111 477 0 0 0 41.247414
13.893325 6.2562294 1.6027461 380 0 0 0 43.003967
17.797316 6.4727345 1.5222204 219 0 0 0 44.185139
31.049728 6.3092365 1.7343673 13 0 0 0 46.53146
-4.0938101 6.9589429 1.6838275 1206 0 0 0 16.407789
-3.7726593 6.9843178 1.6556045 1492 0 0 0 17.00049
13.966422 6.7079291 1.6291169 346 0 0 0 42.615952
-28.88903 7.0025334 1.8163774 54 0 0 0 3.52074
-8.8913841 7.4818063 1.852428 213 0 0 0 10.93703
-6.6178207 7.4597321 1.5896964 319 0 0 0 13.28737
-6.3026638 7.461875 1.5570533 651 0 0 0 13.6742
-4.291739 7.0319591 1.5839294 1764.3334 0 0 0 16.150177
-3.4972692 7.0854445 1.6475742 1859 0 0 0 17.58638
-1.0222071 7.2390337 1.7010405 1423 0 0 0 22.659941
-0.72333884 7.2643561 1.6389281 1209 0 0 0 23.315763
-0.30498669 7.3020706 1.6106467 1596.1666 0 0 0 24.230322
0.19187945 7.3370605 1.5718004 1598.75 0 0 0 25.306465
0.74330437 7.392005 1.5904311 1393.25 0 0 0 26.480877
1.2412827 7.3138418 1.5417247 1460.5 0 0 0 27.557039
1.7336878 7.3961105 1.5775223 1520.6666 0 0 0 28.535431
2.2400401 7.4491997 1.6136678 1522 0 0 0 29.507425
2.6577759 7.4727697 1.6441004 883.5 0 0 0 30.292671
3.7546937 7.4707055 1.5236533 919.5 0 0 0 32.242699
23.78512 7.338769 1.989639 135 0 0 0 44.966179
-46.039921 7.6483121 1.7011963 19 0 0 0 2.34466
-8.8912487 7.8629141 1.8912853 426 0 0 0 11.33377
-7.2173786 7.7537141 1.9483706 379 0 0 0 12.89538
-6.793416 7.8565292 1.9102445 309.5 0 0 0 13.480785
-6.287744 7.8283486 1.5996968 586 0 0 0 14.06912
2.1680908 7.9020824 1.8990483 148.5 0 0 0 29.118614
2.5818789 7.5560675 1.8506821 110 0 0 0 30.09411
3.4368584 7.524601 1.5082138 1308 0 0 0 31.66383
8.4951248 7.8344159 1.5125072 663 0 0 0 37.926567
-27.903292 8.2283421 1.7768383 61 0 0 0 4.3013101
-6.3035078 8.0482292 1.7554984 580 0 0 0 14.26793
-27.856253 9.7210817 1.8001224 70 0 0 0 5.0771499
-15.290839 10.003962 1.569124 21 0 0 0 8.99265
-28.274118 10.651741 1.8419667 58 0 0 0 5.4677
-29.784195 12.064854 1.9565144 40 0 0 0 5.86307
-28.932814 13.404997 1.9392275 25 0 0 0 6.6402202
-11.526748 -21.588223 2.0326824 34 0 0 0 82.54052
17.524698 -18.34848 2.0672655 22 0 0 0 62.566139
-34.233074 -16.175627 2.1609766 24 0 0 0 92.721695
37.258247 -15.321514 2.2252939 11 0 0 0 55.903019
17.605545 -14.397469 2.4039631 46 0 0 0 60.607922
18.075378 -14.054092 2.4188428 24 0 0 0 60.215153
37.558495 -13.326142 2.1982703 16 0 0 0 55.1292
-1.2614542 -12.850586 2.0377252 172 0 0 0 76.280113
4.2107191 -12.725338 2.4390047 246 0 0 0 69.610085
4.5637259 -12.734155 2.4605498 181 0 0 0 69.219597
18.099693 -12.044068 2.2955327 28 0 0 0 59.032009
37.102547 -12.145743 2.1524904 7 0 0 0 54.733727
-10.194926 -11.828687 2.4562833 41 0 0 0 86.068863
2.3433652 -11.763837 2.4835837 191 0 0 0 71.574669
5.6798882 -11.993506 2.0836768 47 0 0 0 67.657585
6.7391691 -11.878991 2.1415341 240 0 0 0 66.477798
7.7547545 -11.587055 2.183557 216 0 0 0 65.312088
15.742429 -11.634668 2.072289 41 0 0 0 59.821487
16.551956 -11.613531 2.1384096 8 0 0 0 59.429981
-9.2087641 -11.230349 2.2869799 43 0 0 0 85.669151
-1.0859735 -11.042727 2.1663966 228.5 0 0 0 76.280113
2.6911836 -11.311447 2.1219864 226 0 0 0 70.988594
37.966072 -11.402197 2.1834552 6 0 0 0 54.34959
-9.8845301 -10.914598 2.3178265 21 0 0 0 86.468842
-2.0987625 -10.559701 2.2355759 669 0 0 0 77.840523
-1.904793 -10.990108 2.3148699 186 0 0 0 77.453506
-0.77686059 -10.542203 2.1950784 234 0 0 0 75.885582
0.13170324 -10.539741 2.4462771 391.5 0 0 0 74.512833
2.1870275 -10.988731 2.0465288 283 0 0 0 71.574669
2.9820919 -10.770788 2.177309 359.5 0 0 0 70.404312
3.2601116 -10.742586 2.048681 219 0 0 0 70.008469
6.1115274 -10.776757 2.2525253 224 0 0 0 66.477798
6.6823335 -10.54022 2.2676871 237 0 0 0 65.700859
18.954447 -10.685472 2.2944374 41 0 0 0 57.856701
38.972137 -10.666302 2.223196 8 0 0 0 53.955608
-3.8551476 -10.006701 2.4891429 20 0 0 0 80.577026
-2.1517553 -10.183187 2.4168701 353 0 0 0 78.036598
-1.6545315 -10.295475 2.2937207 487 0 0 0 77.258194
-1.1883798 -10.351485 2.3340998 246.33333 0 0 0 76.543068
0.77092987 -10.434704 2.3007574 235 0 0 0 73.531197
1.0137895 -10.294554 2.1475627 195 0 0 0 73.141937
6.7186375 -10.044542 2.1963782 211 0 0 0 65.312088
7.0983596 -10.066895 2.2375791 313 0 0 0 64.913063
8.6577053 -10.019273 2.4003885 103 0 0 0 63.341248
17.332777 -10.343117 2.1319447 73 0 0 0 58.258327
-9.6519861 -9.6591501 2.3203118 208 0 0 0 87.252647
-4.18502 -9.8801889 2.3152804 41 0 0 0 81.105865
0.23549794 -9.6463566 2.0059345 399 0 0 0 74.320847
6.6753545 -9.979372 2.477845 144 0 0 0 65.312088
39.419758 -9.7530661 2.232547 17 0 0 0 53.55909
-9.8848696 -9.4179716 2.1507461 116 0 0 0 87.638367
-6.316936 -9.4610977 2.080409 26 0 0 0 84.098038
-5.7116251 -9.0296354 2.479676 45 0 0 0 83.713638
-5.2902064 -9.0823574 2.1832552 508 0 0 0 83.132034
-4.8489165 -9.3509579 2.1880441 72.5 0 0 0 82.344864
-4.2741585 -9.0419645 2.0790317 86 0 0 0 81.76255
-0.22760464 -9.2759247 2.1572268 521 0 0 0 75.093872
6.8992929 -9.2937794 2.104202 100 0 0 0 64.518166
16.961491 -9.0220537 2.0292408 32 0 0 0 57.47076
-5.6794281 -8.9750662 2.2055488 82 0 0 0 83.713638
-4.6980467 -8.5419397 2.265594 115.5 0 0 0 82.739571
-3.707535 -8.6597786 2.4214101 82.5 0 0 0 81.172287
18.821394 -8.8504267 2.1919947 115 0 0 0 56.682861
-6.0975962 -8.2272377 2.127341 69 0 0 0 84.88765
-5.0537362 -8.4401379 2.2856796 225 0 0 0 83.325455
-4.2984772 -8.2921915 2.4009936 170 0 0 0 82.344864
-3.9824808 -8.4278793 2.3961501 36 0 0 0 81.76255
18.839674 -8.2993793 2.1691723 31 0 0 0 56.298561
-5.0439529 -7.9730272 2.4245594 65 0 0 0 83.713638
18.713549 -7.6999059 2.1319499 64 0 0 0 55.903019
-5.1925087 -7.0077043 2.0297151 446 0 0 0 84.88765
-4.5354357 -7.1682901 2.3934081 137 0 0 0 83.713638
18.32332 -7.0176382 2.0675011 42 0 0 0 55.51342
-5.1928954 -6.827744 2.0998306 353 0 0 0 85.08149
-4.707346 -6.8667336 2.143199 256.5 0 0 0 84.294785
16.720669 -6.8780355 2.3539131 48 0 0 0 55.903019
17.216827 -6.5910478 2.3986886 27 0 0 0 55.51342
-11.989062 -6.0368714 2.4435437 7 0 0 0 92.329552
-5.6292233 -6.2169881 2.3662224 189 0 0 0 86.468842
-5.2401004 -6.1552439 2.1308413 326 0 0 0 85.968994
-4.7613077 -6.2672358 2.3178101 52 0 0 0 85.08149
-4.4957781 -6.0689483 2.3196251 129 0 0 0 84.88765
-12.131551 -5.7394357 2.4427872 53 0 0 0 92.721695
-11.886404 -5.9852343 2.0936999 55 0 0 0 92.329552
-7.9586205 -5.6102319 2.2605369 648.33331 0 0 0 89.987007
-7.0357404 -5.780179 2.339756 103 0 0 0 88.806404
-6.4052124 -5.811409 2.4387329 144 0 0 0 88.024734
-5.8251586 -5.7352142 2.1708391 188.66667 0 0 0 87.381226
-5.3036613 -5.7166958 2.3938789 161 0 0 0 86.661125
-4.8272667 -5.8883047 2.4310846 71.5 0 0 0 85.669151
-1.7553451 -5.5340328 2.0768127 339 0 0 0 79.598885
-8.1605778 -5.4573278 2.1590409 532.5 0 0 0 90.389168
-6.4994426 -5.0776882 2.326874 160 0 0 0 89.203682
-5.7800112 -5.3760848 2.2757213 414 0 0 0 87.831551
-5.1486831 -5.1555338 2.2385144 98 0 0 0 87.252647
-4.9998794 -5.2564983 2.0509226 205 0 0 0 86.853409
-1.7321242 -5.387188 2.1160071 466 0 0 0 79.668358
-1.4808823 -5.3455358 2.1197212 307 0 0 0 79.010727
2.7772577 -5.2082863 2.1079707 519.5 0 0 0 66.874443
3.2146983 -5.1675568 2.1302667 473.57144 0 0 0 65.810844
3.5588701 -5.0661626 2.0576315 629 0 0 0 64.913063
-5.7217689 -4.7796688 2.3495765 120 0 0 0 88.677406
-4.6123257 -4.7359943 2.2802262 155.5 0 0 0 87.053024
-4.0663781 -4.9621935 2.4470048 75 0 0 0 85.669151
-13.395128 -4.0618515 2.1978908 49 0 0 0 95.078308
-11.372133 -4.0690675 2.4978366 17 0 0 0 94.29837
-4.530549 -4.1133566 2.1856992 101 0 0 0 88.024734
-13.524717 -3.7406986 2.2029748 52 0 0 0 95.459251
-12.461591 -3.7789798 2.369427 63 0 0 0 95.078308
-11.329574 -3.7424126 2.4677072 33 0 0 0 94.694611
-10.364186 2.487793 2.4830713 66 0 0 0 3.52074
-10.638354 2.5562251 2.2837336 53 0 0 0 3.52074
-10.75137 3.4316807 2.0804749 57 0 0 0 4.69173
-10.336816 3.2980599 2.264807 128 0 0 0 4.69173
-9.8788509 3.4160039 2.4352992 181 0 0 0 5.0771499
-6.7585669 3.3887029 2.1310828 460.5 0 0 0 7.2305698
30.525396 3.12939 2.4478884 20 0 0 0 48.089287
-10.990943 3.8069229 2.1439116 115 0 0 0 5.0771499
-10.221629 3.5377357 2.2577636 80 0 0 0 5.0771499
-9.8369398 3.6723235 2.4463062 89 0 0 0 5.4677
-7.1751294 3.7132668 2.473624 337 0 0 0 7.42383
-6.8499055 3.7569237 2.3920372 394 0 0 0 7.8172598
-6.3589478 3.7314274 2.1882741 672.79999 0 0 0 8.2867994
30.544609 3.8933153 2.4556437 50 0 0 0 47.7061
-11.497058 4.3013778 2.2620149 88 0 0 0 5.4677
-10.884709 4.0701618 2.4252262 128 0 0 0 5.4677
-6.6307487 4.1797194 2.4004426 393 0 0 0 8.7945595
-6.272954 4.2834902 2.188931 567.5 0 0 0 9.3803673
-11.239737 4.5199733 2.2323358 88 0 0 0 5.86307
-6.3198042 4.6621833 2.1666589 530.5 0 0 0 9.9666653
30.548592 4.6607432 2.4637144 25 0 0 0 47.303432
30.514641 5.4273815 2.4703681 21 0 0 0 46.9151
-6.9368858 6.4230437 2.2015162 57 0 0 0 11.72359
8.0040302 6.041348 2.0620394 71 0 0 0 39.486679
-8.0453796 6.7609172 2.446646 91 0 0 0 10.93703
-3.7396414 7.1340179 2.467598 81 0 0 0 17.199591
-3.3272595 7.1791182 2.42419 40 0 0 0 17.971649
0.60814339 7.4193392 2.1883912 78 0 0 0 26.19191
1.7536782 7.4821715 2.3526638 78.333336 0 0 0 28.535431
-7.6581612 7.8378897 2.0153825 66 0 0 0 12.50726
-7.1325083 7.6621585 2.1813803 297 0 0 0 12.89538
-6.7709479 7.7638021 2.2314284 527 0 0 0 13.416313
2.5870643 7.5679488 2.1496992 30.5 0 0 0 30.09411
3.2541788 7.6146045 2.3268216 50 0 0 0 31.262659
4.4856534 7.6919699 2.2764277 7 0 0 0 33.227428
4.7510161 7.7010145 2.3124704 15 0 0 0 33.6166
-27.891823 8.220192 2.4973671 70 0 0 0 4.3013101
-8.7473936 8.1269588 2.1955957 55 0 0 0 11.72359
-6.7240915 8.3831902 2.237978 169 0 0 0 14.06912
-9.6316214 8.9577065 2.093555 212 0 0 0 11.72359
37.745796 8.6396809 2.1111178 18 0 0 0 46.136871
-4.4689679 9.1094027 2.3573399 90 0 0 0 17.58638
37.518665 9.5652952 2.1104476 20 0 0 0 45.744099
43.409584 -30.427208 2.9397087 14 0 0 0 59.429981
-11.408807 -29.631025 2.6280735 5 0 0 0 80.577026
-12.646702 -28.574736 2.5866966 10 0 0 0 81.371559
46.005249 -27.426023 2.9619303 13 0 0 0 58.258327
45.813808 -24.343449 2.8651404 16 0 0 0 57.47076
18.917034 -17.948139 2.7548103 19 0 0 0 61.776009
5.6966615 -15.878699 2.6427305 129 0 0 0 69.219597
6.6907797 -15.05746 2.9875133 33 0 0 0 68.044785
7.3339152 -14.536431 2.9509766 44 0 0 0 67.267273
15.465991 -14.674184 2.7832882 20 0 0 0 61.776009
17.644081 -14.422859 2.9694669 25 0 0 0 60.607922
-1.0186694 -13.89452 2.5404253 25 0 0 0 75.885582
15.486951 -13.987464 2.7241933 27 0 0 0 61.389721
17.966873 -13.963994 2.9640877 24 0 0 0 60.215153
2.9441063 -13.080977 2.7718108 84 0 0 0 71.187355
5.0968099 -13.187677 2.9173477 225 0 0 0 68.833549
5.5409446 -13.351934 2.6258883 310 0 0 0 68.439583
-0.62386608 -12.793822 2.6529779 114 0 0 0 75.494362
1.5658101 -12.655497 2.6396289 76 0 0 0 72.747261
6.8045735 -12.706749 2.9703665 106 0 0 0 66.87635
0.60721469 -12.234376 2.8372383 119 0 0 0 73.918411
2.1301332 -12.236382 2.8748295 59 0 0 0 71.966949
3.0964897 -12.330285 2.9403331 315 0 0 0 70.789833
3.6714957 -12.08603 2.6115696 224 0 0 0 70.008469
6.4985604 -12.138877 2.5001988 202 0 0 0 66.87635
6.9716272 -12.284811 2.9108915 72 0 0 0 66.477798
17.674637 -12.393951 2.8118055 21 0 0 0 59.429981
-9.2986059 -11.925709 2.7542267 37 0 0 0 85.27533
-0.56293988 -11.556041 2.6822805 172 0 0 0 75.494362
2.9754369 -11.862461 2.5306177 211 0 0 0 70.789833
5.204484 -11.718992 2.9616852 153 0 0 0 68.044785
8.1637411 -11.569988 2.9154859 132 0 0 0 64.913063
-1.6369481 -11.064622 2.5946066 287 0 0 0 77.062874
-1.089711 -11.108463 2.8628411 360 0 0 0 76.280113
-0.72537857 -11.126536 2.7694111 107.66666 0 0 0 75.75518
-0.26703146 -11.039229 2.8321848 111 0 0 0 75.093872
0.28532648 -11.429671 2.9309776 150 0 0 0 74.320847
0.85053903 -11.463822 2.9463348 149 0 0 0 73.531197
5.2468219 -11.075623 2.8316751 62 0 0 0 67.657585
6.2806811 -11.067204 2.9372649 310 0 0 0 66.477798
7.0709076 -11.149345 2.721838 107 0 0 0 65.700859
17.733175 -11.176658 2.7294734 41 0 0 0 58.643822
-9.6112566 -10.61289 2.960773 61 0 0 0 86.468842
-9.3460455 -10.843617 2.9604659 75 0 0 0 86.068863
-4.1905169 -10.880136 2.9895587 472 0 0 0 80.577026
-1.7292316 -10.768332 2.7984495 107 0 0 0 77.258194
1.1919649 -10.723521 2.7672739 261.5 0 0 0 72.944595
1.597389 -10.747096 2.5192862 88 0 0 0 72.36264
2.3453934 -10.834039 2.7488945 326 0 0 0 71.31646
2.9719262 -10.724281 2.7140603 321.5 0 0 0 70.404312
8.8331232 -10.742744 2.6910694 131 0 0 0 63.743767
9.6243591 -10.596464 2.5913849 123 0 0 0 62.948833
-9.8268852 -10.329525 2.9480557 33 0 0 0 86.853409
-1.9923065 -10.031618 2.6260915 11 0 0 0 77.840523
1.5208693 -10.235998 2.7818794 350 0 0 0 72.36264
9.7799921 -10.249379 2.9131186 27 0 0 0 62.566139
15.518926 -10.325417 2.8937318 27 0 0 0 59.032009
-9.6597834 -9.6670046 2.8269382 206 0 0 0 87.252647
-2.4943805 -9.9720974 2.6393168 216 0 0 0 78.627411
0.95661193 -9.679862 2.978205 256 0 0 0 73.141937
1.663902 -9.5713644 2.973881 283 0 0 0 71.966949
6.3185844 -9.9637747 2.7248735 163 0 0 0 65.700859
6.8727918 -9.7434063 2.7524157 318 0 0 0 64.913063
7.3705835 -9.9226704 2.7011008 199 0 0 0 64.518166
7.7250433 -9.6318512 2.8478713 129.5 0 0 0 63.935593
8.2951097 -9.600687 2.6138129 232 0 0 0 63.341248
16.512012 -9.8493738 2.9819424 21 0 0 0 58.258327
-11.043332 -9.0689745 2.9533758 41 0 0 0 88.806404
-5.4109297 -9.0377626 2.8341689 386.5 0 0 0 83.325455
0.70231944 -9.4842873 2.912663 255 0 0 0 73.531197
1.1350807 -9.1867495 2.8355255 362 0 0 0 72.747261
1.5988861 -9.2136507 2.6339605 282 0 0 0 71.966949
8.2047997 -9.4926081 2.8924394 148 0 0 0 63.341248
8.5849113 -9.4516621 2.942332 20 0 0 0 62.948833
17.791813 -9.4580183 2.6224968 39 0 0 0 57.47076
18.950716 -8.9064951 2.7220292 46 0 0 0 56.682861
-4.056747 -8.0664282 2.5458705 188 0 0 0 82.149208
-3.7721071 -8.2386932 2.5550556 107 0 0 0 81.567055
-3.3378248 -8.0683451 2.6774478 266 0 0 0 80.973022
-1.3938355 -8.0494423 2.9086876 77 0 0 0 77.453506
16.553576 -8.2851744 2.8700426 29 0 0 0 57.079033
-3.7667634 -7.8058887 2.7277081 125.33334 0 0 0 81.891441
-3.3957248 -7.6735129 2.986918 65 0 0 0 81.371559
-5.5853696 -7.1640487 2.5606394 180 0 0 0 85.27533
-4.9449229 -7.4074731 2.511384 67 0 0 0 84.098038
17.470467 -7.1851754 2.9257264 53 0 0 0 55.903019
20.674849 -7.3334599 2.8463044 28 0 0 0 55.1292
-14.792688 -6.557899 2.9376733 37 0 0 0 93.114235
34.427483 -6.7349782 2.8048947 52 0 0 0 52.781879
-11.953051 -6.0187192 2.7653868 35 0 0 0 92.329552
-11.880762 -5.6208253 2.7162046 19 0 0 0 92.721695
-7.9361753 -5.7438965 2.7561064 313.25 0 0 0 89.791283
-5.1925278 -5.7345409 2.5660298 274 0 0 0 86.468842
-4.9059896 -5.6945953 2.5854468 332 0 0 0 86.068863
-4.4390192 -5.9946275 2.8404691 259 0 0 0 84.88765
-12.112488 -5.3702765 2.7375958 44 0 0 0 93.114235
-11.577559 -5.4799051 2.9613183 20 0 0 0 92.721695
-8.2055464 -5.4883838 2.7782929 411 0 0 0 90.389168
-6.7176342 -5.2499943 2.6136317 21 0 0 0 89.203682
-6.2774029 -5.1599708 2.6875792 69 0 0 0 88.806404
-5.5926886 -5.0741935 2.5053058 39 0 0 0 88.024734
-5.251513 -5.0900869 2.7246799 164.66667 0 0 0 87.509796
-4.3459516 -5.0459599 2.5389438 96 0 0 0 86.068863
-7.3194299 -4.8977561 2.6984472 106 0 0 0 90.389168
-6.3385992 -4.9520502 2.6663513 135 0 0 0 89.203682
-5.7597451 -4.8148909 2.7358541 93 0 0 0 88.680824
-5.3763108 -4.8812971 2.7656999 88 0 0 0 88.024734
-4.4732056 -4.9432583 2.5416472 188 0 0 0 86.468842
-6.3244081 -4.0125766 2.6681204 74 0 0 0 90.775322
-5.5945849 -4.3740501 2.7052794 191 0 0 0 89.203682
-5.396781 -4.2233377 2.6124067 103.5 0 0 0 89.200981
-13.642245 -3.7731643 2.5720606 62 0 0 0 95.459251
-11.937164 -3.6200678 2.5780053 47 0 0 0 95.078308
-11.137653 -3.8331389 2.7250276 38.5 0 0 0 94.49649
-10.896115 -3.6014314 2.9371638 29 0 0 0 94.694611
-5.9327121 -3.9717214 2.5447912 132 0 0 0 90.389168
-5.4056821 -3.8144317 2.522382 269 0 0 0 89.987007
-11.878508 -3.2868476 2.6974247 54.5 0 0 0 95.459251
-11.426711 -3.4675667 2.7615664 55 0 0 0 95.078308
-11.862286 -2.971561 2.8267317 34 0 0 0 95.857025
-10.234086 2.4564328 2.9665911 148 0 0 0 3.52074
-10.875397 2.6121442 2.8776803 51 0 0 0 3.52074
-10.194137 2.9788911 2.9938481 69 0 0 0 4.3013101
-9.8975229 2.6310194 2.6347837 127 0 0 0 3.90657
35.778934 2.7791364 2.8573658 29 0 0 0 48.47982
-11.661982 3.4146223 2.53599 51 0 0 0 4.3013101
-11.172141 3.2679727 2.9951351 307 0 0 0 4.3013101
-10.024384 3.1956985 2.7070847 89 0 0 0 4.69173
-9.9697151 3.4480557 2.7142611 91 0 0 0 5.0771499
-10.583496 3.9547656 2.9071183 45 0 0 0 5.4677
-9.9460487 3.9930713 2.7576814 613 0 0 0 5.86307
-7.0604143 3.8762972 2.6632538 107 0 0 0 7.8172598
-6.593102 3.827883 2.5206664 557 0 0 0 8.2118998
-10.525501 4.2282038 2.6424913 78 0 0 0 5.86307
-9.9181061 4.2656374 2.6457663 84.5 0 0 0 6.2586899
-6.6646552 4.2000933 2.7963457 295.5 0 0 0 8.7945595
-6.35777 4.2290106 2.5253327 592.5 0 0 0 9.1868849
-11.36493 4.5712109 2.5561075 63 0 0 0 5.86307
-7.6559634 5.8127027 2.9442053 83 0 0 0 10.16675
-7.2800255 5.8108039 2.7377591 372.5 0 0 0 10.55087
-6.5338478 5.7522321 2.6663656 68 0 0 0 11.33377
-6.3236847 5.8476272 2.7412753 132 0 0 0 11.72359
-45.436836 6.4081364 2.7939796 12 0 0 0 1.95541
-29.784681 6.4474154 2.6181517 48 0 0 0 3.1305201
-8.1251726 6.495841 2.6756518 271 0 0 0 10.55087
-6.6008511 6.4157672 2.8193316 123 0 0 0 12.11593
-6.203424 6.3311181 2.9330654 78.666664 0 0 0 12.50619
30.905016 6.2852006 2.5126088 7 0 0 0 46.53146
-28.860603 6.990664 2.5511918 47 0 0 0 3.52074
-7.8068986 6.6690369 2.7256565 182.66667 0 0 0 11.069276
-7.4660802 6.9224539 2.8695002 346 0 0 0 11.72359
-6.4546289 6.5881672 2.8248131 142 0 0 0 12.50726
-8.4402122 7.4590502 2.6214957 106 0 0 0 11.33377
-7.212419 7.0216417 2.8368342 222 0 0 0 12.11593
-45.368568 7.5366635 2.7999041 21 0 0 0 2.34466
-28.241848 7.5770311 2.511874 20 0 0 0 3.90657
-7.366776 7.9158769 2.5158682 148 0 0 0 12.89538
-8.8190346 8.195322 2.5080419 80 0 0 0 11.72359
-8.1750937 8.374136 2.8640044 80 0 0 0 12.50726
-45.281002 8.667407 2.8062716 26 0 0 0 2.74263
-27.77286 8.9300823 2.504775 71 0 0 0 4.69173
-8.8130827 8.6014872 2.8644588 90 0 0 0 12.11593
34.982517 8.9257765 2.8700521 19 0 0 0 45.744099
-10.240831 9.0733099 2.8492546 62 0 0 0 11.33377
-8.8198681 9.0448456 2.63027 80 0 0 0 12.50726
-27.858612 9.7171659 2.5322084 78 0 0 0 5.0771499
-10.179423 9.9537888 2.9632154 58 0 0 0 12.11593
-9.7557755 9.5339432 2.5057271 70 0 0 0 12.11593
35.741634 10.062172 2.9503045 27 0 0 0 45.358047
-28.323875 10.665737 2.596087 67 0 0 0 5.4677
-29.799112 12.065825 2.7553582 42 0 0 0 5.86307
-12.510474 13.52352 2.9226198 141 0 0 0 12.89538
-28.386122 14.001219 2.7094378 39 0 0 0 7.0373101
-15.196891 14.190765 2.7870622 56 0 0 0 11.72359
-28.733139 15.060362 2.7751286 45 0 0 0 7.42383
-19.957903 25.134106 2.7125783 49 0 0 0 14.06912
-19.405725 25.710159 2.7199819 59 0 0 0 14.46674
-18.863277 26.310722 2.731071 70 0 0 0 14.84939
45.526962 -30.269064 3.0279372 8 0 0 0 59.032009
-12.271963 -27.728271 3.2473881 10 0 0 0 81.371559
-32.21228 -18.244045 3.0386546 15 0 0 0 91.556473
-34.198906 -17.207342 3.1388812 9 0 0 0 92.329552
17.426325 -17.362459 3.2071075 20 0 0 0 62.171913
-11.248623 -16.854164 3.179034 36 0 0 0 84.098038
7.8828945 -16.620119 3.3304024 33 0 0 0 67.657585
-11.379948 -16.175856 3.1034021 16 0 0 0 84.491531
-10.636055 -15.11815 3.3599157 18 0 0 0 84.491531
5.060885 -15.276908 3.3175528 121 0 0 0 69.610085
7.2272186 -15.241353 3.4718144 73 0 0 0 67.657585
-11.0198 -14.873649 3.3643966 42 0 0 0 84.88765
2.7247796 -13.644854 3.2161686 208 0 0 0 71.574669
4.5591893 -13.760676 3.3463416 183 0 0 0 69.610085
15.192027 -13.720851 3.1798282 19 0 0 0 61.389721
1.3041359 -13.154867 3.0588505 132 0 0 0 73.141937
5.0355983 -13.022038 3.2229877 170 0 0 0 68.833549
37.303535 -13.227596 3.1694689 21 0 0 0 55.1292
-8.64814 -12.956096 3.2197034 82 0 0 0 84.098038
5.2206802 -12.575348 3.1434119 114 0 0 0 68.439583
14.986901 -12.881913 3.0701311 30 0 0 0 60.997398
16.194458 -12.588662 3.1833456 9 0 0 0 60.215153
22.873392 -12.883746 3.4067693 17 0 0 0 57.856701
0.90820485 -12.217512 3.4421711 116 0 0 0 73.531197
1.1904968 -12.019496 3.3938022 146 0 0 0 73.141937
3.1068838 -12.369556 3.2626359 170 0 0 0 70.789833
3.7957759 -12.482954 3.0157003 82 0 0 0 70.008469
5.163918 -12.438092 3.4400964 140 0 0 0 68.439583
5.7728553 -12.178797 3.4415677 140 0 0 0 67.657585
6.1074114 -12.107206 3.2950125 96.5 0 0 0 67.267273
17.761997 -12.454282 3.3626404 43 0 0 0 59.429981
-9.2388115 -11.849098 3.1061192 64 0 0 0 85.27533
-6.6262727 -11.713933 3.4456847 115 0 0 0 82.938622
0.0053169159 -11.550243 3.2475417 47 0 0 0 74.704819
1.4243222 -11.502502 3.2577298 69 0 0 0 72.747261
2.0597284 -11.833962 3.0760903 212 0 0 0 71.966949
3.8595481 -11.658332 3.4463315 78 0 0 0 69.610085
6.3732052 -11.898767 3.1141684 123 0 0 0 66.87635
7.7764778 -11.612317 3.2207022 187 0 0 0 65.312088
9.3016291 -11.892809 3.1049397 120 0 0 0 64.127419
-0.27518466 -11.415345 3.2110476 21 0 0 0 75.093872
0.28287914 -11.325693 3.1858211 172 0 0 0 74.320847
0.55593598 -11.221579 3.159503 199 0 0 0 73.918411
6.2135191 -11.265707 3.2857115 140.5 0 0 0 66.677078
17.681284 -11.143325 3.2391396 60 0 0 0 58.643822
0.27395517 -10.908781 3.3378415 161 0 0 0 74.320847
0.78029698 -10.526929 3.4904654 231 0 0 0 73.531197
2.7527761 -10.964401 3.3153119 140 0 0 0 70.789833
3.0096016 -10.856889 3.1652312 58 0 0 0 70.404312
3.7231998 -10.799295 3.4888606 263 0 0 0 69.414841
7.1112905 -10.622309 3.2627375 141 0 0 0 65.312088
16.116076 -10.721004 3.4829819 27 0 0 0 59.032009
-9.2344608 -10.200348 3.1829948 103 0 0 0 86.468842
0.26030833 -10.458426 3.4598882 56 0 0 0 74.320847
0.51439679 -10.385815 3.3093104 324.5 0 0 0 73.918411
1.551975 -10.42648 3.2245545 146 0 0 0 72.36264
2.1999106 -10.358006 3.2383454 394.5 0 0 0 71.381012
9.2137403 -10.140436 3.4911544 116 0 0 0 62.948833
15.879138 -10.009579 3.3779371 29 0 0 0 58.643822
18.223755 -10.26899 3.240077 24 0 0 0 57.856701
-15.003232 -9.5048685 3.2237542 13 0 0 0 90.775322
-9.1763201 -9.6489582 3.0811527 77 0 0 0 86.853409
-5.3941283 -9.5334482 3.0819676 220 0 0 0 82.938622
0.9418453 -9.5473356 3.1749508 120 0 0 0 73.141937
1.7302563 -9.9560556 3.3419631 182 0 0 0 71.966949
6.2998247 -9.9335546 3.0056121 317 0 0 0 65.700859
7.2703319 -9.7856417 3.1874778 151.25 0 0 0 64.519203
16.138491 -9.6265278 3.3808544 38 0 0 0 58.258327
-14.238995 -9.0208025 3.4758105 105 0 0 0 90.775322
-9.5234852 -9.0768623 3.044183 50 0 0 0 87.638367
-5.4146018 -9.0460272 3.3567209 280 0 0 0 83.325455
-4.820735 -9.0294552 3.386354 75 0 0 0 82.54052
-3.6288657 -9.4192467 3.3401172 75 0 0 0 80.577026
1.2580373 -9.2557487 3.0920994 181.5 0 0 0 72.554947
16.622911 -9.368433 3.4315643 17 0 0 0 57.856701
17.495554 -9.3003225 3.0702062 37 0 0 0 57.47076
-10.972835 -8.5717659 3.218869 36 0 0 0 89.203682
-6.2985349 -8.5021362 3.4990602 95 0 0 0 84.88765
-5.6741867 -8.7299194 3.4441147 128 0 0 0 83.905838
-14.542281 -8.2410288 3.4462163 28 0 0 0 91.556473
3.9803843 -8.4138269 3.0775192 297 0 0 0 67.657585
-14.955155 -7.9960599 3.4955192 88 0 0 0 91.940491
5.9261642 -7.9804959 3.0357959 352 0 0 0 64.518166
17.736979 -7.8095751 3.4815738 25 0 0 0 56.298561
19.89188 -7.6119266 3.2930119 53 0 0 0 55.51342
20.620432 -7.3137288 3.3808615 21 0 0 0 55.1292
-12.280964 -6.1864042 3.176935 68 0 0 0 92.329552
-11.096457 -5.589994 3.1787124 30 0 0 0 92.329552
-7.9114928 -5.7564893 3.2839112 335 0 0 0 89.752136
-12.592834 -4.8602428 3.449199 32 0 0 0 93.900734
-8.9593487 -4.7933793 3.3589506 53 0 0 0 91.940491
-12.260738 -4.3891287 3.3286281 64 0 0 0 94.29837
-12.705618 -3.8552892 3.3925662 19 0 0 0 95.078308
-13.70354 -3.0764267 3.2408817 12 0 0 0 96.236496
-12.188414 -2.7365966 3.1931484 26 0 0 0 96.236496
-10.331119 2.2135546 3.2353179 138 0 0 0 3.1305201
30.401711 2.3620908 3.1749418 11 0 0 0 48.47982
-11.713905 2.5155365 3.3778186 64 0 0 0 3.1305201
-10.814199 2.7352443 3.4167478 67.5 0 0 0 3.713655
-10.31041 2.7423317 3.0074172 69 0 0 0 3.90657
-9.3406696 2.9722877 3.479562 57 0 0 0 4.69173
-10.631282 3.2965603 3.3192539 102.66666 0 0 0 4.5615902
-9.1489935 3.2847128 3.4510956 70 0 0 0 5.2724247
30.644735 3.1415048 3.2063932 21 0 0 0 48.089287
-10.243463 3.6853409 3.0693083 113 0 0 0 5.2724247
-9.1222429 3.6591728 3.2508616 130 0 0 0 5.86307
30.281515 3.8597012 3.1771212 14 0 0 0 47.7061
-10.331141 4.2948208 3.427568 61 0 0 0 6.0608797
-9.5085268 4.0885072 3.4239702 41 0 0 0 6.2586899
-9.0832109 4.1667209 3.0606871 85 0 0 0 6.6402202
-9.855752 4.8208971 3.3608949 101 0 0 0 7.0373101
30.686434 4.6815391 3.2294893 10 0 0 0 47.303432
30.644903 5.4502592 3.2376318 12 0 0 0 46.9151
-7.8577313 5.6704779 3.3231363 190.5 0 0 0 9.7665796
-7.1162915 5.7733493 3.2555091 118.33334 0 0 0 10.68027
-6.8194695 5.8594713 3.3031793 180.5 0 0 0 11.1354
-6.3651881 5.8853583 3.2895205 66 0 0 0 11.72359
-5.6052775 5.9957671 3.1148326 172 0 0 0 12.89538
-29.722897 6.4342656 3.349031 75 0 0 0 3.1305201
-7.7112899 6.1624265 3.2657232 169 0 0 0 10.55087
-7.0488997 6.2162614 3.1092551 92 0 0 0 11.33377
-5.6443443 6.3450489 3.117352 157.5 0 0 0 13.28737
-28.750706 6.9642816 3.2576866 49 0 0 0 3.52074
-6.2183042 6.6633401 3.2371943 82 0 0 0 12.89538
-5.5592365 6.5679178 3.2658503 63 0 0 0 13.6742
-8.0683393 7.1277533 3.0340915 247 0 0 0 11.33377
-6.1893482 7.3278399 3.2885525 98 0 0 0 13.6742
-5.8798561 7.3124084 3.332813 35 0 0 0 14.06912
-28.164371 7.5565796 3.2109492 83 0 0 0 3.90657
-6.0372963 7.5160751 3.1892042 90 0 0 0 14.06912
-5.8246832 7.6235809 3.290436 48.5 0 0 0 14.46674
-27.852406 8.2090273 3.1968074 137 0 0 0 4.3013101
-7.7419558 8.3270855 3.2031646 96 0 0 0 12.89538
-4.7406535 8.0852804 3.3288417 6 0 0 0 16.407789
-27.753376 8.9243755 3.208827 90 0 0 0 4.69173
-8.234767 8.8633804 3.1089284 90 0 0 0 12.89538
38.125751 8.7330656 3.1067703 22 0 0 0 46.136871
-9.6295328 9.4093313 3.4595938 45 0 0 0 12.11593
-27.84416 9.7127781 3.2449205 77 0 0 0 5.0771499
-14.688481 14.406528 3.2642713 56 0 0 0 12.11593
-13.858708 14.272128 3.1556923 68 0 0 0 12.50726
-32.396721 -27.954182 3.5165133 9 0 0 0 88.419403
2.6181188 -17.544001 3.6585994 120 0 0 0 72.36264
-13.969463 -17.038624 3.9976087 18 0 0 0 85.669151
3.0229037 -17.33115 3.628134 63 0 0 0 71.966949
16.628098 -15.773121 3.5568218 13 0 0 0 61.776009
0.013101345 -15.423298 3.9432495 131 0 0 0 74.704819
5.3960485 -15.031438 3.6826236 80 0 0 0 69.219597
-12.733222 -14.774751 3.5422246 15 0 0 0 86.068863
4.4677029 -14.675965 3.9166336 85 0 0 0 70.008469
-13.335857 -14.018663 3.5134234 56 0 0 0 86.853409
16.772812 -14.412152 3.9788115 21 0 0 0 60.997398
4.4011178 -13.284742 3.5752447 161 0 0 0 69.610085
5.0349374 -13.018957 3.5649369 146 0 0 0 68.833549
5.8640485 -13.194779 3.6852789 19 0 0 0 68.044785
16.218941 -13.258756 3.7701244 28 0 0 0 60.607922
2.7246423 -12.824944 3.6797881 235.5 0 0 0 71.381012
4.4976039 -12.53826 3.7348716 109 0 0 0 69.219597
4.6399102 -12.934086 3.5104768 199 0 0 0 69.219597
4.7281232 -12.228597 3.6760697 133 0 0 0 68.833549
16.308578 -12.045342 3.648211 17 0 0 0 59.821487
17.743153 -12.440311 3.8957531 25 0 0 0 59.429981
-6.2149653 -11.647351 3.8689852 29 0 0 0 82.54052
-4.5043912 -11.704279 3.8327918 123 0 0 0 80.577026
-4.479681 -11.633368 3.5037239 189 0 0 0 80.577026
4.8794861 -11.752044 3.7226303 95 0 0 0 68.439583
5.569468 -11.750756 3.6447635 151 0 0 0 67.657585
7.746078 -11.565317 3.8956239 80 0 0 0 65.312088
-15.028073 -11.151793 3.8565631 5 0 0 0 89.595558
0.28036734 -11.051794 3.925396 20 0 0 0 74.320847
0.82433033 -11.050195 3.9340992 178 0 0 0 73.531197
2.7911813 -11.117657 3.7855067 204 0 0 0 70.789833
3.2106166 -11.043095 3.6546032 231 0 0 0 70.20639
4.4419589 -11.485587 3.7576241 212 0 0 0 68.833549
5.0476265 -11.359079 3.7915914 194 0 0 0 68.044785
9.1424494 -11.111586 3.6658828 66 0 0 0 63.743767
-9.1548691 -10.625695 3.9364448 63 0 0 0 86.068863
-4.7333622 -10.696928 3.7206016 126 0 0 0 81.371559
-2.7239342 -10.897463 3.7136333 114 0 0 0 78.627411
3.9370048 -10.982245 3.8506141 110 0 0 0 69.219597
4.3139524 -10.76972 3.8289971 61 0 0 0 68.636566
5.049633 -10.653891 3.5976191 206 0 0 0 67.657585
8.2392044 -10.533312 3.742348 108 0 0 0 64.127419
9.1027079 -10.526305 3.5459692 161 0 0 0 63.341248
-9.5392408 -10.030699 3.5413687 186 0 0 0 86.853409
-2.5468278 -10.201327 3.7355437 201 0 0 0 78.627411
-2.164722 -10.266407 3.8548157 137 0 0 0 78.036598
1.1382054 -10.196949 3.645021 141.5 0 0 0 72.944595
1.5037675 -10.090829 3.6240478 49 0 0 0 72.36264
4.4957929 -10.117512 3.9260647 161 0 0 0 68.044785
4.5082655 -10.155883 3.6677837 144 0 0 0 68.044785
7.3052468 -10.352008 3.5485392 125 0 0 0 64.913063
8.6142273 -10.215296 3.738951 83.5 0 0 0 63.542507
-17.257404 -9.7791891 3.5953705 35 0 0 0 91.556473
-16.333344 -9.7934446 3.9222229 60 0 0 0 91.162521
-4.6750827 -9.5918379 3.6585035 113.5 0 0 0 81.955879
-4.0378184 -9.7712383 3.7560036 13 0 0 0 80.973022
-3.7370632 -9.7114525 3.6971641 236 0 0 0 80.577026
1.6834013 -9.6665049 3.7265475 101 0 0 0 71.966949
2.4974394 -9.940444 3.8903503 154 0 0 0 70.789833
2.9736805 -9.7780113 3.8787251 66 0 0 0 70.008469
4.7088957 -9.9327879 3.8979278 188 0 0 0 67.657585
7.5756907 -9.6843634 3.7461855 189 0 0 0 64.127419
15.588698 -9.8263578 3.7705517 43 0 0 0 58.643822
-10.59473 -9.1485548 3.9273241 78 0 0 0 88.419403
-5.3271809 -9.1553555 3.6330278 115.5 0 0 0 83.132034
-4.8418865 -9.3512335 3.741209 204 0 0 0 82.344864
3.0454545 -9.2008343 3.6795206 144 0 0 0 69.610085
4.430347 -9.3479586 3.9236286 199 0 0 0 67.657585
15.769439 -9.406373 3.7565331 46 0 0 0 58.258327
-4.6896124 -8.7912312 3.7850208 47 0 0 0 82.54052
3.1931932 -8.9097233 3.5937724 126 0 0 0 69.219597
4.3396807 -8.6080742 3.6583877 142 0 0 0 67.267273
4.8281221 -8.7598457 3.6704478 178.5 0 0 0 66.677078
17.174061 -8.593832 3.9247723 17 0 0 0 57.079033
-14.10649 -8.4618959 3.7949185 113 0 0 0 91.162521
-6.3628578 -8.3779869 3.7370372 51.5 0 0 0 85.08149
-5.5851154 -8.3743162 3.5768619 26 0 0 0 84.098038
-5.3236585 -8.4227819 3.5410774 84 0 0 0 83.713638
-14.729548 -6.5329299 3.7160382 31 0 0 0 93.114235
17.970278 -6.8774009 3.92927 24 0 0 0 55.51342
34.319859 -6.7134924 3.6463373 32 0 0 0 52.781879
-11.949991 -6.0197086 3.7528243 32 0 0 0 92.329552
-8.3790779 -5.6085763 3.8277922 157 0 0 0 90.389168
-13.116735 -5.4362669 3.8019812 31.5 0 0 0 93.509216
-8.5218649 -5.4059272 3.831043 44 0 0 0 90.775322
-8.327527 -5.000247 3.688426 97 0 0 0 91.162521
-12.008538 -4.6348624 3.6104026 13 0 0 0 93.900734
-12.195723 -4.1970606 3.6174388 48.5 0 0 0 94.49649
-12.995255 -3.5967565 3.7792959 38 0 0 0 95.459251
-12.488356 -3.7917664 3.9803102 41 0 0 0 95.078308
-10.827226 1.772993 3.8950975 49 0 0 0 2.34466
-10.770593 2.0377672 3.6255274 52 0 0 0 2.74263
-10.413291 2.3663538 3.5321651 34.5 0 0 0 3.3256302
-9.0895472 2.8915105 3.6169312 47 0 0 0 4.69173
-10.814379 3.1627483 3.727679 108 0 0 0 4.3013101
-8.8585558 3.3005347 3.5850344 99 0 0 0 5.4677
-10.242528 3.8267436 3.6174259 100 0 0 0 5.4677
-9.3611107 3.7527866 3.5810184 89 0 0 0 5.86307
-10.277386 4.7242522 3.7427578 156 0 0 0 6.6402202
-9.1886501 4.6302509 3.9045317 123 0 0 0 7.2305698
-8.7924118 4.839653 3.6878905 60.5 0 0 0 7.8172598
-8.3647394 4.8716645 3.672642 30 0 0 0 8.2118998
30.086102 4.5953121 3.9163101 11 0 0 0 47.303432
-9.930522 5.1613789 3.9756052 42 0 0 0 7.42383
-8.9135323 5.4925137 3.9733856 203 0 0 0 8.5964699
-8.3187752 5.4067297 3.7647946 182 0 0 0 8.99265
-8.1849022 5.7571139 3.6761055 118.5 0 0 0 9.5738497
-7.8671932 5.9745498 3.5085809 353 0 0 0 10.16675
-8.5045729 6.4694996 3.535392 37 0 0 0 10.16675
-28.739578 6.9566402 3.9811499 16 0 0 0 3.52074
-7.101213 6.9102702 3.760488 29 0 0 0 12.11593
-7.5663013 7.3689299 3.751375 57 0 0 0 12.11593
-45.759052 7.5937343 3.976151 20 0 0 0 2.34466
-28.110588 7.5372763 3.9181097 75 0 0 0 3.90657
-7.5119009 7.684752 3.8168852 75 0 0 0 12.50726
34.683495 7.9454217 3.6946974 22 0 0 0 46.136871
-27.829866 8.1976042 3.9052625 105 0 0 0 4.3013101
-7.1388559 8.0612793 3.5618474 58 0 0 0 13.28737
-45.501453 8.701828 3.9707136 14 0 0 0 2.74263
-27.723253 8.9099178 3.9190617 99 0 0 0 4.69173
35.468273 9.0490236 3.7993162 31 0 0 0 45.744099
-27.850895 9.7103853 3.9686599 82 0 0 0 5.0771499
35.068104 9.8723354 3.7811241 29 0 0 0 45.358047
33.648804 10.373722 3.655462 34 0 0 0 44.966179
34.193539 11.470105 3.7429724 26 0 0 0 44.577259
34.829571 12.644801 3.8442214 20 0 0 0 44.185139
-18.315905 26.923565 3.5340569 56 0 0 0 15.23875
-17.744537 27.513054 3.5504179 65 0 0 0 15.63891
-12.46379 -28.176264 4.0564828 8 0 0 0 81.371559
-32.401955 -26.598217 4.4628706 54 0 0 0 88.806404
9.500782 -24.527063 4.1003623 28 0 0 0 68.833549
49.920685 -23.441565 4.4119773 15 0 0 0 56.682861
-34.198677 -17.20715 4.0687213 24 0 0 0 92.329552
-11.860024 -16.859001 4.2499123 19 0 0 0 84.491531
17.488115 -16.586014 4.3354301 17 0 0 0 61.776009
0.79201078 -15.82821 4.0503993 76 0 0 0 73.918411
16.671446 -15.052721 4.0417404 39 0 0 0 61.389721
-11.637624 -14.198996 4.2369475 26 0 0 0 85.669151
15.973984 -14.423468 4.4039793 19 0 0 0 61.389721
-14.624296 -13.933994 4.162447 40 0 0 0 87.638367
3.8601551 -13.888531 4.3952413 192 0 0 0 70.404312
2.8831968 -12.792067 4.3264446 106 0 0 0 71.187355
17.410173 -12.856174 4.4245958 23 0 0 0 59.821487
50.994743 -12.603095 4.1859508 9 0 0 0 53.55909
-6.8902459 -12.186589 4.2746086 29 0 0 0 82.938622
-4.984848 -12.056514 4.3084946 59 0 0 0 80.973022
0.60136604 -12.003786 4.2647491 141 0 0 0 73.918411
-8.2348757 -11.712791 4.3705325 25 0 0 0 84.491531
-7.8668928 -11.794463 4.3280907 36 0 0 0 84.098038
2.3758583 -11.892551 4.1515694 154.5 0 0 0 71.574669
-7.0027103 -11.077885 4.0033102 137 0 0 0 83.713638
0.82424128 -11.044629 4.2033472 236 0 0 0 73.531197
1.1226927 -11.293404 4.306335 109 0 0 0 73.141937
2.807879 -11.165613 4.0842462 149 0 0 0 70.789833
-2.6899993 -10.778751 4.2172427 332 0 0 0 78.627411
0.54870391 -10.980661 4.172976 27 0 0 0 73.918411
2.37274 -10.525755 4.0942178 110 0 0 0 71.187355
3.5601335 -10.743723 4.0144186 16 0 0 0 69.610085
4.5111122 -10.859096 4.1681933 72 0 0 0 68.439583
14.980683 -10.502633 4.1934657 19 0 0 0 59.429981
-16.388115 -10.385942 4.470437 34 0 0 0 90.775322
-5.9334488 -10.497171 4.2793317 66 0 0 0 82.938622
2.8245559 -10.175732 4.0071549 84 0 0 0 70.404312
3.8818171 -10.037725 4.081687 182 0 0 0 68.833549
7.4535217 -10.020668 4.4203024 60 0 0 0 64.518166
7.7493763 -10.16004 4.2085896 97.5 0 0 0 64.322792
8.6991959 -10.307829 4.1055784 79 0 0 0 63.542507
15.139559 -10.067961 4.166842 32 0 0 0 59.032009
-9.3707571 -9.853631 4.487309 72 0 0 0 86.853409
4.3567858 -9.8057041 4.068891 112 0 0 0 68.044785
16.966949 -9.556736 4.4577551 21 0 0 0 57.856701
18.289047 -9.7198706 4.2306166 21 0 0 0 57.47076
-5.4568024 -9.1224585 4.0360231 37 0 0 0 83.325455
-15.314782 -8.6821461 4.0585303 24 0 0 0 91.556473
18.918934 -7.7783656 4.1755219 28 0 0 0 55.903019
-15.413647 -7.2945147 4.3496175 102 0 0 0 92.721695
-14.984302 -6.6458302 4.1820335 34 0 0 0 93.114235
33.677849 -6.5815196 4.4231305 39 0 0 0 52.781879
-12.865604 -6.4834867 4.3922782 23 0 0 0 92.329552
-10.988848 -5.5405169 4.3626571 51 0 0 0 92.329552
-10.473013 -5.6073842 4.2126541 102 0 0 0 91.940491
34.074444 -5.7925344 4.4537387 24 0 0 0 52.388248
-12.346519 -5.2968235 4.2641783 24 0 0 0 93.311722
-11.616199 -5.4980769 4.2392421 33 0 0 0 92.721695
-14.861882 -4.5090032 4.3480463 10 0 0 0 95.078308
-13.25842 -4.7485719 4.2928233 23 0 0 0 94.29837
-15.233053 -4.2155995 4.0314522 32 0 0 0 95.459251
-12.905268 -4.2648387 4.480093 22 0 0 0 94.694611
-13.270176 -3.6752603 4.1972308 34 0 0 0 95.459251
-12.344505 -3.7457595 4.2536988 33 0 0 0 95.078308
-15.336661 -3.4427085 4.3990908 17 0 0 0 96.236496
-13.116484 -3.2878296 4.1221704 16 0 0 0 95.857025
-12.470884 -3.4517255 4.2663784 39 0 0 0 95.459251
-10.465476 4.8081136 4.3715835 40 0 0 0 6.6402202
-10.911259 5.3461866 4.0211411 38 0 0 0 7.0373101
-10.78699 5.6160479 4.0246882 32 0 0 0 7.42383
-29.596876 6.4017634 4.0771222 73 0 0 0 3.1305201
-46.434551 6.5411115 4.0198317 21 0 0 0 1.95541
-7.3769612 7.545651 4.0050988 126 0 0 0 12.50726
-7.1733856 8.9514933 4.3535295 43 0 0 0 14.06912
33.856739 8.6444092 4.4885778 24 0 0 0 45.744099
-11.946374 14.257855 4.3177686 39 0 0 0 13.6742
31.875177 14.322163 4.4873013 16 0 0 0 43.003967
31.471098 15.08233 4.4814086 25 0 0 0 42.615952
-18.286196 26.873819 4.3260517 45 0 0 0 15.23875
-17.721678 27.471415 4.3481727 54 0 0 0 15.63891
-32.076893 -29.083492 4.6106701 55 0 0 0 88.024734
-32.231251 -27.811426 4.5327115 46 0 0 0 88.419403
-27.721689 -21.646219 4.61379 19 0 0 0 89.203682
10.566431 -20.915945 4.8087444 16 0 0 0 67.267273
19.37957 -19.301914 4.9162989 22 0 0 0 62.171913
16.880098 -16.816048 4.8737459 5 0 0 0 62.171913
0.017228622 -15.671783 4.7807083 70 0 0 0 74.704819
16.966812 -14.577532 4.5748472 29 0 0 0 60.997398
-10.049667 -14.290254 4.8966866 35 0 0 0 84.491531
16.228491 -13.938798 4.900609 22 0 0 0 60.997398
4.4382772 -13.391466 4.6500883 98 0 0 0 69.610085
16.799683 -13.050806 4.8716044 23 0 0 0 60.215153
2.2226412 -12.723688 4.5795631 89 0 0 0 71.966949
2.7173204 -12.764088 4.7867298 82 0 0 0 71.381012
3.5566025 -12.791409 4.7044988 81 0 0 0 70.404312
24.087355 -12.794994 4.8876538 37 0 0 0 57.47076
1.6566434 -12.103454 4.633132 121.5 0 0 0 72.554947
24.933229 -12.46744 4.9934406 19 0 0 0 57.079033
-5.1945834 -11.750677 4.8725805 30 0 0 0 81.371559
-8.7178268 -11.185163 4.6793504 68 0 0 0 85.27533
-5.6962295 -11.344443 4.8145866 28 0 0 0 82.149208
-5.3670325 -11.376709 4.7712636 59 0 0 0 81.76255
-4.2173376 -11.378089 4.6041403 127.5 0 0 0 80.382034
4.7401881 -11.40598 4.6793103 50 0 0 0 68.439583
8.6726866 -11.074879 4.9736886 48 0 0 0 64.127419
16.105095 -11.288106 4.9881225 14 0 0 0 59.429981
-6.0303407 -10.669027 4.6489182 79 0 0 0 82.938622
7.2375345 -10.797729 4.918932 54 0 0 0 65.312088
7.6264262 -10.794685 4.6764464 118 0 0 0 64.913063
8.8114786 -10.708574 4.5632935 34 0 0 0 63.743767
16.894644 -10.642596 4.5715046 24 0 0 0 58.643822
-10.53826 -10.044235 4.8015423 16 0 0 0 87.638367
-7.9982824 -10.269098 4.9350481 61 0 0 0 85.27533
7.775229 -10.450484 4.928 117 0 0 0 64.518166
19.063545 -10.125621 4.9362378 32 0 0 0 57.47076
-8.6764212 -9.5907545 4.5864124 46 0 0 0 86.468842
-34.101501 -9.4271526 4.6242585 59 0 0 0 95.459251
-16.76366 -9.2334042 4.8790579 43.5 0 0 0 91.748482
-15.082813 -9.047307 4.9236698 91 0 0 0 91.162521
-14.789559 -9.3730326 4.9022102 74 0 0 0 90.775322
16.275061 -8.6473131 4.6730566 20 0 0 0 57.47076
18.393578 -8.6391554 4.6477523 36 0 0 0 56.682861
-14.300196 -7.6491108 4.5417495 55 0 0 0 91.940491
16.657469 -7.8251953 4.6651683 23 0 0 0 56.682861
20.14776 -7.7041078 4.9284725 12 0 0 0 55.51342
-15.092569 -7.1425962 4.6743889 23 0 0 0 92.721695
-15.328325 -6.7983012 4.6936884 48 0 0 0 93.114235
-14.425668 -6.8301706 4.8621039 65 0 0 0 92.721695
-14.277645 -5.7142229 4.685441 17.5 0 0 0 93.704971
-11.494713 -5.4454889 4.5076485 43 0 0 0 92.721695
-15.106643 -4.994719 4.8451629 14 0 0 0 94.694611
-15.604902 -3.9081328 4.5017405 23 0 0 0 95.857025
-12.502016 -3.1362469 4.5656118 38 0 0 0 95.857025
-12.302485 -3.4097657 4.5225539 11 0 0 0 95.459251
-11.735934 5.7500606 4.6441603 70 0 0 0 7.0373101
-52.34193 6.0711617 4.5149555 17 0 0 0 1.57057
-29.511522 6.3835068 4.8104377 73 0 0 0 3.1305201
-28.04838 7.5209556 4.6259441 88 0 0 0 3.90657
-27.819521 8.195056 4.61939 89 0 0 0 4.3013101
35.77673 8.2015877 4.7134175 33 0 0 0 46.136871
-27.702263 8.9037371 4.6341033 83 0 0 0 4.69173
-27.800831 9.6935415 4.688117 58 0 0 0 5.0771499
36.008617 10.142872 4.8023376 32 0 0 0 45.358047
-28.43873 10.705887 4.8373961 52 0 0 0 5.4677
35.539238 11.926894 4.8115292 7 0 0 0 44.577259
33.872467 12.303887 4.6267762 28 0 0 0 44.185139
-12.160887 13.812 4.7233124 78 0 0 0 13.28737
33.101681 13.903687 4.6093421 16 0 0 0 43.402721
-0.41253889 -17.685644 5.3928905 99 0 0 0 75.093872
17.788969 -16.869646 5.0125561 18 0 0 0 61.776009
-12.678397 -16.268679 5.262722 42 0 0 0 85.27533
-0.36761531 -15.565557 5.1351161 54 0 0 0 75.093872
16.398893 -15.547714 5.1764731 23 0 0 0 61.776009
0.014274456 -15.369038 5.0690293 5 0 0 0 74.704819
-17.817976 -14.637198 5.3097191 15 0 0 0 88.806404
16.514759 -14.90442 5.0954981 23 0 0 0 61.389721
4.8834786 -13.588204 5.1119294 54 0 0 0 69.219597
5.2702656 -13.604315 5.1642542 54 0 0 0 68.833549
20.736216 -13.785836 5.0828295 33 0 0 0 59.032009
16.422283 -13.417252 5.3782082 11 0 0 0 60.607922
23.232903 -13.083398 5.4364667 22 0 0 0 57.856701
-9.0403309 -12.854569 5.182704 33 0 0 0 84.491531
16.203209 -12.587725 5.2040143 23 0 0 0 60.215153
25.843227 -12.136783 5.1121273 32 0 0 0 56.682861
8.2305202 -11.645199 5.3922038 66 0 0 0 64.913063
7.1542339 -11.260897 5.0480518 49 0 0 0 65.700859
15.914426 -11.15409 5.4124975 20 0 0 0 59.429981
-16.779097 -10.633635 5.0638676 10 0 0 0 90.775322
8.9632235 -10.883019 5.3300414 9 0 0 0 63.743767
-16.86372 -10.115297 5.0127182 32 0 0 0 91.162521
8.2138252 -10.490458 5.0394044 40 0 0 0 64.127419
19.581976 -9.7908058 5.0050864 21 0 0 0 57.079033
-14.331158 -9.0860662 5.1689739 110 0 0 0 90.775322
18.352436 -9.1768389 5.1974897 19 0 0 0 57.079033
-15.194179 -8.6171942 5.3191781 23 0 0 0 91.556473
-14.887084 -8.9334316 5.2875457 61 0 0 0 91.162521
-13.446405 -8.5219612 5.2450366 19 0 0 0 90.775322
-15.281146 -8.1770048 5.277534 45 0 0 0 91.940491
18.784782 -8.2642841 5.1967492 10 0 0 0 56.298561
33.686108 -8.3214769 5.3339062 11 0 0 0 53.55909
-13.286741 -7.5326743 5.0328417 21 0 0 0 91.556473
34.312496 -7.5856519 5.4000854 32 0 0 0 53.167488
-13.956676 -7.0299749 5.1479683 57 0 0 0 92.329552
33.270493 -6.5015717 5.2095022 37 0 0 0 52.781879
-12.905216 -6.1132784 5.4064331 24 0 0 0 92.721695
-13.123891 -5.8264389 5.4359336 15 0 0 0 93.114235
33.377888 -5.673882 5.2018342 18 0 0 0 52.388248
34.642746 -5.0151143 5.3756633 43 0 0 0 51.994259
-45.633419 7.5730228 5.0868134 24 0 0 0 2.34466
-28.024481 7.5149503 5.3382125 69 0 0 0 3.90657
-27.778942 8.1835604 5.3275275 53 0 0 0 4.3013101
51.240849 10.412469 5.4124589 17 0 0 0 46.53146
37.77597 11.650334 5.0721426 27 0 0 0 44.966179
33.59346 12.201973 5.4740348 17 0 0 0 44.185139
-12.982438 13.366395 5.2457643 93 0 0 0 12.50726
-12.002824 13.632735 5.112072 64 0 0 0 13.28737
31.025124 13.940041 5.2109814 12 0 0 0 43.003967
30.828854 14.774143 5.2373281 46 0 0 0 42.615952
31.370743 15.993467 5.3938217 28 0 0 0 42.231327
30.712126 16.622433 5.3502254 12 0 0 0 41.828911
29.991138 17.1998 5.297833 28 0 0 0 41.44249
30.133333 18.280245 5.4006925 23 0 0 0 41.052341
-18.822939 26.256506 5.1005955 51 0 0 0 14.84939
-18.275274 26.861984 5.1269088 50 0 0 0 15.23875
-17.683485 27.416443 5.1456785 47 0 0 0 15.63891
-32.080067 -29.096613 5.6768188 11 0 0 0 88.024734
-32.285973 -27.868494 5.5897732 4 0 0 0 88.419403
-32.482594 -26.673899 5.5080485 17 0 0 0 88.806404
-33.993279 -18.171541 5.9991055 28 0 0 0 91.940491
16.917822 -17.694977 5.6070075 19 0 0 0 62.566139
-34.129711 -16.141048 5.8743844 50 0 0 0 92.721695
16.318127 -15.470308 5.7032757 8 0 0 0 61.776009
-12.37733 -14.372321 5.77882 40 0 0 0 86.068863
22.441393 -13.369441 5.9676013 30 0 0 0 58.258327
-8.5990667 -12.236134 5.6663289 21 0 0 0 84.491531
18.573107 -12.344377 5.6500883 20 0 0 0 59.032009
25.899271 -12.162292 5.8273811 36 0 0 0 56.682861
15.707401 -11.004581 5.813776 21 0 0 0 59.429981
16.05806 -10.111071 5.7513065 25 0 0 0 58.643822
17.086803 -10.184129 5.5366106 20 0 0 0 58.258327
-17.240664 -9.7735214 5.5432696 17 0 0 0 91.556473
-14.209749 -9.502759 5.6301632 29 0 0 0 90.389168
18.978821 -9.4887066 5.9007835 10 0 0 0 57.079033
18.477032 -8.6771612 5.6775017 18 0 0 0 56.682861
-14.668007 -8.3221931 5.9670682 43 0 0 0 91.556473
-15.803238 -7.00876 5.6906652 28 0 0 0 93.114235
-13.669327 -7.3177972 5.8680525 25 0 0 0 91.940491
17.004581 -7.4784579 5.6268206 11 0 0 0 56.298561
32.714012 -7.2322702 5.9800677 21 0 0 0 53.167488
-15.142703 -6.7222362 5.8611608 35 0 0 0 93.114235
-13.330663 -6.7205582 5.6509633 29 0 0 0 92.329552
-15.492933 -6.4267073 5.9329801 18 0 0 0 93.509216
-14.525023 -6.0253797 5.9496198 14 0 0 0 93.509216
32.898903 -6.4286141 5.9819226 11 0 0 0 52.781879
33.153336 -5.6353574 5.9999466 12 0 0 0 52.388248
-50.880611 5.9011984 5.6316085 19 0 0 0 1.57057
-29.413517 6.3624992 5.5373926 74 0 0 0 3.1305201
-51.658749 7.279253 5.7352414 12 0 0 0 1.95541
35.420586 9.0424948 5.5993319 14 0 0 0 45.744099
34.91222 9.8340111 5.5554776 46 0 0 0 45.358047
36.780823 11.343266 5.8926206 16 0 0 0 44.966179
-14.079811 11.901793 5.6455417 94 0 0 0 10.93703
34.94286 11.726395 5.6441298 29 0 0 0 44.577259
33.970016 13.293381 5.5860047 26 0 0 0 43.79179
33.877033 14.227798 5.6261969 25 0 0 0 43.402721
-13.907977 17.479832 5.7287073 46 0 0 0 14.06912
-19.327091 25.611235 5.8613591 33 0 0 0 14.46674
-18.756729 26.167671 5.8791337 29 0 0 0 14.84939
-18.242798 26.818281 5.9202805 54 0 0 0 15.23875
-17.695326 27.439487 5.9570279 41 0 0 0 15.63891
-17.797041 -71.341339 6.0408664 6 0 0 0 78.627411
-15.195879 -13.126181 6.1136365 17 0 0 0 88.419403
-11.670715 -12.281304 6.4136205 35 0 0 0 86.853409
18.250166 -12.129441 6.097085 7 0 0 0 59.032009
-16.764053 -10.055424 6.4329252 15 0 0 0 91.162521
15.842876 -9.9791603 6.1387925 7 0 0 0 58.643822
-14.571019 -8.7472172 6.0133867 76 0 0 0 91.162521
-14.704371 -8.3427858 6.3958926 29 0 0 0 91.556473
33.910069 -8.3761568 6.2340908 20 0 0 0 53.55909
-15.309232 -5.9139123 6.2075858 6 0 0 0 93.900734
34.048363 -4.9288154 6.1361179 13 0 0 0 51.994259
-29.360716 6.3513088 6.2647276 64 0 0 0 3.1305201
-45.855221 7.6019325 6.2524838 17 0 0 0 2.34466
-28.005476 7.5102606 6.046165 72 0 0 0 3.90657
33.295616 13.029124 6.3613901 34 0 0 0 43.79179
33.049461 13.87997 6.3774881 17 0 0 0 43.402721
-13.842591 14.976962 6.2403941 43 0 0 0 12.89538
32.852531 14.758434 6.4073825 9 0 0 0 43.003967
-13.293873 15.108829 6.1570258 50 0 0 0 13.28737
32.239689 15.447774 6.360425 16 0 0 0 42.615952
31.858765 16.240599 6.3626399 13 0 0 0 42.231327
30.87957 16.711639 6.2486887 9 0 0 0 41.828911
30.262674 17.353872 6.2093291 34 0 0 0 41.44249
29.754311 18.049412 6.1951032 24 0 0 0 41.052341
28.990334 18.577213 6.1306009 20 0 0 0 40.658421
8.4281063 26.178499 6.2905788 43 0 0 0 29.70067
29.710852 28.611111 6.3249292 21 0 0 0 37.529968
-30.628647 -57.390442 6.9267869 13 0 0 0 82.54052
-30.844019 -54.523979 6.6708684 10 0 0 0 82.938622
-31.092251 -41.976749 6.849133 32 0 0 0 84.88765
-32.33083 -27.907232 6.6543584 10 0 0 0 88.419403
6.8020554 -22.297348 6.5137658 24 0 0 0 70.008469
59.065834 -20.933493 6.5197763 38 0 0 0 55.1292
-34.029556 -18.190853 6.960547 16 0 0 0 91.940491
-11.019155 -15.681785 6.784081 14 0 0 0 84.491531
-12.15496 -14.841556 6.7893963 33 0 0 0 85.669151
-9.7118883 -14.568808 6.6292024 29 0 0 0 84.098038
33.251461 -8.2131519 6.9568024 16 0 0 0 53.55909
32.467533 -7.1773701 6.7537646 24 0 0 0 53.167488
33.847931 -4.8994727 6.9420595 5 0 0 0 51.994259
67.360291 -3.0671568 6.9836836 11 0 0 0 50.431969
-29.282682 6.3293028 6.9794574 43 0 0 0 3.1305201
-51.532345 7.2523432 6.9991245 14 0 0 0 1.95541
-27.991116 7.5015998 6.7504148 60 0 0 0 3.90657
-27.733337 8.1658363 6.7340183 79 0 0 0 4.3013101
-27.667439 8.8889599 6.768353 50 0 0 0 4.69173
