# .PCD v0.7 - Point Cloud Data file format
VERSION 0.7
FIELDS x y z intensity normal_x normal_y normal_z curvature
SIZE 4 4 4 4 4 4 4 4
TYPE F F F F F F F F
COUNT 1 1 1 1 1 1 1 1
WIDTH 925
HEIGHT 1
VIEWPOINT 0 0 0 1 0 0 0
POINTS 925
DATA ascii
-2.2390144 8.1485567 -0.21405068 1692.25 0 0 0 20.478596
-1.7324243 8.2585239 -0.21175952 1621 0 0 0 21.457006
-1.2245888 8.3676491 -0.21029571 1655.75 0 0 0 22.424135
-0.81463361 8.4519272 -0.20972511 1757.5 0 0 0 23.210915
9.8548002 8.3340425 -0.16279987 408 0 0 0 38.453049
10.509476 8.2388067 -0.16979435 301 0 0 0 39.046368
-0.5046345 8.5204277 -0.20996109 1846.5 0 0 0 23.796
-0.19002949 8.5926886 -0.21096577 1730.25 0 0 0 24.37956
0.20140104 8.6829023 -0.24811451 1606 0 0 0 25.099859
0.67594516 8.7824211 -0.32269877 1642 0 0 0 25.945011
1.2842385 8.8840275 -0.24024658 1307 0 0 0 27.002361
1.7090353 8.9910765 -0.11069553 1504 0 0 0 27.701839
7.3655968 8.6060486 -0.27739763 502 0 0 0 35.913807
7.669992 8.5233345 -0.42177352 623 0 0 0 36.298679
9.5768032 8.7271252 -0.16349156 325 0 0 0 37.872921
22.956758 8.8534889 -0.34531802 22 0 0 0 43.72858
1.7174542 9.0216522 -0.33593547 1659 0 0 0 27.701839
2.3685043 9.1201601 -0.26736945 1144.6666 0 0 0 28.743027
2.8602135 9.2564259 -0.35451153 1473.5 0 0 0 29.45817
3.2726758 9.3468723 -0.36255527 1483 0 0 0 30.038469
3.659935 9.4391088 -0.28880283 1286.3334 0 0 0 30.56949
7.6650181 9.4127302 -0.15084858 414 0 0 0 35.510658
19.316807 9.1428194 -0.29499826 1654 0 0 0 42.564419
22.764374 9.4287958 -0.34614751 49 0 0 0 43.344208
4.3206582 9.579051 -0.38559693 1261.5 0 0 0 31.411215
4.8047805 9.67764 -0.39691076 1192 0 0 0 32.000671
5.1590252 9.7741642 -0.40646809 1168 0 0 0 32.392971
21.965752 9.7387686 -0.33637875 918 0 0 0 42.94648
6.6800056 10.087808 -0.44715282 919 0 0 0 33.94978
7.1192746 10.192409 -0.46039686 807 0 0 0 34.343929
7.5625048 10.276886 -0.3170431 877.5 0 0 0 34.737621
8.0387564 10.374905 -0.32713008 695.5 0 0 0 35.12014
9.6735716 10.733864 -0.18640381 488 0 0 0 36.298679
16.739975 10.61984 -0.27007914 100 0 0 0 40.601406
20.193272 10.802844 -0.31820315 16 0 0 0 41.770832
19.973585 11.326346 -0.31891474 101 0 0 0 41.379921
19.942036 11.966205 -0.32328126 153 0 0 0 40.995033
16.476057 12.245832 -0.28050917 257 0 0 0 39.433479
24.194157 12.181288 -0.3832376 23 0 0 0 42.16782
17.770252 12.537586 -0.29945379 199 0 0 0 39.822701
19.177143 12.832153 -0.32007509 189 0 0 0 40.209461
-33.152927 -34.82832 0.36932811 24 0 0 0 86.731491
-11.244482 -23.763357 0.21129426 34 0 0 0 81.649765
-1.1330338 -22.746056 0.18667634 75 0 0 0 75.391441
17.0179 -18.819963 0.24012317 65 0 0 0 62.865379
16.671192 -17.553007 0.23192945 70 0 0 0 62.48148
16.522617 -16.564495 0.22649778 82 0 0 0 62.080688
15.654222 -14.228133 0.21025538 56 0 0 0 61.303646
15.958446 -13.805046 0.2107777 93 0 0 0 60.909519
16.055857 -13.215055 0.20916934 89 0 0 0 60.523129
15.434933 -12.082868 0.20012844 105 0 0 0 60.12796
14.971104 -11.139646 0.19307542 172 0 0 0 59.736794
-14.048993 -10.968388 0.16263439 164 0 0 0 89.075592
15.039716 -10.627616 0.19178261 130 0 0 0 59.350521
-1.0164024 -10.163546 0.10352428 385 0 0 0 76.169907
14.927743 -10.00895 0.18878521 180 0 0 0 58.953953
-9.9055824 -9.9075384 0.13362026 177 0 0 0 87.129745
14.387603 -9.1443167 0.18162242 200 0 0 0 58.572121
13.834222 -8.3243074 0.17457968 249 0 0 0 58.175179
-4.058722 -7.1521583 0.29615185 155 0 0 0 82.82428
-2.3268821 -7.0082846 0.26880521 160 0 0 0 79.689957
13.264221 -7.1202621 0.16636916 256 0 0 0 57.389339
-14.73143 -6.5352721 0.15537374 114 0 0 0 92.976753
-10.178613 -6.8054705 0.1241664 75 0 0 0 90.254486
-3.2977057 -6.9538994 0.27907047 220 0 0 0 81.649765
-2.5073442 -6.976613 0.26978129 75 0 0 0 80.080605
5.764967 -6.8976374 0.33263382 64.5 0 0 0 63.456543
11.609325 -6.6087608 0.31836125 198 0 0 0 57.779312
-13.033223 -6.1693387 0.14240804 95 0 0 0 92.587379
-9.66576 -6.2900524 0.26191834 85 0 0 0 90.453407
-6.6358314 -6.01648 0.098968111 770 0 0 0 87.899803
-4.1529851 -6.3734474 0.4628059 840 0 0 0 83.790512
-2.9432712 -6.2045622 0.42049423 486 0 0 0 81.649765
-1.6113691 -6.1693249 0.18525176 190.66667 0 0 0 78.647194
-1.2756041 -6.3393345 0.39754683 239 0 0 0 77.733879
-0.93668282 -6.2086787 0.23381807 307 0 0 0 76.952118
-11.72614 -5.9060726 0.29671395 119 0 0 0 92.192574
-10.651161 -5.6967182 0.27488559 105.5 0 0 0 91.805763
-9.8089085 -5.5601325 0.25903761 91 0 0 0 91.426476
-9.4682598 -5.9977703 0.39664012 87 0 0 0 90.652328
-5.3278184 -5.5944443 0.47092438 487 0 0 0 86.731491
-4.1534863 -5.741621 0.43386203 77.5 0 0 0 84.568054
-3.2530525 -5.5181065 0.23847036 291.33334 0 0 0 83.077637
-2.3020554 -5.9407811 0.39241683 409 0 0 0 80.47406
-1.0281875 -5.838182 0.36739218 28 0 0 0 77.344475
-0.86202538 -5.713263 0.074212812 274 0 0 0 76.952118
-0.29146004 -5.5644369 0.2789785 239.5 0 0 0 75.391441
4.7154264 -5.5095029 0.094361074 487 0 0 0 63.256729
12.447271 -5.5448065 0.15543973 30 0 0 0 56.216526
-9.0441074 -5.4241486 0.24435146 57.5 0 0 0 91.03363
-7.3374009 -5.1703162 0.21236783 128.5 0 0 0 89.857666
-6.7906709 -5.1226482 0.23737405 310.33334 0 0 0 89.333099
-6.4747972 -5.0542579 0.49999714 29 0 0 0 89.075592
-5.3139386 -5.3130441 0.45925081 227 0 0 0 87.129745
-4.8401532 -5.3381214 0.4414086 223 0 0 0 86.339218
-4.4981856 -5.4773402 0.43436146 109 0 0 0 85.560127
-3.3426216 -5.2706332 0.078245662 338 0 0 0 83.595116
-2.6967449 -5.3423457 0.22516938 191 0 0 0 82.037323
-1.7161022 -5.2766275 0.21086481 147.75 0 0 0 79.590927
-1.142444 -5.1718264 0.1718253 203.25 0 0 0 78.022156
-0.53315789 -5.2447848 0.3308821 176.66667 0 0 0 76.169907
4.1994753 -5.1612978 0.089283213 537 0 0 0 63.656353
10.662188 -5.3953595 0.14005315 86 0 0 0 57.003567
-6.077908 -4.989542 0.28624532 358.33334 0 0 0 88.67881
-5.6560264 -4.8803496 0.18208647 201 0 0 0 88.283752
-5.1553035 -4.8461771 0.26113585 287.5 0 0 0 87.612503
-4.7057991 -4.8191252 0.2507242 406 0 0 0 86.930618
-4.1211824 -4.6806951 0.20256886 61.400002 0 0 0 86.106369
-3.6878848 -4.6262803 0.19370511 113 0 0 0 85.320198
-3.2432904 -4.5495729 0.15717104 116.8 0 0 0 84.452477
-2.7478967 -4.571003 0.26901606 162 0 0 0 83.207581
-1.8776902 -4.7267737 0.26029393 241.16667 0 0 0 80.605995
-1.2229842 -4.8347402 0.40674847 108.5 0 0 0 78.514961
-0.83882791 -4.7490664 0.35295299 100.8 0 0 0 77.343292
1.8786991 -4.6096134 0.3812477 180.5 0 0 0 68.350044
2.2851541 -4.6955466 0.42052206 228.66667 0 0 0 67.303673
3.0141191 -4.5610785 0.07865236 361 0 0 0 65.224739
3.6527505 -4.7271214 0.15786074 504.5 0 0 0 64.046989
10.439175 -4.8102808 0.27992558 216.5 0 0 0 56.412498
16.218613 -4.5116496 0.18603247 128 0 0 0 53.888847
-2.3819206 -4.4434023 0.25668746 140.5 0 0 0 82.430611
-1.910655 -4.4042106 0.23460393 70.199997 0 0 0 81.099792
-1.3046849 -4.3405313 0.24549714 75.199997 0 0 0 79.213364
-0.60405171 -4.1979413 0.20226084 10.666667 0 0 0 76.826088
-0.16303681 -4.141294 0.25344986 49.42857 0 0 0 75.163223
0.19439496 -4.0694933 0.24982652 87.14286 0 0 0 73.763443
0.61098057 -4.1063833 0.29851443 86 0 0 0 72.160225
1.1968273 -4.1452537 0.42122635 123.33334 0 0 0 70.046234
1.8452003 -4.2826524 0.25648111 208 0 0 0 68.036728
2.2726381 -4.2320838 0.22297955 165 0 0 0 66.666481
2.7133126 -4.2196074 0.26243553 267.25 0 0 0 65.420258
3.1310647 -4.3793955 0.1778086 430.25 0 0 0 64.638702
10.348444 -4.0163631 0.13411102 295 0 0 0 55.445278
10.629861 -4.4297938 0.28134349 215 0 0 0 55.831699
11.150126 -4.0146322 0.28949273 294.5 0 0 0 55.059193
16.47019 -4.1481013 0.1877148 74 0 0 0 53.500526
0.47077796 -3.9936137 0.16241251 73.5 0 0 0 72.647194
0.66600323 -3.9708607 0.22922653 96 0 0 0 71.868172
1.2871431 -3.8734393 0.24492271 116.44444 0 0 0 69.390648
1.5953186 -3.8659844 0.19058582 132.2 0 0 0 68.270447
10.736683 -3.5696785 0.13659655 407 0 0 0 54.66404
16.817987 -3.7983646 0.19026095 63 0 0 0 53.10228
3.1031156 -3.3010345 0.18645142 9 0 0 0 62.48148
10.940904 -3.34076 0.13798054 340 0 0 0 54.271591
17.302162 -3.240119 0.19381744 75 0 0 0 52.513309
17.783613 -2.65698 0.19747643 81 0 0 0 51.936241
18.228807 -2.2664897 0.20113835 57 0 0 0 51.534767
19.487309 -1.9370697 0.21217397 50 0 0 0 51.14727
26.688301 -1.9890629 0.27662092 43 0 0 0 50.764553
27.101925 -1.3510222 0.28017291 45 0 0 0 50.37154
-31.429407 -0.77486253 0.28169766 35 0 0 0 99.225311
27.693047 -0.69868475 0.28543746 66 0 0 0 49.978489
29.62112 -0.018860692 0.3028191 56 0 0 0 49.591599
38.134628 1.8518131 0.37994856 41 0 0 0 48.814899
-12.497758 2.7843657 0.084924459 410 0 0 0 3.11782
-15.868591 3.1432488 0.49824205 41 0 0 0 2.7369299
-13.649672 3.0464613 0.43526185 361 0 0 0 3.11782
-12.515236 3.110064 0.085266665 482 0 0 0 3.50582
-13.771472 3.7868295 0.44413549 240 0 0 0 3.9060199
-12.540533 3.7733707 0.086532019 333 0 0 0 4.2887301
-8.509901 3.7234783 0.30207035 752 0 0 0 6.2336102
-8.283453 3.8656931 0.29818976 608 0 0 0 6.62321
-13.29127 4.0040674 0.43289426 333 0 0 0 4.2887301
-12.881908 4.2243485 0.42389888 247 0 0 0 4.6737599
-8.961606 4.4550486 0.076889038 275 0 0 0 7.01966
-8.134572 4.0391879 0.29691023 447 0 0 0 7.01966
-7.5307455 4.2035027 0.28450599 567 0 0 0 7.7989001
-7.2638874 4.2862592 0.43200922 867.75 0 0 0 8.1853247
-9.0587997 4.7846498 0.33120203 379 0 0 0 7.4082999
-8.2057409 4.5853882 0.075270317 661 0 0 0 7.7989001
-7.1939664 4.6066628 0.38505 706.5 0 0 0 8.7735996
-6.8943801 4.8203735 0.24541406 729.16669 0 0 0 9.4204702
-15.612033 5.1269779 0.099826321 195 0 0 0 4.6737599
-13.291396 5.337297 0.2112155 320.66666 0 0 0 5.7209334
-8.9293766 5.2865257 0.079881966 470 0 0 0 8.1832895
-8.1554251 5.094574 0.077173181 525 0 0 0 8.57582
-7.1320705 5.4819999 0.29875064 603 0 0 0 10.13883
-6.8765268 5.1481729 0.28513402 842.5 0 0 0 9.9414902
-3.1073766 5.3045983 0.29730353 898.5 0 0 0 16.38583
-2.7249963 5.2067943 0.35837525 786.20001 0 0 0 17.166321
-2.3032703 5.3177872 0.40493044 784.33331 0 0 0 18.331812
-11.243962 5.9536028 0.088571519 1130 0 0 0 7.4082999
-3.4192803 5.6946774 0.074662343 1007.5 0 0 0 16.190845
-2.7304053 5.7475624 0.23317936 630.5 0 0 0 17.750084
-2.4058719 5.9827433 0.23755109 693 0 0 0 18.731211
-1.682518 5.5798011 0.30144492 588.14288 0 0 0 20.173643
-1.4135833 5.8725839 0.30185774 549.5 0 0 0 21.065109
-14.05902 6.1878538 0.097568929 331 0 0 0 6.2336102
-12.870393 6.0388327 0.093526773 271 0 0 0 6.62321
-9.7773571 6.461834 0.086850382 905 0 0 0 8.9713802
-2.558368 6.2264562 0.29965222 802.33331 0 0 0 18.599905
-1.3220277 6.1735821 0.31419873 598 0 0 0 21.460581
0.27886406 6.3937573 0.19385274 716.83331 0 0 0 25.487814
0.67138088 6.2948217 0.22706965 668 0 0 0 26.485037
1.322584 6.2572284 0.17101322 613.83331 0 0 0 28.094276
1.766099 6.1945777 0.15690657 671.40002 0 0 0 29.184174
2.1875632 6.3298292 0.17844182 760 0 0 0 30.042887
-24.240423 6.6924353 0.13264352 24 0 0 0 3.9060199
-8.2060537 6.8147202 0.21724029 1141.25 0 0 0 10.72473
-7.7509937 6.9298258 0.21378335 1390 0 0 0 11.31023
-7.448472 6.9916668 0.21148902 1489 0 0 0 11.69521
-3.1791918 6.9485798 0.083843932 782 0 0 0 17.941891
0.15469547 6.5803981 0.33349782 1015 0 0 0 25.163904
1.7365861 6.5665736 0.431023 443 0 0 0 28.870449
3.273875 6.860785 0.19953366 691 0 0 0 31.805309
3.5977066 6.7336259 0.16904674 859.66669 0 0 0 32.523861
4.235702 6.9239354 0.17871706 779.66669 0 0 0 33.433189
4.6231198 6.8965988 0.25149158 833.33331 0 0 0 34.081161
-7.162776 7.0581536 0.20948568 1665.5 0 0 0 12.08531
-6.7513895 7.1543164 0.20694774 1620.75 0 0 0 12.671821
-6.2257066 7.2748718 0.20402977 1770.25 0 0 0 13.453315
-5.7227483 7.38554 0.20166564 1941.75 0 0 0 14.237406
-5.3633585 7.4705458 0.20034325 1888.5 0 0 0 14.82315
-2.4566343 7.1436243 0.086383834 1058 0 0 0 19.499821
1.1881651 7.328382 0.098235607 1012 0 0 0 27.317089
1.5353231 7.201261 0.46312067 703 0 0 0 28.09281
2.9523857 7.3122849 0.10572311 603 0 0 0 30.82469
3.064034 7.0822935 0.20182921 758.5 0 0 0 31.212481
5.1716771 7.4403877 0.11866046 532 0 0 0 34.343929
7.172143 7.4113684 0.13027309 844.5 0 0 0 36.887848
-5.1201048 7.5107789 0.19927025 2137.5 0 0 0 15.21075
-4.8106427 7.5728874 0.23505683 1692.6666 0 0 0 15.73682
-4.2055645 7.6808825 0.088188961 729 0 0 0 16.777531
-3.8927791 7.772016 0.089096874 1971 0 0 0 17.36058
-3.366236 7.8906736 0.090554528 2120 0 0 0 18.33729
-2.9521594 7.9816875 0.19752015 2060 0 0 0 19.11165
1.1610256 7.7370648 0.48842627 605.5 0 0 0 27.118494
3.2010026 7.9090118 0.32492876 727 0 0 0 30.82469
4.3379345 7.7822104 0.33960089 679 0 0 0 32.785641
6.4947748 7.9928532 0.13003981 525 0 0 0 35.510658
6.7382851 7.7567067 0.21672569 747.33331 0 0 0 36.042099
7.6931543 7.5618682 0.40493748 373.5 0 0 0 37.284794
8.1938972 7.6652966 0.13844824 551 0 0 0 37.678604
-22.780054 8.1248598 0.13064067 33 0 0 0 5.0671701
-2.641726 8.037755 0.197945 1191 0 0 0 19.700235
-2.2390037 8.1358013 0.094429202 1860.5 0 0 0 20.478596
-1.6827104 8.2581692 0.149204 1732.25 0 0 0 21.554087
-1.2256485 8.3538094 0.20391203 1675 0 0 0 22.424135
-0.81675649 8.4425621 0.20649828 1826.25 0 0 0 23.210917
6.4076877 8.2936172 0.26409182 637 0 0 0 35.12014
6.5443101 8.0510406 0.39071062 924 0 0 0 35.510658
9.7846928 8.4878368 0.15405993 584 0 0 0 38.256981
10.222459 8.2220974 0.15548307 552 0 0 0 38.84774
10.683002 8.3752289 0.49959534 413 0 0 0 39.046368
25.22257 8.3313303 0.27501523 71 0 0 0 44.514221
-0.50677043 8.504612 0.2084451 1865 0 0 0 23.796
-0.19272938 8.5704384 0.21049973 1829 0 0 0 24.37956
1.4714216 8.9500694 0.33846542 1637 0 0 0 27.317089
6.3466382 8.6456652 0.26920563 730.5 0 0 0 34.737621
10.430207 8.6011591 0.49776679 144 0 0 0 38.649113
11.904059 8.8651142 0.17091604 284 0 0 0 39.433479
24.512688 8.7715502 0.27006641 53 0 0 0 44.119671
28.289364 8.5768795 0.30209303 31 0 0 0 44.900112
3.5504134 9.397646 0.37545413 1311 0 0 0 30.441891
16.647961 9.4508333 0.2089873 138 0 0 0 41.379921
5.8581042 9.8864336 0.42755339 1008 0 0 0 33.171661
15.533874 9.8620872 0.20261973 279 0 0 0 40.601406
24.124607 9.996459 0.27021596 15 0 0 0 43.344208
25.299185 9.760457 0.27948463 21 0 0 0 43.72858
15.208248 10.189873 0.20191799 309 0 0 0 40.209461
16.697742 10.030249 0.21215686 173 0 0 0 40.995033
23.61524 10.47385 0.26801547 20 0 0 0 42.94648
15.13282 10.688301 0.20402156 262 0 0 0 39.822701
20.247375 10.837013 0.24308543 87 0 0 0 41.770832
21.385342 10.776062 0.25164208 95 0 0 0 42.16782
22.957928 10.866613 0.26438403 23 0 0 0 42.564419
16.37398 -18.116755 0.84240764 30 0 0 0 62.865379
15.161362 -15.209066 0.74736798 68 0 0 0 62.080688
15.657972 -14.954447 0.75425524 98 0 0 0 61.692539
14.730473 -11.248723 0.65485144 105.5 0 0 0 59.932377
12.248316 -10.608466 0.97235399 14 0 0 0 60.909519
16.102673 -10.798917 0.68534803 16 0 0 0 58.953953
12.53194 -10.326717 0.97513956 109 0 0 0 60.523129
18.631786 -9.4143953 0.73903495 299 0 0 0 57.003567
13.939862 -8.3916178 0.98134989 11 0 0 0 58.175179
-13.315146 -7.1192822 0.89268482 105 0 0 0 91.805763
-14.75542 -6.5428357 0.55838281 79 0 0 0 92.976753
-13.359531 -6.7268791 0.88514334 367 0 0 0 92.192574
-10.166349 -6.6155682 0.72282326 96 0 0 0 90.453407
-9.3660355 -6.5979242 0.68409544 110 0 0 0 89.857666
-3.9490838 -6.5803132 0.65693623 318 0 0 0 83.204315
-0.34798554 -6.7317853 0.58060455 322 0 0 0 75.391441
11.536519 -6.5691724 0.80820531 622 0 0 0 57.779312
14.686965 -6.9789109 0.58450061 70 0 0 0 56.608471
-13.10826 -6.2020512 0.50488108 80 0 0 0 92.587379
-10.18123 -6.1057749 0.85462236 151.5 0 0 0 91.03363
-9.7126579 -6.4940963 0.98798978 33 0 0 0 90.254486
-6.6563888 -6.0344214 0.76415175 702 0 0 0 87.899803
-4.1493831 -6.2099533 0.81975698 334.66666 0 0 0 83.984459
-3.8179152 -6.3638062 0.99831605 94 0 0 0 83.204315
-3.2280726 -6.4020524 0.9652186 182 0 0 0 82.037323
-2.6186137 -6.3037386 0.92023933 195 0 0 0 80.867996
-2.2831438 -6.1620917 0.7592994 294.20001 0 0 0 80.237984
11.519231 -6.1899161 0.79719687 596 0 0 0 57.389339
-7.015975 -5.7607727 0.99449694 552 0 0 0 88.678818
-6.7586236 -5.831861 0.75991488 941.66669 0 0 0 88.283752
-5.8318558 -5.5539279 0.6900512 49 0 0 0 87.516739
-5.1641531 -5.5586629 0.83554792 578.5 0 0 0 86.535355
-4.8291044 -5.5972881 0.8145842 439 0 0 0 85.951149
-4.2011228 -5.7889171 0.74103874 444.57144 0 0 0 84.598045
-3.0268688 -5.9996872 0.57917774 907 0 0 0 82.037323
-2.8012798 -5.8126197 0.71347243 464 0 0 0 81.746658
-2.3659616 -5.8908973 0.6266762 423 0 0 0 80.671028
-6.9275217 -5.1393495 0.5235647 79 0 0 0 89.461853
-5.2786789 -5.4078856 0.64937454 514 0 0 0 86.930618
-4.6934166 -5.1789198 0.76868463 299.5 0 0 0 86.339218
-4.4659252 -5.4399395 0.69209194 592.5 0 0 0 85.560127
-3.9352648 -5.0398116 0.55392176 110 0 0 0 85.16024
-3.0384619 -5.3534966 0.60764062 180 0 0 0 82.82428
-1.8999538 -5.2845221 0.90142679 702 0 0 0 80.080605
-1.1566539 -5.1884632 0.78878146 197.83333 0 0 0 78.056953
-0.68037117 -5.2557707 0.79562503 195.85715 0 0 0 76.618935
-0.32898861 -5.285368 0.8014124 200.2 0 0 0 75.545952
-5.1965432 -4.9489279 0.79267156 439 0 0 0 87.516739
-4.054893 -4.6995935 0.53909379 14 0 0 0 85.951149
-2.0643198 -4.7981195 0.8412115 120 0 0 0 81.062111
-1.2749876 -4.7943196 0.64697647 166.5 0 0 0 78.711197
-0.80295706 -4.8132038 0.684623 177.875 0 0 0 77.197495
-0.35558167 -4.6000872 0.86057597 61 0 0 0 75.77771
1.8320599 -4.5995097 0.72414285 85.333336 0 0 0 68.476715
2.3741214 -4.5006456 0.57632631 91 0 0 0 66.790421
2.9102106 -4.9103856 0.64292675 13 0 0 0 66.0028
3.3970933 -4.8729439 0.52449459 423 0 0 0 64.835411
-2.3841603 -4.4483647 0.56585038 221 0 0 0 82.430611
-1.9853939 -4.4603248 0.54824615 13 0 0 0 81.256226
-1.3124069 -4.2891226 0.50624931 50 0 0 0 79.290909
0.13064617 -4.0628595 0.56225932 50.5 0 0 0 74.014786
0.68204039 -4.0600209 0.77319896 130 0 0 0 71.869537
2.3599448 -4.4725637 0.6973297 302 0 0 0 66.790421
2.5165226 -4.4991307 0.58378649 191 0 0 0 66.396477
11.134681 -4.0103302 0.72759873 255 0 0 0 55.059193
21.638504 -4.3311644 0.78535879 139 0 0 0 52.707809
11.245139 -3.7402072 0.72889102 452 0 0 0 54.66404
27.210505 -0.69113314 0.96178263 54 0 0 0 49.978489
-13.7398 2.7171474 0.77525395 159 0 0 0 2.7369299
-12.177472 3.1851554 0.70006418 404 0 0 0 3.70592
-12.251246 3.6870449 0.7115252 445 0 0 0 4.2887301
-8.5317593 3.980716 0.8775146 659 0 0 0 6.62321
-8.1727905 3.932153 0.7331484 723 0 0 0 6.821435
-12.674911 4.1553779 0.74095488 373 0 0 0 4.6737599
-8.6298466 4.2864351 0.78289872 404 0 0 0 7.01966
-8.0901051 4.0163617 0.51366031 844 0 0 0 7.01966
-7.783927 4.2192502 0.93469167 609 0 0 0 7.6036
-7.4931927 4.4221783 0.91983914 676 0 0 0 8.1832895
-8.5433903 4.5057001 0.78527814 427 0 0 0 7.4082999
-8.4729567 4.7356272 0.7896446 322 0 0 0 7.7989001
-7.4016228 4.7847543 0.86100096 707.33331 0 0 0 8.8395262
-14.259387 5.4644508 0.84501928 315 0 0 0 5.4632998
-8.1180677 5.0692515 0.78028893 253 0 0 0 8.57582
-7.3380814 5.2241521 0.84492272 683.25 0 0 0 9.5492649
-6.9804931 5.3628564 0.50606358 951 0 0 0 10.13883
-3.1821656 5.3511715 0.79593217 1000.75 0 0 0 16.288338
-2.8114216 5.328969 0.77003926 949.57141 0 0 0 17.110701
-2.1881053 5.4079757 0.58875024 917.79999 0 0 0 18.725521
-1.9026597 5.4577169 0.57100117 731 0 0 0 19.499821
-13.280668 5.649971 0.8011921 428.5 0 0 0 6.0416803
-11.195905 5.9291701 0.70903081 815 0 0 0 7.4082999
-7.4566617 5.7320843 0.88308883 647.5 0 0 0 10.13883
-3.6190298 5.7022219 0.73432648 797.5 0 0 0 15.80158
-3.2927265 5.7902813 0.72645342 735.5 0 0 0 16.58168
-2.9242768 5.600112 0.84577966 517 0 0 0 17.16577
-2.0714402 5.7308822 0.89906579 713.5 0 0 0 19.305737
-1.7401749 5.7291875 0.74760252 750.36365 0 0 0 20.144285
-1.4226524 5.9047031 0.52829123 792 0 0 0 21.065109
-10.527108 6.2441068 0.98932016 659 0 0 0 8.1832895
-3.7844658 6.1396699 0.60898471 761 0 0 0 15.99586
-3.0918279 6.1230416 0.83337575 602.5 0 0 0 17.36058
-2.6235058 6.3037071 0.83153456 1168 0 0 0 18.53425
-1.5685108 6.1936684 0.86436939 511 0 0 0 20.868565
1.3328152 6.3152962 0.76848304 691.25 0 0 0 28.09391
1.6951046 6.3228316 0.74035048 744.66669 0 0 0 28.937796
2.061198 6.4840364 0.6023978 630 0 0 0 29.652719
-27.237154 6.8172607 0.84110928 18 0 0 0 3.50582
-8.1966038 6.8049645 0.73851621 1333 0 0 0 10.72473
-7.7313185 6.9102268 0.72102284 1390 0 0 0 11.31023
-7.4382038 6.9800749 0.71060914 1436.5 0 0 0 11.69521
-1.705236 6.7681026 0.77039742 514.5 0 0 0 20.868565
0.4223403 6.9530935 0.9508273 684 0 0 0 25.747681
0.7354129 6.6975956 0.92243785 543 0 0 0 26.533356
1.7350981 6.5634556 0.76883495 417.5 0 0 0 28.8759
2.1699762 6.8171177 0.89338052 694.5 0 0 0 29.652719
3.872407 6.9627261 0.50342625 938 0 0 0 32.785641
4.1892576 6.9139228 0.61235654 833 0 0 0 33.367805
-7.1480737 7.0415616 0.70044309 1621 0 0 0 12.08531
-6.7423697 7.1425576 0.68776113 1539.5 0 0 0 12.671821
-6.2153149 7.2603664 0.67193621 1657.25 0 0 0 13.453315
-5.6866865 7.3727989 0.72494584 1920.2 0 0 0 14.27782
-5.254293 7.4653068 0.80222225 1731.4 0 0 0 14.978189
0.45977986 7.4351411 0.83114219 711 0 0 0 25.747681
0.69433624 7.048543 0.79306501 513 0 0 0 26.340084
1.5274527 7.1745582 0.64440662 649 0 0 0 28.09281
3.7827585 7.2173123 0.66515362 755 0 0 0 32.393063
4.7875829 7.1402097 0.61179781 775.66669 0 0 0 34.081161
7.2712321 7.4514294 0.73607761 767.33331 0 0 0 36.953667
7.7439985 7.4281197 0.66673964 680 0 0 0 37.484287
-5.1217251 7.5127373 0.53284222 2126 0 0 0 15.21075
-4.8157701 7.5794625 0.60214597 1957.6666 0 0 0 15.73682
-3.3447697 7.8331676 0.71974111 487 0 0 0 18.33729
0.86930621 7.7492633 0.68024659 633 0 0 0 26.53783
1.2251701 7.9392295 0.76627207 563.66669 0 0 0 27.184692
3.3782949 7.7901092 0.53240579 586 0 0 0 31.212481
3.5106068 7.5792332 0.52477223 803 0 0 0 31.609949
4.3419271 7.7954326 0.99973524 846 0 0 0 32.785641
6.456048 7.947989 0.89368176 678 0 0 0 35.510658
6.859427 7.7657313 0.81801891 532 0 0 0 36.170391
7.1352549 7.5612764 0.90704781 780 0 0 0 36.690399
8.0442514 7.7168813 0.9697755 492 0 0 0 37.484287
26.391905 7.9982748 0.97407001 36 0 0 0 44.900112
-1.6111548 8.257865 0.76009262 1555 0 0 0 21.691429
-1.226168 8.3426285 0.72217149 1714.8334 0 0 0 22.424135
-0.71416259 8.4461479 0.72847646 1853.2222 0 0 0 23.405943
3.2882833 8.1207285 0.54767817 763 0 0 0 30.82469
6.2948093 8.2911034 0.82027382 600.66669 0 0 0 34.992634
10.113811 8.3425493 0.80595869 506 0 0 0 38.649113
10.946248 8.1533775 0.50207192 501 0 0 0 39.433479
11.15578 8.3091164 0.85263491 514 0 0 0 39.433479
24.920795 8.2276735 0.92862517 42 0 0 0 44.514221
-0.1945793 8.5586386 0.73739219 1867.5 0 0 0 24.37956
0.20914689 8.6568699 0.78985697 1701.6 0 0 0 25.125477
0.66736627 8.7581139 0.76058972 1709 0 0 0 25.945011
1.2232116 8.8261452 0.98937815 1158 0 0 0 26.919899
1.7015631 8.9695988 0.67834979 1469 0 0 0 27.701839
4.2948985 8.6761494 0.60262901 270 0 0 0 32.000671
6.2828732 8.7880688 0.80697203 440.5 0 0 0 34.540775
7.3427815 8.5838957 0.6995908 527 0 0 0 35.913807
9.7986059 8.7127533 0.80611408 337 0 0 0 38.064949
11.277718 8.8392305 0.87716866 160 0 0 0 39.046368
24.109295 8.6234369 0.90674174 50 0 0 0 44.119671
-25.39345 9.0668888 0.81154782 30 0 0 0 5.0671701
-23.758762 9.1408825 0.76881087 87 0 0 0 5.4632998
2.1884103 9.0551386 0.57669878 662 0 0 0 28.48818
2.8378966 9.1996841 0.59625977 1106.5 0 0 0 29.45817
3.2503738 9.3009491 0.73293686 1453.5 0 0 0 30.038469
3.6308815 9.380414 0.79056317 1262 0 0 0 30.569489
4.1133752 9.4515409 0.895491 391 0 0 0 31.212481
10.728687 9.2984934 0.52086055 204 0 0 0 38.256981
23.810528 9.1833286 0.90361279 15 0 0 0 43.72858
4.4467359 9.5609684 0.91571057 777 0 0 0 31.609949
15.738965 9.9886246 0.67138499 239 0 0 0 40.601406
16.101845 9.6705017 0.67604309 257 0 0 0 40.995033
23.811131 9.8627424 0.91188711 24 0 0 0 43.344208
8.5058861 10.438503 0.82638055 693 0 0 0 35.510658
11.19386 10.191792 0.55287021 244 0 0 0 37.872921
15.564842 10.424607 0.67465532 323 0 0 0 40.209461
9.619791 10.676515 0.52670658 652 0 0 0 36.298679
10.229986 10.802797 0.543989 515 0 0 0 36.690399
20.268053 10.844273 0.81841421 169 0 0 0 41.770832
21.247726 10.703031 0.84547126 71 0 0 0 42.16782
15.812938 11.163287 0.69593734 166 0 0 0 39.822701
19.975067 11.328791 0.81785041 141 0 0 0 41.379921
23.431665 11.086068 0.9174881 27 0 0 0 42.564419
25.370945 11.246154 0.97928828 32 0 0 0 42.94648
24.80109 -22.529539 1.1485906 25 0 0 0 61.303646
24.627529 -21.293787 1.1185817 49 0 0 0 60.909519
24.041876 -19.779133 1.0726547 52 0 0 0 60.523129
16.17643 -17.899635 1.4236475 16 0 0 0 62.865379
16.76613 -17.660772 1.437826 51 0 0 0 62.48148
14.266671 -17.437433 1.3295579 50 0 0 0 63.656353
15.62334 -15.672118 1.311095 25 0 0 0 62.080688
-0.018716095 -11.701358 1.2664073 114 0 0 0 74.60907
-14.138906 -11.038628 1.4961845 200 0 0 0 89.075592
2.194901 -11.155614 1.2350708 98 0 0 0 71.480354
14.78067 -11.003319 1.1032139 74 0 0 0 59.736794
3.4433615 -10.506449 1.2051263 152 0 0 0 69.527214
4.8468046 -10.650286 1.2766072 59 0 0 0 67.763245
11.665379 -10.613467 1.3397031 142 0 0 0 61.303646
-3.3190823 -10.298963 1.3514527 368.66666 0 0 0 79.556938
-2.8910995 -10.411489 1.4366685 325 0 0 0 78.903191
3.4402618 -10.491945 1.4749705 693 0 0 0 69.527214
3.7603278 -10.187665 1.319937 116 0 0 0 68.933365
5.2016726 -10.397037 1.2695752 135 0 0 0 67.174286
12.426175 -10.236685 1.3684555 94 0 0 0 60.523129
1.3263664 -9.917963 1.3357556 49 0 0 0 72.450912
2.4051361 -9.6970987 1.3361731 350 0 0 0 70.694527
3.9391437 -9.5772514 1.3874909 109 0 0 0 68.347046
-19.837904 -9.3845005 1.2826314 26 0 0 0 92.587379
2.0188892 -9.0939817 1.2476407 153 0 0 0 71.09137
2.7987289 -9.3141775 1.0637698 316 0 0 0 69.916962
18.619678 -9.4086037 1.2499985 236 0 0 0 57.003567
2.40026 -8.7628193 1.333313 248 0 0 0 70.301079
2.646919 -8.8094196 1.3475757 311.5 0 0 0 69.916962
13.741548 -8.736022 1.3874508 163 0 0 0 58.572121
2.0883648 -8.4338827 1.3813673 59 0 0 0 70.694527
-11.138401 -7.8489408 1.3096595 82.5 0 0 0 89.857666
13.745437 -7.819025 1.3499056 154 0 0 0 57.779312
-13.152226 -7.0351763 1.2534837 341 0 0 0 91.805763
-11.126082 -7.4387751 1.4515082 4 0 0 0 90.254486
-13.35594 -6.7280049 1.2571865 294 0 0 0 92.192574
-5.1768985 -6.6334605 1.1284729 56 0 0 0 85.16024
-6.634079 -6.0170145 1.3116149 678.5 0 0 0 87.899803
-5.0482225 -6.1517668 1.0693294 240 0 0 0 85.560127
-2.9444003 -6.2120752 1.0964085 433 0 0 0 81.649765
11.525535 -6.1909127 1.123974 494 0 0 0 57.389339
-6.8183384 -5.788765 1.3475118 745 0 0 0 88.415443
-4.8028092 -5.6641083 1.2436841 110 0 0 0 85.820808
-4.166183 -5.6157794 1.1159251 100 0 0 0 84.763779
-3.7995629 -5.6826506 1.09131 88 0 0 0 83.99015
-0.15378824 -5.5548391 1.0299749 183 0 0 0 74.992043
33.458267 -5.8394485 1.1887842 90 0 0 0 52.31881
-2.7612236 -5.1578717 1.3688601 161 0 0 0 82.430611
-1.0180742 -5.0522614 1.0834471 139 0 0 0 77.733879
-0.8358376 -5.1086826 1.0882509 246 0 0 0 77.1483
-0.14873661 -5.3435893 1.1232029 613 0 0 0 74.992043
41.958027 -5.2126217 1.4715433 30 0 0 0 51.534767
-2.8640099 -4.773088 1.304217 76 0 0 0 83.204315
-2.0065627 -4.8264265 1.2905073 270 0 0 0 80.867996
-1.4085921 -4.8194251 1.1782026 97.5 0 0 0 79.097046
-0.71397513 -4.7503314 1.0687011 172 0 0 0 76.955688
10.876426 -4.2206759 1.2929361 5458 0 0 0 55.445278
10.891777 -3.9212842 1.2836319 5652 0 0 0 55.059193
28.651226 -2.8493083 1.0144681 183 0 0 0 51.14727
29.121479 -2.1747818 1.0286334 75 0 0 0 50.764553
29.076559 -1.4539895 1.0258337 62 0 0 0 50.37154
-30.569349 -0.74806851 1.0385581 85 0 0 0 99.225311
32.784409 -0.026053354 1.1508622 42 0 0 0 49.591599
35.182438 0.83693445 1.2327871 28 0 0 0 49.201767
-12.653548 2.4973886 1.0339009 546 0 0 0 2.7369299
41.885891 2.02707 1.4618642 12 0 0 0 48.814899
-12.562731 2.7982452 1.3412318 323 0 0 0 3.11782
-13.636188 3.0405197 1.1179613 342 0 0 0 3.11782
-12.527019 3.4378531 1.3539754 257 0 0 0 3.9060199
-12.482924 3.1010456 1.3405046 287 0 0 0 3.50582
-14.108938 3.5101306 1.1624525 222 0 0 0 3.50582
-13.564491 3.7262144 1.1259098 119 0 0 0 3.9060199
-12.512485 3.7636449 1.3621895 492 0 0 0 4.2887301
-8.1339188 4.0334077 1.3987832 749 0 0 0 7.01966
-7.7348475 4.3124328 1.3665261 514 0 0 0 7.7968297
-15.226137 4.5897188 1.2698842 304 0 0 0 4.2887301
-9.0424452 4.7700028 1.3235153 392 0 0 0 7.4082999
-7.5261474 4.6905327 1.3696814 430 0 0 0 8.57582
-7.4336038 4.8878598 1.3748388 580 0 0 0 8.9713802
-9.0795488 5.223772 1.3567942 596 0 0 0 7.9910946
-8.1861382 5.1093807 1.2526966 621 0 0 0 8.57582
-7.5087609 5.2053723 1.4122515 580 0 0 0 9.3543797
-3.3825212 5.4632516 1.0142732 1022 0 0 0 15.99586
-2.5376863 5.4863338 1.2564496 938 0 0 0 17.941891
-2.3817468 5.4963708 1.2464719 1148 0 0 0 18.33729
-17.730673 5.8276467 1.4863601 65 0 0 0 4.6737599
-15.83629 5.6316218 1.3417411 132 0 0 0 5.0671701
-13.472384 5.9255352 1.1800337 298 0 0 0 6.2336102
-7.8095188 5.7059278 1.2580453 432 0 0 0 9.7441502
-3.2203305 5.7095084 1.2506852 913.33331 0 0 0 16.646963
-2.7897081 5.5496879 1.3388143 901.83331 0 0 0 17.424997
-2.2242126 5.7602768 1.3415531 802.875 0 0 0 18.969234
-1.800282 5.8612652 1.1814221 1017.6667 0 0 0 20.09058
-9.2889185 6.4607759 1.4668243 771 0 0 0 9.3543797
-2.727982 6.1648464 1.1673561 611.20001 0 0 0 18.180614
-2.3345602 6.2359438 1.2222857 346 0 0 0 19.11165
-1.6290386 6.0996461 1.3193476 1069 0 0 0 20.67202
-1.4788043 6.1415796 1.0895067 886 0 0 0 21.065109
0.87424266 6.4923434 1.0606288 1059 0 0 0 26.919899
1.2806561 6.4651184 1.3945774 610.5 0 0 0 27.897324
1.6233505 6.4856443 1.4156451 602 0 0 0 28.679314
-8.6507435 6.6616216 1.4181788 1157 0 0 0 10.13883
-8.2295561 6.7728291 1.2136816 1366 0 0 0 10.661386
-7.8054357 6.8576694 1.2693561 1235 0 0 0 11.178407
-7.4184103 6.9569941 1.2025745 1418 0 0 0 11.69521
-3.1287639 6.8222141 1.1859499 505 0 0 0 17.941891
-2.772469 6.9164972 1.0879339 496 0 0 0 18.72447
0.74377608 6.7615876 1.2691025 790.79999 0 0 0 26.535145
1.1910051 6.6900482 1.2686753 600.66669 0 0 0 27.575663
1.8092256 6.6885452 1.3376757 583 0 0 0 28.971466
2.1235013 6.6822324 1.3114102 109 0 0 0 29.652719
4.1167951 6.9949965 1.1138238 860 0 0 0 33.171661
-7.130023 7.0191927 1.1846554 1509 0 0 0 12.08531
-6.7221231 7.1164293 1.1612239 1505.5 0 0 0 12.67182
-6.1906147 7.2253499 1.2476555 1543.6666 0 0 0 13.453316
-5.7165899 7.330925 1.2670088 1669.2 0 0 0 14.196991
-5.1883144 7.401741 1.3017755 1386.5 0 0 0 15.01695
-4.8348131 7.4644432 1.2828798 1215 0 0 0 15.6073
-3.2442822 7.0844069 1.0385866 593 0 0 0 17.941891
0.43496972 7.1319613 1.1511934 741 0 0 0 25.747681
0.99665809 7.3217387 1.3747253 546 0 0 0 26.919899
1.2611434 7.2476625 1.3700984 610 0 0 0 27.509464
1.9183989 7.2395296 1.210883 83 0 0 0 28.870449
2.1843576 7.1602812 1.2114339 187 0 0 0 29.45817
3.7745488 7.2091274 1.2172998 773 0 0 0 32.393097
4.3104658 7.0520558 1.2708898 838 0 0 0 33.433186
4.6794844 7.1143131 1.1673417 668 0 0 0 33.94978
22.624447 7.4717464 1.4311652 3202 0 0 0 44.514221
1.4618998 7.7871313 1.1773243 260.5 0 0 0 27.701839
1.7231836 7.6203594 1.2605371 178.5 0 0 0 28.290495
3.4744272 7.7641497 1.1631646 385.5 0 0 0 31.411215
3.5039496 7.5766864 1.3497554 788 0 0 0 31.609949
6.9675899 7.7629533 1.4219778 549 0 0 0 36.298679
7.3813062 7.6957169 1.3631248 592 0 0 0 36.822033
7.6158195 7.678802 1.2058613 477 0 0 0 37.0853
27.316883 7.5499578 1.000159 23 0 0 0 45.293941
-22.649336 8.0810137 1.312847 19 0 0 0 5.0671701
-1.6283391 8.2180958 1.2289536 1525.75 0 0 0 21.652956
-1.2210968 8.2763538 1.2292686 1462.75 0 0 0 22.424135
-0.71197242 8.3658895 1.2365569 1570.8334 0 0 0 23.405943
-0.30068278 8.4066763 1.3452981 1252 0 0 0 24.182119
3.4659176 8.000227 1.4073676 10 0 0 0 31.212481
3.8295648 8.2587423 1.0176698 564 0 0 0 31.609949
6.4025011 8.2913218 1.1686895 782 0 0 0 35.12014
6.6996045 8.1105947 1.3483015 646 0 0 0 35.645042
7.3017654 8.1279116 1.2176318 306 0 0 0 36.298679
-0.1630282 8.5447092 1.2260411 1564.6666 0 0 0 24.445374
0.2260963 8.6278515 1.2749619 1658.75 0 0 0 25.163904
1.4552991 8.8913126 1.2224904 409 0 0 0 27.317089
6.3640432 8.6737862 1.1989149 747 0 0 0 34.737621
9.8629351 8.7728558 1.1411171 509 0 0 0 38.064949
10.692654 8.6007595 1.1846833 357 0 0 0 38.84774
3.2380838 9.275528 1.2136974 1093.5 0 0 0 30.038469
3.6642928 9.3589954 1.2418008 1109.25 0 0 0 30.633291
4.1213484 9.4710474 1.1488173 1315 0 0 0 31.212481
7.7666407 9.079402 1.3275751 270 0 0 0 35.913807
4.7663722 9.6182318 1.1935611 502 0 0 0 32.000671
5.1011353 9.6821833 1.2166263 1047 0 0 0 32.392971
5.8062305 9.8075123 1.2664973 633 0 0 0 33.171661
6.2022972 9.9068727 1.2983851 860 0 0 0 33.563953
6.6034727 9.9877262 1.3293471 869 0 0 0 33.94978
16.265789 9.769269 1.1482726 237 0 0 0 40.995033
7.1635509 10.26928 1.3885512 78 0 0 0 34.343929
15.672557 10.220314 1.133163 264 0 0 0 40.405434
20.873711 11.168139 1.4225476 141 0 0 0 41.770832
20.498735 11.625686 1.4164701 145 0 0 0 41.379921
17.242373 -23.30821 1.6971554 15 0 0 0 64.441994
15.836828 -20.349474 1.5149363 42 0 0 0 64.046989
17.055233 -19.825367 1.5387601 18 0 0 0 63.256729
21.343279 -19.394426 1.7001634 60 0 0 0 61.303646
13.18479 -17.828751 1.859001 17 0 0 0 64.441994
13.986674 -17.97201 1.9095272 32 0 0 0 64.046989
14.633698 -15.415065 1.7892642 46 0 0 0 62.48148
15.421864 -14.72584 1.7970984 93 0 0 0 61.692539
0.95042384 -13.138619 1.7458018 214 0 0 0 73.424873
1.2997996 -13.394026 1.7833428 451 0 0 0 73.041046
47.647331 -13.23302 1.7105926 8 0 0 0 53.888847
0.5990836 -12.570323 1.9800768 276 0 0 0 73.816322
-0.16691171 -12.217129 1.620965 203 0 0 0 74.800552
0.28086168 -12.166792 1.915719 387 0 0 0 74.213249
0.87134141 -12.072383 1.906112 518 0 0 0 73.424873
1.333699 -12.193249 1.9322708 236 0 0 0 72.844116
49.551422 -12.459693 1.76724 19 0 0 0 53.500526
-25.949852 -11.504273 1.6493666 17 0 0 0 92.976753
-18.395376 -11.654632 1.8116369 62 0 0 0 90.652328
-0.60318071 -11.961159 1.5891749 96 0 0 0 75.391441
-0.16316585 -11.918198 1.8767679 308 0 0 0 74.800552
15.624929 -11.626273 1.6493852 92 0 0 0 59.736794
-14.139225 -11.038894 1.9317361 184 0 0 0 89.075592
-5.8918252 -11.01636 1.6570317 348 0 0 0 82.430611
2.2596149 -11.473873 1.8458769 250 0 0 0 71.480354
4.0314445 -11.34104 1.6053993 171 0 0 0 69.130692
11.150736 -11.193861 1.7246593 25 0 0 0 62.080688
14.250244 -11.15998 1.9749433 14 0 0 0 60.12796
14.684534 -11.498583 1.5802372 7 0 0 0 60.12796
-6.1791368 -10.699464 1.8438429 103.66666 0 0 0 82.950958
-5.7226281 -10.699477 1.9102097 289 0 0 0 82.430611
-4.0582113 -10.501793 1.7740138 171 0 0 0 80.47406
2.2536523 -10.744729 1.8690746 157.5 0 0 0 71.285858
11.61123 -10.564877 1.7154858 90 0 0 0 61.303646
-8.9895134 -10.424984 1.8253093 108 0 0 0 85.951149
-2.6644363 -10.06715 1.9005523 263.5 0 0 0 78.711197
-2.3472049 -10.401332 1.9450724 209 0 0 0 78.118248
-1.0386368 -10.394316 1.9065037 169 0 0 0 76.169907
1.4628522 -10.006181 1.5997277 250 0 0 0 72.254639
3.4400795 -10.492422 1.7481565 397 0 0 0 69.527214
3.7197955 -10.471146 1.7597643 170 0 0 0 69.130692
4.6923127 -10.307388 1.5152408 132.5 0 0 0 67.763245
5.2051296 -10.400164 1.5560615 158 0 0 0 67.174286
12.351438 -10.17578 1.7497461 117 0 0 0 60.523129
-9.9702835 -9.9739666 1.6971474 348 0 0 0 87.129745
-4.5921116 -9.6977234 1.9578705 150 0 0 0 81.649765
-4.4251552 -9.969305 1.9895114 109 0 0 0 81.256226
-3.684866 -9.8879881 1.9256473 378 0 0 0 80.277328
-3.1944044 -9.9130211 1.7300143 530 0 0 0 79.556938
-2.9518678 -9.6993771 1.851109 482 0 0 0 79.290909
1.4182035 -9.7071028 1.7954754 117 0 0 0 72.254639
3.3267443 -9.7438087 1.8876595 152 0 0 0 69.328949
4.4244175 -9.7297192 1.9611549 237 0 0 0 67.763245
5.5987668 -9.9383402 1.5283796 29 0 0 0 66.396477
-4.7572632 -9.4416742 1.668502 155 0 0 0 82.037323
1.817642 -9.2552643 1.9605399 365 0 0 0 71.480354
4.2622628 -9.0743399 1.5937796 489 0 0 0 67.562439
18.652691 -9.4214687 1.7731372 166 0 0 0 57.003567
1.9721174 -8.8880911 1.6703721 432 0 0 0 71.09137
2.2555442 -8.6574116 1.7516534 484.5 0 0 0 70.497803
3.4346855 -8.9763107 1.7652348 244 0 0 0 68.736046
3.8743153 -8.8061829 1.7648258 412.5 0 0 0 67.964043
4.2946992 -8.5928364 1.7647324 354 0 0 0 67.174286
4.7480359 -8.9408007 1.6103649 110 0 0 0 66.790421
13.402544 -8.9908047 1.7674352 129 0 0 0 58.953953
2.2742317 -8.3088827 1.5834849 621 0 0 0 70.301079
2.7566199 -8.4223213 1.7390664 278.5 0 0 0 69.523827
3.9682674 -8.4540462 1.9480517 215 0 0 0 67.562439
13.655852 -7.7685175 1.7237337 169 0 0 0 57.779312
-10.925632 -7.3075767 1.7491981 214 0 0 0 90.254486
-9.9060612 -7.3535209 1.9481124 41 0 0 0 89.461853
-13.197738 -6.9203649 1.7355099 291.33334 0 0 0 91.9347
12.820229 -6.8837366 1.6000205 173 0 0 0 57.389339
-6.6312113 -6.0144196 1.7530136 623 0 0 0 87.899803
-11.190432 -5.64013 1.9815598 65 0 0 0 92.192574
-10.976922 -5.8746138 1.9684453 216 0 0 0 91.805763
-7.0097222 -5.7577081 1.6650451 500 0 0 0 88.678818
-6.7528796 -5.7342553 1.7716621 757.33331 0 0 0 88.415443
12.085844 -5.7425857 1.8054386 35 0 0 0 56.608471
-2.3957741 -5.0530319 1.8599273 1117 0 0 0 81.649765
-2.579504 -4.9638853 1.860495 938.25 0 0 0 82.233963
-2.2295289 -4.9148111 1.74315 687.40002 0 0 0 81.374756
-1.9051815 -4.8524613 1.9394982 728.20001 0 0 0 80.55294
16.174448 -4.9310536 1.8578036 75 0 0 0 54.271591
10.929648 -4.2391376 1.5881468 4432 0 0 0 55.445278
10.88594 -3.9171293 1.5682963 5520 0 0 0 55.059193
28.558298 -2.8399689 1.7149899 199 0 0 0 51.14727
29.075649 -1.4537605 1.7396374 45 0 0 0 50.37154
-12.768246 2.5176058 1.8317213 376 0 0 0 2.7369299
-12.49776 2.7811353 1.6457732 484 0 0 0 3.11782
-17.126389 3.391149 1.811057 47 0 0 0 2.7369299
-12.63567 3.4654136 1.6842915 111 0 0 0 3.9060199
-12.471331 3.0956213 1.6518075 498 0 0 0 3.50582
-12.916354 3.8837936 1.7337164 383 0 0 0 4.2887301
-8.1235657 4.1511211 1.7389722 738.5 0 0 0 7.2139797
-7.6890426 4.2871079 1.6810483 816.5 0 0 0 7.7973475
-7.4658098 4.4026284 1.5499688 699 0 0 0 8.1832895
-14.444818 4.7354598 1.9520161 265 0 0 0 4.6737599
-7.4137321 4.7459507 1.6828939 757.25 0 0 0 8.7735996
-15.446478 5.4913144 1.7043382 91 0 0 0 5.0671701
-7.5360475 5.223444 1.8643373 784 0 0 0 9.3543797
-7.3622947 5.1015725 1.603889 717 0 0 0 9.3543797
-16.930498 5.5620894 1.8500404 127 0 0 0 4.6737599
-7.7635393 5.6708369 1.6008286 336.5 0 0 0 9.7441502
-3.186034 5.7553639 1.5210578 6 0 0 0 16.777531
-2.7482657 5.668663 1.6520984 387.5 0 0 0 17.651234
-2.3872643 5.7710681 1.6544476 566.33331 0 0 0 18.599905
-14.571764 6.4133329 1.6579351 39 0 0 0 6.2336102
-14.233698 6.2596464 1.9990603 178 0 0 0 6.2336102
-13.813394 6.4798951 1.9627918 309 0 0 0 6.62321
-9.7042723 6.4070148 1.5058985 1034 0 0 0 8.9713802
-2.2806852 6.0772719 1.6669887 577 0 0 0 19.11165
1.2833729 6.4850235 1.5608401 812.5 0 0 0 27.897324
1.5308752 6.4646115 1.5694505 832 0 0 0 28.48818
-17.553656 6.7344508 1.9519373 48 0 0 0 5.4632998
-15.904216 6.5462918 1.7883226 99 0 0 0 5.84975
-13.817897 6.8986011 1.987412 229 0 0 0 7.01966
-8.4023457 6.8006587 1.8027464 69 0 0 0 10.5347
-7.9444017 6.7537737 1.6129918 5 0 0 0 10.91476
-7.1113119 6.9978557 1.5476007 35 0 0 0 12.08531
0.84584868 6.7881227 1.746171 561 0 0 0 26.767071
1.2036805 6.7112317 1.7349409 765.75 0 0 0 27.607208
1.7324798 6.7034669 1.7712044 397 0 0 0 28.796173
-6.7014599 7.0915442 1.5158169 1249 0 0 0 12.67182
0.60923779 7.1143098 1.50379 786 0 0 0 26.14234
3.7587986 7.39779 1.5491168 850 0 0 0 32.196823
4.1400743 7.2351232 1.5571227 826 0 0 0 32.978653
4.5731807 7.3419194 1.6149184 149 0 0 0 33.563953
27.080889 7.4854531 1.680975 45 0 0 0 45.293941
-4.8654943 7.9363403 1.6863607 182 0 0 0 15.99586
3.7803509 7.6705232 1.7347397 464 0 0 0 32.001198
4.2104411 7.5705462 1.8301702 697 0 0 0 32.785641
7.2093458 7.8343863 1.7153335 702.5 0 0 0 36.494537
7.6618214 7.7287393 1.7525036 601 0 0 0 37.0853
24.790052 7.5143781 1.5527196 50 0 0 0 44.900112
-2.5548067 8.0749941 1.9634724 179 0 0 0 19.90065
6.9441538 8.1311417 1.7221997 671 0 0 0 35.913807
0.33305958 8.6668425 1.603471 30 0 0 0 25.356039
6.9868007 8.5995464 1.7828492 472 0 0 0 35.510658
10.7956 8.9057188 1.5485212 399 0 0 0 38.649113
24.939331 8.9203196 1.5863547 31 0 0 0 44.119671
3.2762456 9.3885612 1.7206845 60 0 0 0 30.038469
10.406679 9.4850235 1.557711 466 0 0 0 37.872921
10.529332 9.1321287 1.5423665 445 0 0 0 38.256981
16.369377 9.8358412 1.6322743 238 0 0 0 40.995033
23.473061 9.7237701 1.5227817 22 0 0 0 43.344208
7.1556473 10.262961 1.6962115 19 0 0 0 34.343929
15.993431 10.154838 1.6197286 253 0 0 0 40.601406
23.490452 10.415259 1.5399241 23 0 0 0 42.94648
15.854682 10.623466 1.6315088 187 0 0 0 40.209461
23.747047 11.235714 1.5737602 22 0 0 0 42.564419
29.642752 14.92094 1.9780169 29 0 0 0 42.16782
24.191334 17.055044 1.7698723 28 0 0 0 39.822701
15.367246 -24.324978 2.3963244 20 0 0 0 65.616554
-37.359444 -21.164194 2.4712844 18 0 0 0 91.426476
17.305347 -19.140276 2.1629128 21 0 0 0 62.865379
15.57779 -18.10627 2.0036201 69 0 0 0 63.256729
13.835089 -17.778748 2.4368775 33 0 0 0 64.046989
17.332529 -17.377247 2.0616224 23 0 0 0 62.080688
12.083619 -14.772331 2.0712576 36 0 0 0 63.656353
15.464079 -14.766774 2.3218431 34 0 0 0 61.692539
12.831325 -13.522067 2.0270178 50 0 0 0 62.48148
-12.637488 -13.280203 2.4205914 16 0 0 0 86.731491
0.62228417 -13.047864 2.3770378 392 0 0 0 73.816322
-1.7984575 -12.034566 2.2151659 71 0 0 0 76.952118
-0.017380824 -12.375658 2.2532804 257 0 0 0 74.60907
0.28709146 -12.430934 2.2640262 238 0 0 0 74.213249
-18.401794 -11.658728 2.3412917 60 0 0 0 90.652328
-14.10971 -11.587941 2.4137866 49 0 0 0 88.678818
-0.59028453 -11.683349 2.4188304 264 0 0 0 75.391441
13.764145 -11.910283 2.4321783 10 0 0 0 60.909519
14.426957 -11.876313 2.4968934 18 0 0 0 60.523129
15.70474 -11.685995 2.1337712 60 0 0 0 59.736794
-14.171143 -11.067805 2.3782582 150 0 0 0 89.075592
-6.33427 -11.176541 2.3383415 358 0 0 0 82.82428
1.3950484 -11.480334 2.1099102 90 0 0 0 72.647194
4.5449123 -11.042336 2.4792566 114 0 0 0 68.347046
14.249759 -11.156085 2.4203227 75 0 0 0 60.12796
17.438129 -11.078824 2.2526863 37 0 0 0 58.572121
-7.7396812 -10.709663 2.4057386 167 0 0 0 84.568054
-6.3197198 -10.539951 2.2385714 169 0 0 0 83.204315
-5.6786366 -10.61682 2.4891667 126 0 0 0 82.430611
-5.3399868 -10.599661 2.4539895 269 0 0 0 82.037323
-4.757246 -10.71869 2.4246743 33 0 0 0 81.256226
-2.9553452 -10.642263 2.2849534 252 0 0 0 78.903191
1.8616532 -10.857701 2.0126555 107 0 0 0 71.869537
4.5216994 -10.985366 2.1743946 186 0 0 0 68.347046
11.552771 -10.508695 2.091383 138 0 0 0 61.303646
14.968782 -10.57594 2.4525082 57 0 0 0 59.350521
-10.93124 -10.41364 2.0004389 22 0 0 0 87.516739
-9.7341852 -10.229052 2.221446 175 0 0 0 86.731491
-9.3156643 -10.282516 2.182965 44 0 0 0 86.339218
-8.0168219 -10.274399 2.3734858 71 0 0 0 85.16024
-3.8160923 -10.247592 2.2629519 290 0 0 0 80.277328
-3.4213421 -10.329633 2.2517171 165 0 0 0 79.689957
-1.1654735 -10.386921 2.2918606 197.5 0 0 0 76.368401
3.392638 -10.350852 2.2624068 417 0 0 0 69.527214
5.7966471 -10.289071 2.1658313 78 0 0 0 66.396477
-9.9446135 -9.9500132 2.2137091 242 0 0 0 87.129745
-5.1724467 -9.6694365 2.0005848 292 0 0 0 82.430611
-4.9435339 -9.811779 2.0041206 183 0 0 0 82.037323
1.4546432 -9.949398 2.2095182 76 0 0 0 72.254639
1.9088743 -9.7064428 2.2964783 378 0 0 0 71.480354
2.3053489 -9.8115444 2.0937514 292 0 0 0 70.892944
3.6562641 -9.5474758 2.3771875 231 0 0 0 68.736046
4.7665472 -9.5276051 2.4788129 372 0 0 0 67.174286
5.286293 -9.9489079 2.2059724 169.5 0 0 0 66.790421
5.668715 -9.512866 2.3065343 152 0 0 0 66.0028
35.627613 -9.8988914 2.1948593 21 0 0 0 53.888847
2.8314517 -9.4200869 2.0457075 253 0 0 0 69.916962
3.4733264 -9.0772848 2.0237608 179 0 0 0 68.736046
4.4169478 -9.399333 2.4165666 427 0 0 0 67.562439
11.167418 -9.2011566 2.3007565 85 0 0 0 60.523129
18.672844 -9.4319296 2.2840359 90 0 0 0 57.003567
1.8308492 -8.7627239 2.19333 268.5 0 0 0 71.285858
2.1207068 -8.5597067 2.0520277 177 0 0 0 70.694527
2.876163 -8.7830048 2.1508934 218 0 0 0 69.527214
3.0566189 -8.6154642 2.1285934 174 0 0 0 69.130692
3.6744368 -8.7360601 2.2854087 274.66666 0 0 0 68.219383
4.0130343 -8.5461731 2.4319868 359 0 0 0 67.562439
12.22671 -8.6445665 2.3820429 80 0 0 0 59.350521
13.256279 -8.8900166 2.1416125 52 0 0 0 58.953953
13.807199 -8.7749243 2.1948776 24 0 0 0 58.572121
2.1000345 -8.4782343 2.2470701 228 0 0 0 70.694527
11.224527 -8.3589926 2.2281249 40 0 0 0 59.736794
12.00725 -8.0555048 2.3022451 29 0 0 0 58.953953
-10.181967 -7.9527664 2.0380299 404 0 0 0 89.075592
-9.6181803 -7.5125313 2.2289515 138 0 0 0 89.075592
13.023593 -7.8365383 2.0427306 55 0 0 0 58.175179
-10.553532 -7.0588045 2.0048299 43 0 0 0 90.254486
-9.9787893 -7.0347028 2.2307329 192 0 0 0 89.857666
-11.509025 -6.5273819 2.4166689 73 0 0 0 91.426476
-10.797214 -6.7205882 2.1120336 222.33333 0 0 0 90.779427
-10.250062 -6.8559189 2.2532413 40 0 0 0 90.254486
-9.7988815 -6.7282386 2.4653623 88 0 0 0 90.056076
12.063799 -6.8636289 2.2136781 42 0 0 0 57.779312
13.777572 -6.9628496 2.076122 130 0 0 0 57.003567
16.013109 -6.6583333 2.329514 60 0 0 0 55.831699
34.958748 -6.9896803 2.1193416 6 0 0 0 52.707809
-10.791475 -6.4754896 2.2998681 110 0 0 0 91.03363
-6.6313438 -6.0166512 2.1921942 526 0 0 0 87.899803
11.968225 -6.4257026 2.1680481 59 0 0 0 57.389339
35.160343 -6.1358891 2.1221941 37 0 0 0 52.31881
-9.8459044 -5.9083667 2.3837602 49 0 0 0 91.03363
-6.7420635 -5.7281437 2.1318722 489.66666 0 0 0 88.415443
11.464869 -5.7985401 2.3721936 60 0 0 0 57.003567
11.570087 -5.851336 2.071758 171 0 0 0 57.003567
14.153565 -5.8877468 2.4440949 204 0 0 0 55.831699
-10.863033 -5.1449804 2.495672 186 0 0 0 92.587379
11.650116 -5.3615737 2.209332 48.5 0 0 0 56.412498
13.696749 -5.3074217 2.3442943 69 0 0 0 55.445278
-2.3000739 -4.8524318 2.0499542 587.66669 0 0 0 81.647774
11.831714 -4.5875821 2.3458917 57 0 0 0 55.445278
13.687278 -4.920361 2.3222189 109 0 0 0 55.059193
14.136031 -4.691906 2.0079601 59 0 0 0 54.66404
15.263982 -4.2443938 2.13427 22 0 0 0 53.888847
29.093496 -1.4493649 2.4672253 44 0 0 0 50.37154
28.448158 -0.71699667 2.4114432 233 0 0 0 49.978489
36.668571 -0.92975312 2.182071 30 0 0 0 49.978489
36.57785 -0.028467771 2.1763227 25 0 0 0 49.591599
41.900253 0.99736387 2.4882512 16 0 0 0 49.201767
-12.93898 2.2261004 2.0080562 476 0 0 0 2.3432801
-13.040096 2.5716252 2.3582997 412 0 0 0 2.7369299
-12.85571 2.8614841 2.1764898 321 0 0 0 3.11782
-12.84938 3.1902533 2.1885133 371.5 0 0 0 3.50582
-12.817423 3.5155773 2.033716 459 0 0 0 3.9060199
-14.812399 4.8567548 2.3835835 133 0 0 0 4.6737599
-7.8829145 4.7805319 2.0949092 607 0 0 0 8.3795547
-15.171536 5.3892674 2.0669158 114 0 0 0 5.0671701
-14.840756 5.2702332 2.4086127 161 0 0 0 5.0671701
-7.7648778 5.1058064 2.1129706 655 0 0 0 8.9713802
-15.237657 5.8353944 2.0951352 23 0 0 0 5.4632998
-14.982068 5.736125 2.4539707 90 0 0 0 5.4632998
-16.05592 6.6054225 2.2287633 73 0 0 0 5.84975
-8.715867 6.7101383 2.2357819 14 0 0 0 10.13883
-8.4070244 6.8032832 2.1997023 90 0 0 0 10.5347
-6.3726249 7.252306 2.2082386 27 0 0 0 13.25847
22.650387 7.4852672 2.0281916 4148 0 0 0 44.514221
26.36804 7.294343 2.3204479 26 0 0 0 45.293941
24.814619 7.5271435 2.2013566 47 0 0 0 44.900112
-2.6563029 8.0485878 2.1714349 45.5 0 0 0 19.700235
-2.2488933 8.1345081 2.1654162 68 0 0 0 20.478596
-1.843884 8.2193604 2.1644273 22.5 0 0 0 21.262844
23.666162 8.4712582 2.1347649 43 0 0 0 44.119671
3.2572672 9.338397 2.0784481 44 0 0 0 30.038469
23.489597 9.0659294 2.1380076 34 0 0 0 43.72858
-10.408115 9.802247 2.2064333 53 0 0 0 11.69521
23.149885 9.5956869 2.1278362 63 0 0 0 43.344208
7.1360784 10.236284 2.0017154 23 0 0 0 34.343929
23.220917 10.993167 2.181011 19 0 0 0 42.564419
23.710423 10.518287 2.2013495 26 0 0 0 42.94648
23.422396 11.802197 2.2259643 6 0 0 0 42.16782
17.167027 -28.701729 2.7775915 22 0 0 0 66.0028
8.7446289 -22.748251 2.616394 20 0 0 0 68.736046
14.012452 -21.027414 2.724452 11 0 0 0 65.224739
43.596275 -20.670723 2.8428051 14 0 0 0 56.608471
17.668016 -19.541578 2.8478711 15 0 0 0 62.865379
43.30838 -19.247356 2.7946017 26 0 0 0 56.216526
15.625604 -18.16271 2.5921087 46 0 0 0 63.256729
43.105591 -17.903893 2.7543378 17 0 0 0 55.831699
12.678948 -17.142328 2.831811 11 0 0 0 64.441994
13.493391 -17.335545 2.9178603 27 0 0 0 64.046989
15.906895 -15.947174 2.9971361 11 0 0 0 62.080688
1.4874049 -15.304431 2.7934105 118 0 0 0 73.041046
14.249674 -15.007907 2.7556746 50 0 0 0 62.48148
1.0775973 -14.869682 2.708699 172 0 0 0 73.424873
13.2574 -14.669177 2.6333711 21 0 0 0 62.865379
