# .PCD v0.7 - Point Cloud Data file format
VERSION 0.7
FIELDS x y z intensity normal_x normal_y normal_z curvature
SIZE 4 4 4 4 4 4 4 4
TYPE F F F F F F F F
COUNT 1 1 1 1 1 1 1 1
WIDTH 893
HEIGHT 1
VIEWPOINT 0 0 0 1 0 0 0
POINTS 893
DATA ascii
-2.592206 -3.5801601 -0.90904891 154.5 0 0 0 84.531891
-2.2700782 -3.7763634 -0.90642607 185.2 0 0 0 83.171188
-1.7972951 -3.6682849 -0.91037643 151 0 0 0 81.80349
-1.2517605 -3.7623849 -0.9077493 100.8 0 0 0 79.653564
-0.88448507 -3.8938036 -0.91326785 61.333332 0 0 0 78.093536
1.3676428 -3.8844221 -0.93673438 38.666668 0 0 0 69.104088
1.7576357 -3.765588 -0.94453466 52.799999 0 0 0 67.541183
2.1815338 -3.5839372 -0.95190924 31.5 0 0 0 65.778152
2.7521205 -3.7548318 -0.94498605 105.42857 0 0 0 64.410728
3.4371877 -3.9230759 -0.93182856 236.5 0 0 0 63.036606
3.5979431 -3.6318624 -0.91113353 198.33333 0 0 0 62.062851
4.3335042 -3.7720768 -0.88146168 277.66666 0 0 0 60.885925
4.9263916 -3.6823356 -0.79521161 302.66666 0 0 0 59.713169
5.4377022 -3.8559268 -0.69809598 265 0 0 0 59.328712
5.550509 -3.6361771 -0.69321817 446.5 0 0 0 58.738945
6.2895112 -3.7973099 -0.58816671 226.66667 0 0 0 58.152996
-10.062329 -3.0545859 -0.64694321 510 0 0 0 94.898811
-9.2195425 -3.0479519 -0.713817 476 0 0 0 94.513687
-8.7682266 -3.1396236 -0.68554592 591.5 0 0 0 94.124557
-8.2030087 -3.1666276 -0.64571035 779 0 0 0 93.723557
-7.7921033 -3.3049815 -0.58564252 512.66669 0 0 0 93.194885
-7.2574792 -3.2193844 -0.67930007 936 0 0 0 92.933319
-6.8626442 -3.1812773 -0.77012044 566 0 0 0 92.675499
-6.3044691 -3.3314221 -0.67807353 812.40002 0 0 0 91.841965
-5.7210631 -3.3078206 -0.77695489 499 0 0 0 91.258888
-5.4539456 -3.2722154 -0.85355419 336 0 0 0 90.999565
-4.5240202 -3.1865416 -0.871746 323 0 0 0 89.826157
-4.3856978 -3.4224317 -0.87708521 338 0 0 0 89.0392
-3.6542861 -3.1844938 -0.73953545 203.2 0 0 0 88.175255
-3.1962886 -3.2851241 -0.79742759 100.85714 0 0 0 86.864403
-2.8253031 -3.3553698 -0.90206218 143.25 0 0 0 85.714142
-2.2737043 -3.2251604 -0.90490973 91.571426 0 0 0 84.34124
2.4292014 -3.4004328 -0.94629872 82.5 0 0 0 64.604439
2.6212647 -3.1511679 -0.92628473 87.5 0 0 0 63.431576
3.1811779 -3.2165523 -0.91333902 169.60001 0 0 0 62.060375
3.7920275 -3.2228003 -0.88391441 121 0 0 0 60.689251
4.4343982 -3.2377932 -0.83823532 157.75 0 0 0 59.518829
4.9958053 -3.3641784 -0.7759822 232 0 0 0 58.935806
5.052628 -3.1382561 -0.76454729 196 0 0 0 58.34819
5.6646829 -3.232873 -0.67825216 443.33334 0 0 0 57.763947
6.4410639 -3.3674326 -0.57838655 251.5 0 0 0 57.177925
6.5482936 -3.1210885 -0.57530224 548 0 0 0 56.58564
-12.058748 -2.709698 -0.76330334 173 0 0 0 96.056206
-11.640565 -2.9177406 -0.74120653 324 0 0 0 95.673088
-10.76955 -2.9824171 -0.68876064 502 0 0 0 95.280235
-9.1098557 -2.6443052 -0.81441891 235 0 0 0 95.089523
-7.0483036 -2.7245007 -0.83015603 344.33334 0 0 0 93.724586
-5.6410928 -2.7582927 -0.84116071 328.25 0 0 0 92.347633
-4.6264038 -2.6975999 -0.84180999 276 0 0 0 91.18969
-4.1508489 -2.7394352 -0.65991569 686 0 0 0 90.314545
-3.8945994 -2.8265333 -0.7678569 390.33334 0 0 0 89.606964
-3.2167747 -2.7752657 -0.87217867 120.8 0 0 0 88.253357
-2.6973495 -2.8323178 -0.89542115 99 0 0 0 86.69239
2.8669105 -2.7624717 -0.89685565 65.400002 0 0 0 61.669258
3.34039 -2.7157683 -0.88422072 70.400002 0 0 0 60.338966
3.82568 -2.7219455 -0.85605526 79.5 0 0 0 59.326202
4.0022182 -2.5595903 -0.83823884 115 0 0 0 58.542088
4.5188332 -2.735656 -0.80218124 122.33334 0 0 0 58.152996
5.1379962 -2.7700262 -0.74744183 212 0 0 0 57.372814
5.8661056 -2.7950239 -0.67238522 244 0 0 0 56.588135
6.0073743 -2.5072229 -0.67134029 196 0 0 0 55.80069
6.7659035 -2.8241482 -0.57948416 345.33334 0 0 0 55.805069
7.036222 -2.5382285 -0.58930349 184 0 0 0 55.035751
-9.0954552 -2.1624684 -0.80048668 313 0 0 0 95.864647
-7.0623274 -2.2424011 -0.81171292 446.5 0 0 0 94.706253
-5.7499604 -2.2219713 -0.82338589 302 0 0 0 93.724586
-4.808063 -2.2042634 -0.82967204 226.25 0 0 0 92.738083
-4.1028438 -2.2627466 -0.84939122 124.25 0 0 0 91.574692
-3.55073 -2.1307189 -0.84774327 78.666664 0 0 0 90.998299
-3.406245 -2.4003315 -0.85382432 75.333336 0 0 0 89.82592
3.060405 -2.4161417 -0.87530482 30 0 0 0 60.09922
3.644917 -2.2723727 -0.85997254 70.5 0 0 0 58.348698
4.1087742 -2.2850621 -0.82779717 89 0 0 0 57.568184
4.6819549 -2.2367561 -0.78446186 148.39999 0 0 0 56.588013
5.3123999 -2.2969756 -0.73767686 228.5 0 0 0 56.000214
6.1788497 -2.2282431 -0.67569256 259 0 0 0 55.030087
7.2780871 -2.2257974 -0.59776574 302 0 0 0 54.250141
8.9356976 -2.4923937 -0.5047999 141 0 0 0 53.862568
9.1997929 -2.2019367 -0.51307696 130 0 0 0 53.275002
-7.073813 -1.777029 -0.79699439 334.66666 0 0 0 95.669838
-5.8200188 -1.769405 -0.81063706 305 0 0 0 94.897583
-4.934607 -1.6994406 -0.81672198 130.25 0 0 0 94.315155
-4.2323112 -1.7566719 -0.82887793 92.800003 0 0 0 93.330734
-3.7009094 -1.7530296 -0.83748835 46.200001 0 0 0 92.543236
3.7474499 -1.7946756 -0.82833326 50.200001 0 0 0 56.588013
4.2429714 -1.7782609 -0.80637836 81.599998 0 0 0 55.80732
4.8208561 -1.7450813 -0.7711522 124.33334 0 0 0 55.030087
5.4393077 -1.964044 -0.73442179 210 0 0 0 55.035751
5.5361118 -1.6956028 -0.73360175 201.66667 0 0 0 54.250149
6.3459015 -1.7706895 -0.67455196 225.33333 0 0 0 53.860291
7.4818249 -1.8913598 -0.60388225 261 0 0 0 53.4683
7.6595693 -1.6369922 -0.61137789 222 0 0 0 52.88343
9.7469921 -1.9559125 -0.53816211 78 0 0 0 52.685162
10.056103 -1.7612505 -0.55168366 78 0 0 0 52.293327
10.543101 -1.5796077 -0.5756914 178 0 0 0 51.907871
-7.1583395 -1.4282624 -0.79622459 123 0 0 0 96.445831
-5.8259315 -1.31144 -0.79368997 94 0 0 0 96.058372
-5.0073628 -1.3212413 -0.80873036 54.5 0 0 0 95.476662
-4.9979687 -1.1234008 -0.79892677 53 0 0 0 96.056206
-4.335392 -1.259897 -0.81455839 47 0 0 0 95.091454
-3.8177559 -1.2634262 -0.8205865 22.200001 0 0 0 94.508163
3.8564746 -1.2917459 -0.80714005 32.200001 0 0 0 54.640572
4.3243899 -1.2707827 -0.78605235 38.75 0 0 0 54.054684
4.9312444 -1.2508799 -0.76198608 82.800003 0 0 0 53.469551
5.659831 -1.211089 -0.73002332 266.25 0 0 0 52.882122
6.4599438 -1.4636481 -0.6760264 157 0 0 0 53.081699
6.5608358 -1.2329751 -0.67966235 280 0 0 0 52.489243
7.8692789 -1.2796053 -0.61985207 344.5 0 0 0 52.100601
8.0586491 -1.0067551 -0.62970209 242 0 0 0 51.50972
10.799108 -1.3468308 -0.58632874 217 0 0 0 51.50972
11.121488 -1.1094919 -0.60106593 127 0 0 0 51.128647
-5.7548161 -0.71206743 -0.76753074 43 0 0 0 97.622223
-5.0003681 -0.99555683 -0.79458833 27 0 0 0 96.445831
-4.3812661 -0.87344098 -0.80438662 30 0 0 0 96.445251
-3.8850353 -0.82395768 -0.80860585 10.75 0 0 0 96.252213
3.958421 -0.74989742 -0.7960065 23 0 0 0 52.491013
4.3690462 -0.76959002 -0.76999813 31.6 0 0 0 52.295555
5.0422621 -0.69709975 -0.7581507 106 0 0 0 51.709888
5.7879581 -0.72377443 -0.73204261 158 0 0 0 51.515411
6.7398047 -0.75433546 -0.68741989 211 0 0 0 51.31958
8.2517815 -0.72115505 -0.64069235 262 0 0 0 50.930363
11.477386 -0.85999864 -0.61785972 126 0 0 0 50.732079
12.110765 -0.60776573 -0.6506356 114 0 0 0 50.337009
-18.265341 -0.22609171 -0.6825431 31 0 0 0 99.37294
-11.601869 -0.14303477 -0.7049638 100.5 0 0 0 99.37294
-8.7620974 -0.10799941 -0.74070376 204.5 0 0 0 99.37294
-7.0591583 -0.17677967 -0.76479262 50.333332 0 0 0 99.178413
-5.7487817 -0.14248908 -0.75903577 80.666664 0 0 0 99.178413
-4.9758549 -0.18301448 -0.77258837 65 0 0 0 98.987198
-4.3618984 -0.16102505 -0.78282779 30 0 0 0 98.987198
3.9909534 -0.35247079 -0.787974 23.5 0 0 0 50.930363
4.2072563 -0.22048958 -0.785483 46.400002 0 0 0 50.341148
4.5200295 -0.11717707 -0.78029364 68 0 0 0 49.948334
5.0845518 -0.19408768 -0.75415075 122.75 0 0 0 50.144272
5.845645 -0.22252177 -0.73063374 177.75 0 0 0 50.144272
6.9317245 -0.26103312 -0.6998167 228.5 0 0 0 50.141762
7.0169668 -0.004572025 -0.70637029 221 0 0 0 49.561489
8.6626558 -0.22068767 -0.66795987 239.33333 0 0 0 49.948334
12.453892 -0.31777316 -0.66713721 118 0 0 0 49.94651
12.64914 -0.011193931 -0.67563802 90 0 0 0 49.561489
-10.440639 0.26759434 -0.70018244 187 0 0 0 0
-8.1368408 0.20728634 -0.73096067 236 0 0 0 0
-5.5757236 0.20531474 -0.75389671 63.5 0 0 0 0.19572
-4.8423576 0.17642212 -0.76065755 32.5 0 0 0 25.18207
-4.286901 0.15716214 -0.76974034 20.25 0 0 0 25.18207
3.9982023 0.49296731 -0.78668326 21 0 0 0 47.61253
4.0361052 0.24495298 -0.7917034 27 0 0 0 48.584007
4.5263834 0.27537239 -0.78009719 54.25 0 0 0 48.584011
5.1490326 0.24873032 -0.76118898 111.66666 0 0 0 48.778522
5.9027543 0.28751257 -0.73463279 182 0 0 0 48.778522
6.9719644 0.3399972 -0.69998133 225 0 0 0 48.775822
7.0433016 0.16933744 -0.70809704 187 0 0 0 49.169006
8.7747765 0.31611347 -0.67323178 215 0 0 0 48.972412
12.668063 0.30076516 -0.67458707 92 0 0 0 49.169006
-4.131557 0.91129464 -0.75123614 27 0 0 0 3.1270399
3.9495616 0.78853554 -0.78511685 28.799999 0 0 0 46.436852
4.4285851 0.77038944 -0.76989573 43.799999 0 0 0 46.82832
4.9873543 0.86651891 -0.74250168 56 0 0 0 46.82444
5.1012802 0.62754369 -0.75624108 91 0 0 0 47.609058
5.9208913 0.73044896 -0.73888832 196 0 0 0 47.609055
6.9891081 0.60112083 -0.70187545 246.5 0 0 0 48.195606
7.0439811 0.86948246 -0.7086972 211 0 0 0 47.61253
8.6567583 0.74118781 -0.66274732 267.5 0 0 0 48.195606
12.563004 0.76296371 -0.66647124 102 0 0 0 48.583286
-6.3835926 1.4196252 -0.72210956 161 0 0 0 3.1270399
-5.344017 1.3188573 -0.73048329 81 0 0 0 3.5136001
-4.627986 1.1992388 -0.74225271 55 0 0 0 3.7079
-4.0793309 1.1608393 -0.74996734 27.75 0 0 0 4.0958328
3.7960503 1.2636043 -0.77686894 39.400002 0 0 0 44.484581
4.3402286 1.2664968 -0.77136546 78.75 0 0 0 45.070625
5.0442138 1.2023408 -0.75977707 142.25 0 0 0 45.852089
5.891211 1.2520331 -0.74306703 221 0 0 0 46.242523
7.0431671 1.2259461 -0.71192008 260 0 0 0 46.825878
8.7571211 1.1870086 -0.67172354 254.5 0 0 0 47.413353
12.238402 1.1985087 -0.64704776 128 0 0 0 48.000462
-7.8555036 1.8530017 -0.70575631 206 0 0 0 3.31777
-6.3316808 1.733519 -0.72046083 151.33333 0 0 0 3.90152
-5.2693038 1.5740622 -0.72559381 92 0 0 0 4.2908001
-3.8177574 1.8818355 -0.74015802 25.333334 0 0 0 7.0196967
3.667551 1.7521122 -0.78721678 64.199997 0 0 0 42.540112
4.227272 1.7659702 -0.77959889 127.8 0 0 0 43.317596
4.928781 1.7051042 -0.76146632 202 0 0 0 44.290054
5.850359 1.7835795 -0.75189811 247.66667 0 0 0 44.875763
7.1005588 1.7859503 -0.72663021 259.33334 0 0 0 45.656445
8.9204826 1.6610613 -0.68774772 218 0 0 0 46.631729
12.249403 1.5049925 -0.64744782 120 0 0 0 47.61253
12.8039 1.8940932 -0.67864829 119 0 0 0 47.21418
-10.134472 2.267504 -0.67341304 170 0 0 0 3.1270399
-7.8534021 2.2597799 -0.70906413 260.5 0 0 0 4.0980301
-5.0339613 2.4929404 -0.72574568 47 0 0 0 7.0250001
-4.3130693 2.2629113 -0.73864281 73.599998 0 0 0 7.4097147
-3.6815732 2.2833133 -0.74687201 48.599998 0 0 0 8.5832605
3.4034939 2.2423112 -0.78748041 49.833332 0 0 0 40.38829
3.9279552 2.4455113 -0.7840457 101 0 0 0 40.779678
4.0683713 2.1957133 -0.784509 122 0 0 0 41.759197
4.8027763 2.2158623 -0.77018398 254 0 0 0 42.735687
5.7867775 2.245652 -0.76124436 286.33334 0 0 0 43.706608
7.1008892 2.2595925 -0.73748207 326.5 0 0 0 44.682297
8.9767275 2.2525759 -0.69889581 247.5 0 0 0 45.657066
9.0064335 2.2583156 -0.70105028 245 0 0 0 45.655201
12.862284 2.2276545 -0.68265879 124 0 0 0 46.82444
32.933533 2.4062066 -0.99671525 14 0 0 0 48.390751
-5.0143442 2.7157884 -0.73364246 171 0 0 0 7.6024351
-4.9139118 2.8969102 -0.72965157 193 0 0 0 8.1930504
-4.1237864 2.7757254 -0.74414337 133 0 0 0 9.1705856
-3.5239823 2.5558994 -0.74409181 59 0 0 0 9.7555199
-3.4204707 2.8150897 -0.75294286 82.75 0 0 0 10.729275
-2.8993626 2.8232524 -0.77578956 38.666668 0 0 0 12.086667
2.927098 2.9018414 -0.79473037 76.5 0 0 0 37.263981
3.1214528 2.6645522 -0.79164118 55.25 0 0 0 38.436905
3.758147 2.7480223 -0.78845805 90 0 0 0 39.607201
4.6356163 2.7239499 -0.78125322 213 0 0 0 41.171638
5.7001381 2.7137406 -0.77263379 337.66666 0 0 0 42.539516
7.0523248 2.734339 -0.74686605 297 0 0 0 43.706608
8.9954157 2.7334774 -0.70765847 268 0 0 0 44.873779
9.0008965 2.97948 -0.71274769 431 0 0 0 44.490818
12.981517 2.5790069 -0.69061738 102 0 0 0 46.439018
13.211027 2.9643612 -0.705311 203 0 0 0 46.051434
29.534634 2.8890965 -0.88674945 34 0 0 0 48.000462
-14.390642 3.227 -0.61984015 121 0 0 0 3.1270399
-9.9592047 3.0055285 -0.66259307 225 0 0 0 4.2908001
-6.0404878 3.096133 -0.72177267 140.5 0 0 0 7.2167201
-5.973412 3.3419719 -0.72322452 248 0 0 0 7.7964301
-4.8046198 3.2429101 -0.73529172 272.75 0 0 0 9.1705856
-3.9114826 3.2266879 -0.74976599 178.75 0 0 0 10.729275
-3.1855748 3.2697499 -0.76698524 138.2 0 0 0 12.475662
-2.6660404 3.1576486 -0.78484285 78.800003 0 0 0 13.650198
-2.4108918 3.4059281 -0.78453404 63.5 0 0 0 15.01812
2.402988 3.3944461 -0.80328143 86 0 0 0 34.51804
2.6839502 3.1678197 -0.80155593 132.8 0 0 0 35.890648
3.3737726 3.3384831 -0.80385172 154.75 0 0 0 37.263474
3.5938702 3.0620794 -0.79926765 277.5 0 0 0 38.43401
4.3884139 3.201865 -0.78825736 429 0 0 0 39.607201
5.3378696 3.3136344 -0.76626623 439.25 0 0 0 40.780975
5.5861483 3.0065119 -0.77503031 500 0 0 0 41.757801
6.8022904 3.2353191 -0.74105805 419 0 0 0 42.539516
8.9415445 3.3320131 -0.71582913 233 0 0 0 43.897808
13.673424 3.4234455 -0.73370057 232 0 0 0 45.655201
20.031439 3.4659817 -0.58533669 207 0 0 0 46.82444
22.991365 3.3973565 -0.678388 82 0 0 0 47.21418
25.475105 3.1261439 -0.75747919 122 0 0 0 47.61253
-5.8150959 3.7353451 -0.72220635 266 0 0 0 8.7799683
-4.6089859 3.7183397 -0.74128789 312.66666 0 0 0 10.53396
-4.4694362 3.9802094 -0.74302197 613 0 0 0 11.31522
-3.6802373 3.6944737 -0.76134038 192.75 0 0 0 12.281077
-3.4736764 3.9394586 -0.75935048 209 0 0 0 13.254
-2.8049726 3.7837889 -0.77862692 128.16667 0 0 0 14.629674
-2.1810858 3.618196 -0.78816676 62.5 0 0 0 16.187771
-1.8128302 3.8041418 -0.7766813 50.5 0 0 0 17.743853
-0.64324832 3.8973584 -0.79747391 18 0 0 0 22.228821
-0.25873411 3.9595108 -0.79436272 27.200001 0 0 0 23.792538
1.3104653 3.9718962 -0.81698453 68.75 0 0 0 29.840578
1.7405214 3.7949615 -0.8113125 76 0 0 0 31.595404
2.1627994 3.5934596 -0.81183863 79.75 0 0 0 33.34634
2.7538393 3.8792455 -0.80736071 143.25 0 0 0 34.519081
3.0872612 3.6361198 -0.80831546 179.33333 0 0 0 35.889332
3.8197937 3.8648169 -0.78787547 241.33333 0 0 0 37.067368
4.1229458 3.5933444 -0.79311079 316.66666 0 0 0 38.239937
5.0706859 3.79369 -0.7712633 255 0 0 0 39.411221
6.6296868 3.7803984 -0.74905509 278 0 0 0 41.367901
8.9688835 3.986908 -0.73460388 202 0 0 0 42.930779
9.0313034 3.7507324 -0.73282695 234 0 0 0 43.324207
13.974652 3.8665774 -0.75374758 200 0 0 0 45.262699
20.049665 3.9793277 -0.5856064 185 0 0 0 46.439018
-7.5630627 4.0055394 -0.7123577 612 0 0 0 7.4084401
-7.4358139 4.2934723 -0.70835936 495.5 0 0 0 7.9947405
-5.6351986 4.2320623 -0.72595507 268 0 0 0 9.950675
-4.3554988 4.2799077 -0.75249434 458 0 0 0 12.086667
-3.3205655 4.2701664 -0.77594864 260.5 0 0 0 14.238878
-2.2771747 4.2594028 -0.78305274 134.16667 0 0 0 16.964825
-1.5729009 4.0455093 -0.79418612 50.5 0 0 0 18.920769
-1.2277833 4.1928215 -0.7919783 140.2 0 0 0 20.283581
-0.76781011 4.3683586 -0.79427046 44.5 0 0 0 22.034998
0.2374177 4.0360394 -0.80213165 21.200001 0 0 0 25.750555
0.75099719 4.071826 -0.81526107 50.599998 0 0 0 27.698948
1.22927 4.3305387 -0.79944968 89.5 0 0 0 29.154041
1.7352085 4.3224006 -0.79724979 97.599998 0 0 0 30.816944
2.2693458 4.0985155 -0.79725087 87 0 0 0 32.763573
3.331784 4.3314896 -0.79388809 227 0 0 0 35.107029
3.5694661 4.0898614 -0.78740215 231.5 0 0 0 36.0868
4.8889327 4.2575717 -0.78998893 486.33334 0 0 0 38.239937
6.5688386 4.3011913 -0.77017367 295.5 0 0 0 40.389
8.9606171 4.2510715 -0.74146658 165 0 0 0 42.53738
14.426568 4.376215 -0.78313762 126 0 0 0 44.873779
19.859634 4.4520168 -0.5798527 179 0 0 0 46.051434
-7.3938704 4.7662611 -0.71775341 254.5 0 0 0 8.7792892
-5.5529251 4.7301679 -0.74318194 270.66666 0 0 0 10.923757
-4.1873779 4.769527 -0.77294713 318.33334 0 0 0 13.255409
-3.0769937 4.6187649 -0.7873528 260.5 0 0 0 15.41127
-2.8957343 4.8469648 -0.79514778 270.5 0 0 0 16.18821
-1.7362942 4.6656489 -0.79285359 122.8 0 0 0 19.112972
-1.4238417 4.9069438 -0.8059634 130 0 0 0 20.283051
-0.51147783 4.5385671 -0.81333536 48 0 0 0 23.015739
-0.23237014 4.5974841 -0.8151527 82 0 0 0 23.986734
0.22157165 4.6104035 -0.80970573 43 0 0 0 25.556231
0.73471874 4.5806608 -0.80639637 71.199997 0 0 0 27.308079
1.0699471 4.5054846 -0.79964399 83 0 0 0 28.48221
2.3822851 4.9877486 -0.81008077 218 0 0 0 31.793205
2.7426753 4.792141 -0.80618536 244.5 0 0 0 32.957676
3.0979695 4.587347 -0.80581027 216.5 0 0 0 34.124809
4.4187875 4.9279838 -0.80787474 313 0 0 0 36.280273
4.629734 4.6769447 -0.8027007 301.33334 0 0 0 37.067368
6.4045053 4.7835021 -0.78396207 325.66666 0 0 0 39.411221
8.9045219 4.6357355 -0.7495265 218.5 0 0 0 41.954094
14.651058 4.8409162 -0.80046958 60 0 0 0 44.490818
19.814682 4.9567876 -0.5790211 247 0 0 0 45.655201
-9.8261442 5.218358 -0.6711719 119 0 0 0 7.4084401
-7.2967024 5.2242861 -0.72351086 273 0 0 0 9.5618801
-5.3784823 5.3091083 -0.75886226 308 0 0 0 12.086666
-4.0328245 5.0727324 -0.78230214 339 0 0 0 14.04682
-3.764873 5.3806763 -0.78370041 406.75 0 0 0 15.020827
-3.3246837 5.42451 -0.74761653 109 0 0 0 15.99545
-2.6374922 5.101378 -0.80118579 256 0 0 0 17.158899
-2.3054397 5.4014792 -0.81000859 266.66666 0 0 0 18.32937
-1.2000204 5.0573606 -0.81525469 129.33333 0 0 0 21.063723
-0.7696721 5.2031074 -0.81598032 112.5 0 0 0 22.426132
-0.27256703 5.3495731 -0.79515868 259.20001 0 0 0 23.946793
0.27349681 5.4139152 -0.8221702 129.25 0 0 0 25.556229
0.73989326 5.3808708 -0.81611079 132.33333 0 0 0 26.921173
1.2041466 5.3080139 -0.81121349 184.5 0 0 0 28.280165
1.7343298 5.1990519 -0.81023169 205.5 0 0 0 29.840576
2.1314964 5.0965757 -0.81222224 175 0 0 0 31.00807
2.880409 5.4900408 -0.76160848 63 0 0 0 32.37447
3.8587136 5.4078994 -0.81341845 308.5 0 0 0 34.51804
4.1729684 5.1444292 -0.80957812 313 0 0 0 35.499611
5.717968 5.4886208 -0.77659416 122 0 0 0 37.457489
6.2268338 5.2778244 -0.80078769 324.5 0 0 0 38.43401
8.8629723 5.184823 -0.76573753 419.5 0 0 0 41.172951
15.003256 5.3698812 -0.82587022 52 0 0 0 44.091167
19.784853 5.4697561 -0.57918328 150 0 0 0 45.262699
-9.8294125 5.6925097 -0.67749208 207 0 0 0 7.9947405
-7.1524849 5.6692567 -0.72648722 249.5 0 0 0 10.339066
-5.1794024 5.7787905 -0.76884151 336.5 0 0 0 13.059155
-3.4152462 5.9030929 -0.80081624 393 0 0 0 16.38097
-2.0639009 5.5784173 -0.81384593 266 0 0 0 19.11768
-1.7332568 5.748971 -0.8137219 224.25 0 0 0 20.087608
-1.3224375 5.9367132 -0.81433582 206 0 0 0 21.25934
-0.70612025 5.7722998 -0.76412135 863.5 0 0 0 22.815664
-0.48129755 5.633688 -0.73729277 122 0 0 0 23.399691
2.3972912 5.7235188 -0.76752794 62.5 0 0 0 31.00807
2.6512856 5.5446615 -0.75679016 2712.5 0 0 0 31.793205
3.2981019 5.7480636 -0.81483793 524 0 0 0 32.955368
3.5770884 5.5768261 -0.81268632 269.5 0 0 0 33.737312
5.4257512 5.7493701 -0.77501333 142 0 0 0 36.674141
5.5705514 5.6180677 -0.77536297 132 0 0 0 37.070473
6.0727382 5.5454564 -0.80703348 793 0 0 0 37.851791
8.6963711 5.6787958 -0.77360994 215.5 0 0 0 40.389
14.837622 5.7264318 -0.82235003 35 0 0 0 43.704449
19.636511 5.9524212 -0.57617277 139 0 0 0 44.873779
-9.743988 6.2980785 -0.68067151 175 0 0 0 8.7792892
-9.2939873 6.4987006 -0.65482461 32 0 0 0 9.3682404
-7.0333257 6.0071859 -0.72895718 166 0 0 0 10.92375
-6.9202733 6.3656259 -0.73369443 272.5 0 0 0 11.505714
-5.0473528 6.0655231 -0.77525264 340 0 0 0 13.64792
-4.9679542 6.277524 -0.78223068 310 0 0 0 14.04682
-3.1784089 6.1770463 -0.80826926 330.66666 0 0 0 17.158899
-2.9278245 6.4490466 -0.81620985 299 0 0 0 17.935829
-1.1103504 6.0241237 -0.81537181 158 0 0 0 21.842051
-0.96498829 6.0694151 -0.81487823 311 0 0 0 22.23115
-0.1397872 6.303196 -0.81980944 198 0 0 0 24.38011
0.25269237 6.3789144 -0.8235507 228.66667 0 0 0 25.361084
0.72740251 6.3805032 -0.82055384 215.66667 0 0 0 26.530283
1.206652 6.3590617 -0.81981546 248.33333 0 0 0 27.697067
1.7546332 6.246798 -0.81419331 250.75 0 0 0 29.059196
2.2059684 6.0849552 -0.80581248 294 0 0 0 30.234653
5.7148533 6.3576217 -0.84154171 347 0 0 0 36.280273
8.8528662 6.2585831 -0.80827802 180 0 0 0 39.796219
-13.566807 6.7991409 -0.57234609 39 0 0 0 7.0250001
-8.9729271 6.6044011 -0.63622797 36 0 0 0 9.7555199
-6.7268362 6.6579947 -0.73045111 663 0 0 0 12.08226
-2.7165842 6.6221523 -0.81893122 433 0 0 0 18.52614
-2.2713306 6.6657772 -0.79453963 476 0 0 0 19.504192
-1.8295618 6.6833649 -0.77078635 391 0 0 0 20.47777
0.10588384 6.9674549 -0.56143934 804 0 0 0 24.969799
5.6068201 6.5551987 -0.85006529 378 0 0 0 35.89333
8.1263943 6.6995521 -0.78339148 432 0 0 0 38.627769
8.6594305 6.6139688 -0.81214309 324 0 0 0 39.218719
16.175282 6.7026181 -0.90725422 138 0 0 0 43.324207
17.758512 6.8511181 -0.52468079 100 0 0 0 43.704449
19.879921 6.5640416 -0.58601046 55 0 0 0 44.490818
-6.8261437 7.3345838 -0.68435699 653.33331 0 0 0 12.736717
-2.703536 7.3609848 -0.6050036 1004.5 0 0 0 19.11768
-0.064615451 7.318387 -0.59526128 635 0 0 0 24.57527
0.20591161 7.3004456 -0.76889902 594.5 0 0 0 25.165924
3.4403343 7.3882818 -0.71389884 752.5 0 0 0 31.59927
3.6366572 7.331037 -0.61395293 760 0 0 0 31.987141
12.952148 7.3502388 -0.7586624 376 0 0 0 41.3694
-5.7191877 7.6274738 -0.9351325 322 0 0 0 14.43794
6.7660122 7.5120449 -0.75212377 657 0 0 0 36.280273
16.807604 7.9537816 -0.96176177 79 0 0 0 42.53738
17.37084 7.702281 -0.98583025 30 0 0 0 42.930779
21.281683 7.6110482 -0.63284028 34 0 0 0 44.091167
-14.725715 8.3102951 -0.62579161 96 0 0 0 7.7964301
-10.776805 8.3646164 -0.78223515 157 0 0 0 10.14583
16.424929 8.27353 -0.94899756 142 0 0 0 42.150391
-14.360016 8.8121614 -0.60989463 90 0 0 0 8.3872499
-10.695857 8.7297583 -0.78425837 184 0 0 0 10.5323
-10.457024 8.9690809 -0.77440512 133 0 0 0 10.92375
-7.7118483 8.8704185 -0.89734346 190 0 0 0 13.254
-5.5724421 8.7066393 -0.99843848 300 0 0 0 15.60913
-5.2436728 8.8954544 -0.98753113 311.5 0 0 0 16.18821
-13.683767 9.1019297 -0.58019596 413 0 0 0 8.9771299
-13.00231 9.1117868 -0.55005836 424 0 0 0 9.3682404
-12.343236 9.1046257 -0.52110881 575 0 0 0 9.7555199
-10.092547 9.0924006 -0.75487983 636 0 0 0 11.31522
-9.6417856 9.1205082 -0.72853738 707 0 0 0 11.69621
-9.1739559 9.1101637 -0.70069337 824 0 0 0 12.08226
-8.7379122 9.1093092 -0.67528027 891 0 0 0 12.48153
-7.7338839 9.1084719 -0.61793208 1051.5 0 0 0 13.45096
-7.283823 9.0961313 -0.78263766 825.66669 0 0 0 13.913853
-6.8225474 9.1102619 -0.70680618 1176 0 0 0 14.43794
-6.3189573 9.1106815 -0.67667246 1312.75 0 0 0 15.01812
-5.6843066 9.1127653 -0.64020199 1355.25 0 0 0 15.80229
-5.225544 9.1092319 -0.74283373 1542 0 0 0 16.38097
-4.7902517 9.1108952 -0.84419459 1182.25 0 0 0 16.962601
-4.2424726 9.1227446 -0.81144553 1522.75 0 0 0 17.743664
-3.7125993 9.1231165 -0.78111798 1502.5 0 0 0 18.52614
-3.0782952 9.1247673 -0.74776077 1370.5 0 0 0 19.49885
-2.7101293 9.1234035 -0.72997177 1538.25 0 0 0 20.08955
-2.2313805 9.1255617 -0.70874649 1460.25 0 0 0 20.86998
-1.7616444 9.1182327 -0.68937683 1585.5 0 0 0 21.646629
-1.3018707 9.1177397 -0.67287064 1588 0 0 0 22.423368
-0.70671028 9.1206865 -0.73971093 1464.625 0 0 0 23.448956
-0.20809712 9.1295786 -0.90652943 1467.3334 0 0 0 24.315056
0.38907316 9.1161003 -0.74413532 1175 0 0 0 25.362049
0.72730333 9.1312237 -0.74104136 1621.8334 0 0 0 25.946535
1.1825556 9.1343889 -0.73736072 1713 0 0 0 26.724594
1.7604055 9.133297 -0.73573327 1524 0 0 0 27.697067
2.3496959 9.1247187 -0.73689085 1564.3334 0 0 0 28.671896
2.8371003 9.1261568 -0.74140215 1462.3334 0 0 0 29.446501
3.3379548 9.1217432 -0.74801326 1533.5 0 0 0 30.234655
3.8253427 9.1062717 -0.70669824 1426.6 0 0 0 30.969059
4.8177519 9.1033554 -0.78046244 1270 0 0 0 32.37447
5.2076416 9.1017561 -0.70623857 1342.6666 0 0 0 32.890064
5.7224383 9.1084766 -0.81074059 1202 0 0 0 33.545502
6.1921391 9.0905647 -0.69137037 1185.75 0 0 0 34.124809
6.7030287 9.0952549 -0.84900689 1153 0 0 0 34.715591
7.2460251 9.102232 -0.87365019 1041 0 0 0 35.30275
7.8207893 9.1116838 -0.90132344 1034 0 0 0 35.89333
8.6440506 9.117383 -0.9431861 858 0 0 0 36.674141
9.0844212 9.1194429 -0.96669936 733 0 0 0 37.070473
9.6793251 9.0964928 -0.77787811 807 0 0 0 37.588924
10.505899 9.091959 -0.70113891 748 0 0 0 38.24025
11.054661 9.098938 -0.72366297 621 0 0 0 38.627769
11.62805 9.0984468 -0.74765188 611 0 0 0 39.027821
12.252014 9.107832 -0.77462357 552 0 0 0 39.409618
12.89466 9.0999699 -0.80255908 546 0 0 0 39.796219
13.62384 9.1190844 -0.83589703 455 0 0 0 40.195141
14.375774 9.1167974 -0.87028736 394 0 0 0 40.582859
15.17578 9.1070232 -0.90747398 336 0 0 0 40.976501
16.979242 9.0838633 -0.52134359 295 0 0 0 41.757801
17.036024 9.112134 -0.99705666 251 0 0 0 41.757801
18.015736 9.0741405 -0.54982907 204 0 0 0 42.150391
5.5399003 -32.102783 -0.48654303 63 0 0 0 71.835152
-0.76188833 -30.071898 -0.4665654 92 0 0 0 74.968651
6.0047393 -30.341497 -0.45756236 51 0 0 0 71.448883
5.9735618 -23.966433 -0.35353586 90 0 0 0 70.665688
6.0404921 -21.934792 -0.32055381 88 0 0 0 70.276955
6.1954389 -20.522089 -0.29775932 75 0 0 0 69.888229
4.267972 -19.127502 -0.27453673 105 0 0 0 71.065163
6.0997567 -18.554554 -0.26594639 123 0 0 0 69.492577
6.217896 -16.197979 -0.22827105 261 0 0 0 68.711708
6.5701351 -15.936522 -0.22455795 194 0 0 0 68.32029
6.2700095 -14.214821 -0.19683854 160 0 0 0 67.934944
4.3061357 -12.114745 -0.31782207 360.5 0 0 0 69.107986
-0.56034702 -11.049341 -0.14896691 431 0 0 0 75.364014
-0.76748204 -10.178067 -0.13536277 388 0 0 0 75.746208
5.810338 -10.313525 -0.13492407 44 0 0 0 66.362228
3.5377188 -9.2448673 -0.35596931 208 0 0 0 68.711708
-6.2644868 -8.886097 -0.42029342 521 0 0 0 84.335205
-0.80391413 -8.7266731 -0.25366095 466.66666 0 0 0 76.005005
-1.630677 -8.1284389 -0.20648697 444 0 0 0 77.70031
-1.2263979 -8.1735868 -0.30612916 644 0 0 0 76.921677
4.576848 -8.1357403 -0.32661706 183 0 0 0 66.362228
8.3072596 -8.1454678 -0.11219133 172 0 0 0 61.867001
11.408826 -8.4972057 -0.13338658 301 0 0 0 59.711578
-2.1272011 -7.6417818 -0.39124978 445.5 0 0 0 78.869354
-1.5961211 -7.954309 -0.49911121 298 0 0 0 77.70031
-1.2141181 -7.7606435 -0.24079442 610 0 0 0 77.01593
-0.98954988 -7.9020891 -0.098635979 469 0 0 0 76.53656
8.7520294 -7.7768898 -0.10958522 196 0 0 0 61.078865
-1.7146701 -7.3058972 -0.33446321 422.33334 0 0 0 78.225502
3.4620464 -7.3810019 -0.28409299 395 0 0 0 67.536949
3.7041421 -7.4179344 -0.18583277 252 0 0 0 67.155632
9.1340322 -7.3462224 -0.1060743 201.5 0 0 0 60.299637
18.841621 -7.2964997 -0.16734643 51 0 0 0 55.416649
19.919994 -7.1555247 -0.17345434 106 0 0 0 55.035751
-2.7886183 -6.5531068 -0.32076457 359 0 0 0 80.955605
-2.3113487 -6.8118472 -0.35295433 491.5 0 0 0 79.752426
-1.7247013 -6.8442316 -0.17273121 502 0 0 0 78.483444
3.3557932 -6.7243605 -0.44156539 401 0 0 0 67.155632
3.7688429 -6.7075806 -0.35677481 319.5 0 0 0 66.364548
4.8755717 -6.9714718 -0.28954035 239 0 0 0 64.79763
5.1531777 -6.8194637 -0.18435115 58 0 0 0 64.215988
6.9017105 -6.9424844 -0.32862976 461 0 0 0 62.06686
7.0911379 -6.6264315 -0.3233512 377.5 0 0 0 61.470467
9.812068 -6.9440985 -0.10486201 174 0 0 0 59.328712
10.192547 -6.8432736 -0.10585524 102 0 0 0 58.935806
10.666533 -6.602953 -0.10581747 154 0 0 0 58.34819
20.138359 -6.6799564 -0.17019849 88 0 0 0 54.637859
-2.6861119 -6.2464209 -0.29222885 372.5 0 0 0 81.019272
-2.2565091 -6.3976707 -0.2066801 490 0 0 0 79.949104
-1.9486016 -6.3884773 -0.079449266 1034 0 0 0 79.259796
3.7823007 -6.362555 -0.15914568 238.5 0 0 0 65.970963
4.2176952 -6.0352035 -0.42589337 375 0 0 0 64.79763
5.7447085 -6.0736279 -0.48124459 466 0 0 0 62.454552
6.081274 -6.12006 -0.49664277 447 0 0 0 62.06686
7.3269525 -6.357686 -0.32094535 304 0 0 0 60.883942
7.5095649 -6.199327 -0.3208138 358 0 0 0 60.50005
11.148389 -6.3457685 -0.10576641 184 0 0 0 57.7626
11.515297 -6.1845303 -0.10623974 162 0 0 0 57.374958
14.749486 -6.1367073 -0.12709291 78 0 0 0 55.80069
20.677374 -6.2988267 -0.17033647 136 0 0 0 54.250008
31.961012 -6.3856297 -0.25289693 22 0 0 0 52.685162
-3.5162072 -5.5454993 -0.079051979 835 0 0 0 83.556152
-3.2574041 -5.7388444 -0.24049985 714.33331 0 0 0 82.783585
-2.8185067 -5.5832219 -0.30248484 552.75 0 0 0 81.998726
-2.3531356 -5.6655941 -0.070872322 834 0 0 0 80.825424
3.2509534 -5.7914391 -0.38411742 105 0 0 0 66.362228
3.6579964 -5.6177211 -0.11218845 251 0 0 0 65.323708
4.3711305 -5.9388981 -0.4255335 510 0 0 0 64.411247
4.8348961 -5.6462946 -0.42591968 551 0 0 0 63.233673
5.2447104 -5.8272953 -0.45003226 531 0 0 0 62.839539
6.2745986 -5.725389 -0.48599342 368.33334 0 0 0 61.27496
7.7644062 -5.7931266 -0.3159304 325.33334 0 0 0 59.713169
11.854993 -5.9959641 -0.10628127 136 0 0 0 56.980888
12.509485 -5.9445777 -0.10998689 115 0 0 0 56.58564
13.392241 -5.9638915 -0.11608826 94 0 0 0 56.197872
21.267426 -5.9112029 -0.17092168 80 0 0 0 53.862568
23.093056 -5.8101735 -0.18324998 97 0 0 0 53.4683
33.123192 -5.7752385 -0.25555098 33 0 0 0 52.293327
-3.5503588 -5.0363016 -0.071866542 912 0 0 0 84.335205
-3.2934568 -5.1913981 -0.24771796 695.83331 0 0 0 83.561371
-2.7354269 -5.3385863 -0.10652807 959.75 0 0 0 82.096428
2.7357183 -5.0220795 -0.25797501 187 0 0 0 66.560181
3.9125838 -5.3211808 -0.21538687 566 0 0 0 64.411247
4.1519704 -5.1018758 -0.15852082 371.66666 0 0 0 63.628922
4.5141397 -5.0215478 -0.21686636 359 0 0 0 62.839539
6.4652772 -5.3403721 -0.47666991 383 0 0 0 60.50005
6.5655208 -5.1572471 -0.47310039 348 0 0 0 60.09922
8.1598597 -5.1984363 -0.31069914 284.66666 0 0 0 58.544064
23.125662 -5.2177119 -0.17819621 111 0 0 0 53.081699
-10.120792 -4.7913675 -0.14909425 296 0 0 0 92.546577
-9.9646788 -4.715137 -0.41560385 343 0 0 0 92.546577
-4.2004337 -4.6342449 -0.072932735 311.5 0 0 0 86.30191
-3.7679265 -4.7026687 -0.21763387 511.25 0 0 0 85.320297
-3.3730531 -4.7903018 -0.066546485 729 0 0 0 84.339905
4.3257322 -4.9309511 -0.049638141 347 0 0 0 63.036606
4.6677694 -4.9421272 -0.13381618 501 0 0 0 62.454552
6.7603879 -4.793797 -0.46682629 450 0 0 0 59.325367
8.4971409 -4.8432193 -0.31111923 218 0 0 0 57.7626
8.8422737 -4.6152716 -0.3154847 385 0 0 0 57.177925
-11.737954 -4.2048173 -0.16583459 253 0 0 0 94.124557
-10.719329 -4.1372652 -0.43185291 247 0 0 0 93.723557
-9.9214411 -4.4013548 -0.27517629 256 0 0 0 92.933319
-8.0176649 -4.0381575 -0.3324303 330 0 0 0 92.146782
-7.9166441 -4.2338123 -0.33310968 575 0 0 0 91.763855
-5.0036922 -4.1072102 -0.23319827 782 0 0 0 88.642967
-4.6486187 -4.1104498 -0.29851145 356.5 0 0 0 88.054413
-4.2415509 -4.2403045 -0.16554488 761.33331 0 0 0 87.084816
-3.9180927 -4.3934655 -0.2111315 529.33331 0 0 0 86.173378
6.9477773 -4.4292769 -0.46111053 326 0 0 0 58.542088
7.1651835 -4.2041025 -0.46318498 305.5 0 0 0 57.958443
9.24086 -4.258533 -0.31904587 266.5 0 0 0 56.391754
-13.436244 -3.723314 -0.18589422 112 0 0 0 95.280235
-11.676777 -3.7050545 -0.30828118 184 0 0 0 94.706253
-11.168387 -3.6919129 -0.44088617 508 0 0 0 94.513687
-10.887687 -3.898068 -0.43386418 419 0 0 0 94.124557
-8.6403255 -3.5825357 -0.23135903 356.5 0 0 0 93.325668
-6.383307 -3.8281085 -0.45312956 554 0 0 0 90.999565
-5.8980484 -3.7402356 -0.25205627 489 0 0 0 90.608253
-5.2056255 -3.76349 -0.30936885 795.83331 0 0 0 89.629387
-4.8055167 -3.9425399 -0.1198467 740.66669 0 0 0 88.64489
-4.3830156 -3.782779 -0.063712545 790 0 0 0 88.25248
7.4272461 -3.8799682 -0.46469998 306 0 0 0 57.177925
7.5755434 -3.6082268 -0.46317807 296 0 0 0 56.58564
9.7091103 -3.9063511 -0.32556593 258 0 0 0 55.608669
10.276638 -3.7010167 -0.33858413 199 0 0 0 55.035751
10.816367 -3.5966094 -0.35296214 181 0 0 0 54.637859
13.070462 -3.9887211 -0.42828301 110 0 0 0 54.250008
-11.874415 -3.2883604 -0.46131998 201 0 0 0 95.280235
-10.230805 -3.1081693 -0.13521022 50 0 0 0 94.898811
-8.4031982 -3.2460601 -0.11067843 84 0 0 0 93.723557
-6.5605512 -3.3065822 -0.086040363 579 0 0 0 92.146782
-6.2935309 -3.4312048 -0.2587975 595.66669 0 0 0 91.638756
-5.9651604 -3.3824427 -0.24589515 624.5 0 0 0 91.38855
-5.2984085 -3.357604 -0.14661449 812.75 0 0 0 90.607895
-3.2072372 -3.1699357 -0.28772393 371.88889 0 0 0 87.172035
7.8170743 -3.2604043 -0.46505216 399.33334 0 0 0 55.805069
-12.827482 -2.88394 -0.33010575 247.5 0 0 0 96.056206
-11.869522 -2.9766393 -0.30725533 138 0 0 0 95.673088
-4.0430636 -2.8507118 -0.048133347 170 0 0 0 89.826157
-3.8120346 -2.9023287 -0.2812953 237 0 0 0 89.236198
8.3173637 -2.8815353 -0.48091432 482.5 0 0 0 54.836807
8.6908789 -2.6566904 -0.49532449 428 0 0 0 54.250008
31.757774 2.3252592 -0.18051724 16 0 0 0 48.390751
42.879494 2.0819774 -0.26440167 10 0 0 0 48.775822
23.318617 2.8656888 -0.11494578 52 0 0 0 47.61253
25.765038 2.5247519 -0.13499619 35 0 0 0 48.000462
19.996527 3.4635699 -0.087275431 115 0 0 0 46.82444
20.830868 3.0821605 -0.095420599 71 0 0 0 47.21418
19.901966 3.9538219 -0.084116347 173 0 0 0 46.439018
19.660753 4.4113927 -0.080221459 113 0 0 0 46.051434
21.546438 5.3935246 -0.089137092 31 0 0 0 45.655201
19.312653 5.8588238 -0.071811765 68 0 0 0 44.873779
20.081593 5.5559349 -0.078225613 57 0 0 0 45.262699
-2.7743125 6.4928589 -0.11857194 698 0 0 0 18.328421
-0.17991723 6.3579059 -0.17553334 653 0 0 0 24.313789
0.18463665 6.3250213 -0.16798095 673.16669 0 0 0 25.230818
2.811075 6.4036775 -0.074242786 798.59998 0 0 0 31.283564
3.2160845 6.3189282 -0.088592641 856.25 0 0 0 32.180805
3.8789287 6.3900738 -0.18310103 602 0 0 0 33.348389
4.2094693 6.3854275 -0.18650164 718 0 0 0 33.929127
4.5049911 6.4761658 -0.19258331 747 0 0 0 34.320488
6.2337008 6.4360619 -0.32956311 727 0 0 0 36.872307
6.7320199 6.4592838 -0.00036033645 463 0 0 0 37.457489
12.536489 6.32654 -0.02676202 464 0 0 0 42.150391
19.449278 6.426774 -0.070886008 47 0 0 0 44.490818
-7.7471042 6.9375877 -0.062200047 453 0 0 0 11.31522
-3.729614 6.8180637 -0.15468037 684 0 0 0 16.765539
-2.1610904 6.5569301 -0.099966943 580 0 0 0 19.697449
-1.0895333 6.801837 -0.073044084 498 0 0 0 22.23115
-0.77575874 6.7303033 -0.13273621 398.79999 0 0 0 22.932468
0.42864475 6.8385625 -0.040764432 294 0 0 0 25.75141
0.86118102 6.8875551 -0.034136742 441 0 0 0 26.724594
1.1289092 6.9280705 -0.030545449 699 0 0 0 27.314329
2.5929408 6.6484375 -0.097410336 729.5 0 0 0 30.621309
3.0788343 6.6341338 -0.36500269 281 0 0 0 31.59927
3.888942 6.593142 -0.0013504899 613 0 0 0 33.151279
4.117281 6.7712746 -0.39116114 599 0 0 0 33.348389
5.7351389 6.7082596 -0.27796626 846.42859 0 0 0 35.8899
7.6325459 6.7925982 -0.1306155 441 0 0 0 38.046021
8.0035248 6.6080375 -0.0044975705 747 0 0 0 38.627769
11.770004 6.8772678 -0.18762803 401 0 0 0 41.172951
12.221566 6.5507851 -0.024644352 415 0 0 0 41.757801
13.978024 6.6244559 -0.035051912 191 0 0 0 42.53738
16.383377 6.7942195 -0.049904242 265 0 0 0 43.324207
16.607143 6.8821797 -0.49148366 240 0 0 0 43.324207
17.170059 6.6291909 -0.055226326 125 0 0 0 43.704449
19.423525 6.9527974 -0.069053873 47 0 0 0 44.091167
-7.6080751 7.1554499 -0.056413468 544 0 0 0 11.69621
-7.2497249 7.334527 -0.045773305 539.5 0 0 0 12.281895
-6.8083096 7.4149742 -0.15628219 739.5 0 0 0 12.86431
-3.6400418 7.0634151 -0.15405178 618 0 0 0 17.15966
-3.4215281 7.2879658 -0.1489712 823.5 0 0 0 17.743664
-2.6862466 7.2842121 -0.2204098 768.5 0 0 0 19.11768
-0.59928745 7.122128 -0.23972084 547 0 0 0 23.399691
-0.24680156 7.243011 -0.41350776 336 0 0 0 24.18495
0.29406556 7.3555927 -0.41020337 230 0 0 0 25.362049
0.81379724 7.2156467 -0.12598017 444.5 0 0 0 26.531494
2.3745823 7.1024365 -0.01735699 780 0 0 0 29.841324
2.5707116 7.3618827 -0.20942426 410 0 0 0 30.0397
5.5979457 7.1196408 -0.2245 792 0 0 0 35.238873
8.1200972 7.0416908 -0.26971361 497 0 0 0 38.24025
11.481041 7.2924848 -0.18693462 316.5 0 0 0 40.582859
11.804358 7.0975504 -0.02208665 321 0 0 0 40.976501
12.899256 7.3220625 -0.39143428 233 0 0 0 41.3694
16.257917 7.2138758 -0.26708975 211 0 0 0 42.930779
-0.4581694 7.7453732 -0.070632368 375 0 0 0 23.787029
2.3419881 7.6028185 -0.1209567 451.5 0 0 0 29.446499
4.1499701 7.8663144 -0.44816306 609 0 0 0 32.37447
5.6375914 7.670392 -0.35814229 632 0 0 0 34.715591
6.1122799 7.9048338 -0.0073425919 337 0 0 0 35.111111
11.350039 7.6080933 -0.18671779 472.5 0 0 0 40.195141
16.241945 7.6884136 -0.4873414 212 0 0 0 42.53738
-7.0625758 8.0815458 -0.032461319 438 0 0 0 13.254
-6.6969414 8.0487337 -0.023838123 491 0 0 0 13.64792
-6.4496417 8.1473646 -0.016571881 596 0 0 0 14.04682
4.0430312 8.1411047 -0.46107554 396 0 0 0 31.987141
-15.163285 9.0435162 -0.21703339 384 0 0 0 8.1930504
-14.411378 9.0767679 -0.19854967 460 0 0 0 8.5814495
-13.664705 9.0771227 -0.18051821 458 0 0 0 8.9771299
-12.989012 9.0903721 -0.16407077 518 0 0 0 9.3682404
-12.319487 9.074955 -0.14811261 603 0 0 0 9.7555199
-11.731125 9.0950336 -0.31418294 675 0 0 0 10.14583
-11.163288 9.0971365 -0.2951028 675 0 0 0 10.5323
-10.622193 9.0940418 -0.27703881 629.5 0 0 0 10.92375
-10.111543 9.0974665 -0.42509842 846 0 0 0 11.31522
-9.646451 9.1126156 -0.40569034 715 0 0 0 11.69621
-9.1881847 9.1119833 -0.38666254 838 0 0 0 12.08226
-8.7323761 9.0908737 -0.36776951 977 0 0 0 12.48153
-7.7460451 9.1101513 -0.32764441 1011 0 0 0 13.45096
-7.1878581 9.108531 -0.3052693 1095 0 0 0 14.04682
-6.8271694 9.0908327 -0.15292527 1212 0 0 0 14.43794
-6.3793411 9.0948591 -0.18331294 1354 0 0 0 14.953023
-5.6909442 9.103013 -0.24786234 1458 0 0 0 15.80229
-5.2374239 9.110569 -0.35916391 1669 0 0 0 16.38097
-4.8030553 9.1163378 -0.46686715 1554.5 0 0 0 16.962601
-4.2466664 9.1114016 -0.44154051 1592.5 0 0 0 17.743664
-3.6738596 9.1048622 -0.33747855 1412 0 0 0 18.592047
-3.0786231 9.0997505 -0.39285868 1393 0 0 0 19.49885
-2.6743777 9.1022129 -0.30113557 1300.3334 0 0 0 20.154051
-2.2385232 9.107255 -0.24839671 1536.5 0 0 0 20.86998
-1.7708151 9.1073761 -0.23431119 1688.75 0 0 0 21.646631
-1.4218322 9.1061668 -0.33681384 1621 0 0 0 22.23115
1.0993739 9.4456129 -0.29664108 698 0 0 0 26.527861
1.7945105 9.1196041 -0.18574211 1716.4 0 0 0 27.773615
2.336307 9.1122313 -0.15730336 1602 0 0 0 28.671894
2.7009528 9.1077957 -0.27034312 1671 0 0 0 29.25005
3.4422472 9.0786638 -0.26776621 526 0 0 0 30.429609
5.089674 9.0867624 -0.14626858 1498 0 0 0 32.75946
6.6761537 9.0775518 -0.014720792 1064 0 0 0 34.715591
9.2450476 9.0620575 -0.1772739 523 0 0 0 37.263981
11.026391 9.0788517 -0.3713139 680 0 0 0 38.627769
11.606072 9.0873346 -0.2041914 657.5 0 0 0 39.027821
12.196144 9.072298 -0.21208929 666.5 0 0 0 39.409618
12.840538 9.0675697 -0.22103459 467 0 0 0 39.796219
0.87022233 9.5063791 -0.30215111 1037 0 0 0 26.141661
9.6147747 -48.497272 0.45404881 26 0 0 0 71.448883
-1.9476159 -39.218628 0.33549297 14 0 0 0 75.364014
-0.96882814 -38.581455 0.3335638 31 0 0 0 74.968651
8.9204712 -35.733776 0.35415468 22 0 0 0 70.665688
5.5462527 -32.120029 0.30936098 30 0 0 0 71.835152
3.8632257 -26.21196 0.25637972 26 0 0 0 72.232124
5.8059416 -25.975437 0.26384738 27 0 0 0 71.065163
6.1819139 -22.438244 0.2396922 110 0 0 0 70.276955
7.3061113 -22.203753 0.245303 55 0 0 0 69.492577
6.2019286 -20.536621 0.22597128 31 0 0 0 69.888229
7.4615974 -19.420481 0.22699744 71 0 0 0 68.711708
7.3112116 -17.723095 0.21434009 107 0 0 0 68.32029
7.4035597 -16.770697 0.20878157 211 0 0 0 67.934944
7.769176 -15.497255 0.20382302 215 0 0 0 67.155632
24.32897 -14.618815 0.40887302 16 0 0 0 58.154289
6.3800192 -13.55295 0.17931356 205 0 0 0 67.536949
4.3132243 -12.134401 0.31395486 258 0 0 0 69.107986
15.672776 -12.269131 0.28163311 19 0 0 0 60.09922
25.748495 -12.210851 0.4301526 135 0 0 0 56.58564
-1.1555487 -11.551961 0.41275325 151 0 0 0 76.134407
11.205731 -11.812632 0.22229756 18 0 0 0 62.454552
-0.8293668 -11.014166 0.25772378 199.5 0 0 0 75.746208
11.8893 -11.360223 0.22900347 28 0 0 0 61.667141
12.11944 -11.023961 0.23080003 55 0 0 0 61.273792
13.704678 -11.28517 0.25245157 22 0 0 0 60.50005
-0.99659467 -9.9677267 0.1114419 259 0 0 0 76.134407
6.2884321 -9.7167015 0.29890364 166.5 0 0 0 65.389717
-1.5163208 -8.6530037 0.31930444 165 0 0 0 77.306793
10.002134 -8.6649208 0.19581929 494 0 0 0 60.883942
-1.6139323 -8.0430269 0.30005065 196 0 0 0 77.70031
-1.0222828 -8.1750669 0.097568996 533 0 0 0 76.53656
4.1861362 -8.379425 0.36113122 616 0 0 0 67.155632
11.322736 -8.4318991 0.21317868 3276 0 0 0 59.711578
13.045523 -8.2930412 0.23756136 12 0 0 0 58.542088
14.454871 -8.2192316 0.25834465 50 0 0 0 57.7626
15.88869 -8.0269423 0.28006142 102 0 0 0 56.980888
21.703081 -8.3994913 0.37066317 174 0 0 0 55.416649
-1.7485981 -7.7272954 0.29055542 274 0 0 0 78.096207
-1.2480953 -7.6838055 0.09342061 583 0 0 0 77.112885
4.2185831 -7.9526334 0.3497535 429 0 0 0 66.758125
17.490461 -7.7809005 0.30501032 47 0 0 0 56.197872
21.735407 -7.8036995 0.37215218 51 0 0 0 55.035751
-1.8858086 -7.4777989 0.28336665 211 0 0 0 78.484093
-1.4638005 -7.2980418 0.090214133 781 0 0 0 77.70031
22.288967 -7.3891244 0.38194069 102 0 0 0 54.637859
24.260605 -7.3849959 0.41381931 59 0 0 0 54.250008
-2.5605664 -6.6131449 0.26197523 488 0 0 0 80.434883
-2.2538569 -6.788095 0.30771637 347.25 0 0 0 79.655327
-1.7686149 -6.8417358 0.13125436 445 0 0 0 78.57975
4.5591183 -6.523231 0.31937093 159 0 0 0 64.79763
26.435995 -6.6462789 0.45142424 60 0 0 0 53.4683
-2.5653644 -6.1718264 0.24878091 126 0 0 0 80.821777
-2.1261315 -6.1567049 0.081746712 529.5 0 0 0 79.851906
-1.936083 -6.3503184 0.083022811 494 0 0 0 79.259796
3.4046009 -6.0618868 0.10609922 226 0 0 0 66.362228
3.9095745 -6.2225966 0.1120947 323 0 0 0 65.586754
4.2998533 -6.0462317 0.29938939 458.33334 0 0 0 64.668831
27.853731 -6.2786813 0.4759146 46 0 0 0 53.081699
-3.0756717 -5.7416306 0.40188137 97 0 0 0 82.388237
-2.7648828 -5.832644 0.24124037 654.66669 0 0 0 81.608398
-2.3025622 -5.7393742 0.079032809 567.5 0 0 0 80.628326
3.4501207 -5.8089719 0.27184221 332 0 0 0 65.970963
4.2911353 -5.8324022 0.29357445 400.5 0 0 0 64.411247
4.6188674 -5.9661217 0.49193466 528 0 0 0 64.020737
5.017405 -5.8572893 0.12290767 112 0 0 0 63.233673
20.812777 -5.7828116 0.36203852 74 0 0 0 53.862568
-3.0465863 -5.0741644 0.22388181 750 0 0 0 83.176712
-2.8028305 -5.284359 0.1277263 852 0 0 0 82.325478
-2.4427948 -5.4954734 0.077610768 710 0 0 0 81.215965
2.6721463 -5.0522952 0.09310665 52 0 0 0 66.758125
4.2050548 -5.1672029 0.27752918 299.5 0 0 0 63.632359
4.7401896 -5.1684036 0.32928672 412.60001 0 0 0 62.685547
-4.1286101 -4.7847452 0.39151734 77 0 0 0 85.911423
-3.8822944 -4.6115942 0.22456865 319.5 0 0 0 85.712891
-3.2420466 -4.7351265 0.20264703 707.22223 0 0 0 84.121506
-2.9391148 -4.8970652 0.075151742 944 0 0 0 83.176712
4.8984127 -4.9356399 0.11774295 475 0 0 0 62.06686
-9.0750093 -4.0293922 0.11508799 104 0 0 0 92.933319
-4.7014351 -4.1586142 0.39046896 315 0 0 0 88.054413
-4.1847496 -4.2552514 0.37241367 230 0 0 0 86.957954
-3.7554023 -4.1943026 0.17933163 595.375 0 0 0 86.203247
-3.4009407 -4.429729 0.12138138 793.33331 0 0 0 84.993813
-11.720654 -3.8794611 0.13877943 82 0 0 0 94.513687
-10.231047 -3.667778 0.12545452 467 0 0 0 94.124557
-8.6311455 -3.5817225 0.11120332 250 0 0 0 93.325668
-7.9272652 -3.7556603 0.10511994 140 0 0 0 92.546577
-5.5750923 -3.534471 0.41140154 691 0 0 0 90.606796
-5.1571922 -3.8273726 0.3210859 660 0 0 0 89.432861
-4.8160567 -3.8380628 0.17207871 582.40002 0 0 0 88.880264
-4.2463231 -3.8963809 0.18510711 547.25 0 0 0 87.765099
-3.9910967 -3.9924128 0.14609262 543.5 0 0 0 87.093758
-11.052835 -3.0649276 0.2769585 277.5 0 0 0 95.280235
-10.279857 -3.1244471 0.26101315 167 0 0 0 94.898811
-9.5799904 -3.169991 0.37175024 723 0 0 0 94.513687
-8.9804468 -3.2183824 0.35251224 659 0 0 0 94.124557
-8.3711462 -3.2348671 0.22147503 144.5 0 0 0 93.723557
-7.9079857 -3.2805514 0.31845465 763 0 0 0 93.325668
-7.2906027 -3.3417306 0.29956424 949 0 0 0 92.739944
-6.6266122 -3.3408132 0.18672511 618.5 0 0 0 92.146782
-6.2747831 -3.2597737 0.26730269 510 0 0 0 91.955322
-5.6192994 -3.187686 0.2992276 647.5 0 0 0 91.383995
-5.2083945 -3.2995586 0.19166584 639.14288 0 0 0 90.608139
-4.9405732 -3.4841895 0.080569021 728 0 0 0 89.826157
-3.3113284 -3.0039077 0.067772798 23 0 0 0 87.856354
-12.950294 -2.9145656 0.31748483 448 0 0 0 96.056206
-11.891668 -2.9850254 0.29475227 385.5 0 0 0 95.673088
-3.353981 -2.8962488 0.067691855 12 0 0 0 88.25248
22.749262 2.7996056 0.4498173 62 0 0 0 47.61253
25.566133 2.5093963 0.49498165 56 0 0 0 48.000462
20.268541 3.002609 0.40981603 164 0 0 0 47.21418
19.682503 3.9140193 0.40855849 122 0 0 0 46.439018
20.328934 3.5247276 0.41571987 149 0 0 0 46.82444
19.350554 4.3457427 0.40723479 71 0 0 0 46.051434
19.312057 4.8392615 0.41162974 92 0 0 0 45.655201
19.618521 5.4323158 0.42287913 83 0 0 0 45.262699
-7.2588816 6.3223577 0.41395399 697 0 0 0 11.119485
-6.3574734 6.406374 0.40720975 727.5 0 0 0 12.281895
-3.1448569 6.4561572 0.04373705 783 0 0 0 17.5515
-2.7381556 6.3827271 0.13941319 945.16669 0 0 0 18.32937
-2.237011 6.3904457 0.13221897 821.59998 0 0 0 19.425821
-0.72241306 6.4727859 0.09915439 717 0 0 0 23.01034
-0.087855272 6.4703856 0.43186399 712 0 0 0 24.57527
0.20378415 6.4891462 0.24714847 645.59998 0 0 0 25.283022
0.55800265 6.4760637 0.12512457 641 0 0 0 26.141661
2.9493878 6.3875504 0.34421214 660 0 0 0 31.59927
3.2923958 6.2885356 0.3506414 772.66669 0 0 0 32.373688
3.8328643 6.323617 0.18106547 977.5 0 0 0 33.348389
4.3074684 6.3652678 0.0014260683 974.5 0 0 0 34.124809
6.780519 6.2973647 0.15120274 786 0 0 0 37.720356
7.1598611 6.3272114 0.39370456 833 0 0 0 38.110764
21.252672 6.4507952 0.46071076 53 0 0 0 44.873779
-11.769467 6.6096888 0.49897051 162 0 0 0 7.7964301
-11.364906 6.7503548 0.49658585 327 0 0 0 8.1930504
-7.7955961 6.9770145 0.19605544 569 0 0 0 11.31522
-6.9674435 6.5332317 0.41977182 498 0 0 0 11.69621
-5.8502083 6.6620965 0.41507033 878.66669 0 0 0 13.255409
-3.6909935 6.7277756 0.1967925 929.85712 0 0 0 16.768269
-3.4607944 6.6870365 0.22551826 916 0 0 0 17.15966
-2.2654567 6.5670938 0.32358053 683 0 0 0 19.506865
-1.8988407 6.5429225 0.073714897 858 0 0 0 20.283051
-1.0608588 6.574358 0.092870586 652 0 0 0 22.23115
-0.75092506 6.7429681 0.2704936 738.33331 0 0 0 23.01034
-0.28196734 6.6132913 0.3060613 614.59998 0 0 0 24.103846
0.40308982 6.605649 0.37061676 567 0 0 0 25.75141
0.75005406 6.7282948 0.32192022 761.85712 0 0 0 26.529938
2.7461615 6.8089452 0.26032147 542.5 0 0 0 30.81637
5.9315715 6.7201366 0.29639798 800 0 0 0 36.151291
6.1792741 6.5503359 0.22347556 950 0 0 0 36.674141
6.7289753 6.6193867 0.35102713 672 0 0 0 37.263981
12.404529 6.652678 0.31931219 160 0 0 0 41.757801
16.569225 6.8756075 0.38841358 220 0 0 0 43.324207
17.437078 6.7365432 0.40105671 85 0 0 0 43.704449
19.327364 6.9232554 0.43412217 62 0 0 0 44.091167
19.71051 6.5175524 0.43589336 45 0 0 0 44.490818
-12.731252 7.1620274 0.18226826 81 0 0 0 7.7964301
-11.290413 7.2866459 0.18934225 332 0 0 0 8.7792892
-7.82198 7.3545685 0.20658694 721 0 0 0 11.69621
-6.7815127 7.3748345 0.21420947 765 0 0 0 12.86431
-5.6150866 7.2470889 0.44296426 842.5 0 0 0 14.24238
-0.62750697 7.2824693 0.47081602 951 0 0 0 23.399691
-0.4530654 7.4755859 0.30246645 581 0 0 0 23.787029
0.27137792 7.2898226 0.4889707 544 0 0 0 25.362049
2.3962939 7.1834617 0.16731057 801.5 0 0 0 29.841324
3.4144523 7.366931 0.18742213 723 0 0 0 31.59927
5.8054528 7.1502876 0.45409191 592 0 0 0 35.494392
6.9997644 7.4137239 0.24494892 345 0 0 0 36.674141
11.796879 7.2978935 0.31786466 493.5 0 0 0 40.779678
16.33172 7.2536125 0.38894105 293 0 0 0 42.930779
-13.075752 7.7844191 0.19629654 217 0 0 0 8.1930504
-3.6670151 7.7119517 0.39612067 675.66669 0 0 0 17.679609
-2.688868 7.8471994 0.47835067 508 0 0 0 19.49885
-2.2829068 7.9219179 0.28527886 558 0 0 0 20.283051
-1.9008001 7.6258974 0.28117526 766.5 0 0 0 20.86998
5.8426347 7.6983075 0.31008378 661.66669 0 0 0 34.979275
6.2142916 7.6469808 0.23587282 531 0 0 0 35.494392
16.299816 7.7256813 0.39427775 277 0 0 0 42.53738
-11.883108 8.3045769 0.2131218 306 0 0 0 9.3682404
-3.4277167 8.0380383 0.48478761 865 0 0 0 18.328421
-0.18494758 8.3639393 0.13094151 524.5 0 0 0 24.38011
0.12128214 8.2390547 0.13576441 344 0 0 0 24.969799
2.3721068 8.0633097 0.17684373 731 0 0 0 29.25005
2.7942533 8.3355064 0.40755594 771.5 0 0 0 29.841324
3.2858458 8.3972378 0.30992833 446 0 0 0 30.621309
5.9330568 8.0863333 0.48848921 657 0 0 0 34.715591
7.2917204 8.3149071 0.26107559 373.5 0 0 0 36.0868
