# .PCD v0.7 - Point Cloud Data file format
VERSION 0.7
FIELDS x y z intensity normal_x normal_y normal_z curvature
SIZE 4 4 4 4 4 4 4 4
TYPE F F F F F F F F
COUNT 1 1 1 1 1 1 1 1
WIDTH 931
HEIGHT 1
VIEWPOINT 0 0 0 1 0 0 0
POINTS 931
DATA ascii
-2.6699586 8.5460081 -0.11482763 668 0 0 0 19.91909
-2.0036647 8.5885506 -0.32876754 539 0 0 0 21.08758
1.7312975 8.6601219 -0.26382837 564 0 0 0 27.858629
-12.420801 9.1610279 -0.20158447 559 0 0 0 9.7533398
-11.883035 9.2189283 -0.19623247 723 0 0 0 10.15037
-9.5249901 9.4500666 -0.17484395 705 0 0 0 12.0998
2.9131818 9.0067358 -0.13053797 453 0 0 0 29.676149
4.3374538 9.2878208 -0.39570472 134 0 0 0 31.641729
4.5700364 9.1874142 -0.3961696 199 0 0 0 32.03083
-8.7076235 9.5262775 -0.48206663 1059 0 0 0 12.87452
-8.3083611 9.5445137 -0.31940222 659 0 0 0 13.27619
-7.6050673 9.6493177 -0.45977366 955 0 0 0 14.05013
-7.2467737 9.6688395 -0.30571857 1126.5 0 0 0 14.45256
-6.7406697 9.7122335 -0.29946446 1312 0 0 0 15.041519
-6.2562389 9.7593327 -0.29391971 1258 0 0 0 15.6309
-5.7915845 9.8049917 -0.28909615 1395 0 0 0 16.212296
-5.1916595 9.8584805 -0.28336513 1463.25 0 0 0 16.98917
-4.7583685 9.9004622 -0.27979136 1546.5 0 0 0 17.57848
-4.3381701 9.9429007 -0.2768085 1477.5 0 0 0 18.156319
-3.9281905 9.9908772 -0.40497035 1650 0 0 0 18.753241
4.2572103 9.7291956 -0.41123959 420 0 0 0 31.249359
4.5802679 9.8028831 -0.15462889 396 0 0 0 31.641729
5.8812108 9.8981781 -0.16674134 174 0 0 0 33.198269
-3.6578271 10.016087 -0.40261242 1466 0 0 0 19.135309
-3.2604752 10.058641 -0.39987814 1429.5 0 0 0 19.722141
-2.7340751 10.093088 -0.26895177 1533.75 0 0 0 20.510841
-2.1694679 10.109695 -0.22485292 1278 0 0 0 21.346373
-1.5853748 10.205311 -0.26759827 1013 0 0 0 22.25816
-1.2074647 10.249487 -0.26801544 1423 0 0 0 22.83906
-0.70220041 10.296572 -0.26898131 1384 0 0 0 23.624146
-0.19539163 10.344976 -0.27059087 1416.75 0 0 0 24.401569
0.31567347 10.392572 -0.27264649 1556.75 0 0 0 25.191515
0.83358943 10.44279 -0.27543747 1619.25 0 0 0 25.97031
1.3144908 10.476334 -0.23511492 1430.3334 0 0 0 26.685387
1.7528797 10.472886 -0.15034404 982 0 0 0 27.34259
4.4227147 10.105098 -0.15836243 146 0 0 0 31.249359
5.0869832 10.213941 -0.16506414 119 0 0 0 32.03083
1.4950192 10.505859 -0.40956402 1534 0 0 0 26.947201
1.7641678 10.527952 -0.41241792 1500 0 0 0 27.34259
2.7377405 10.611286 -0.42500484 947.5 0 0 0 28.70126
3.265146 10.640012 -0.34210184 1019 0 0 0 29.420624
3.769587 10.695662 -0.30274111 1323.5 0 0 0 30.06348
5.9957376 10.674081 -0.17970364 161 0 0 0 32.807251
4.2480917 11.156723 -0.31951711 126 0 0 0 30.464649
4.7296114 11.545476 -0.48950374 106 0 0 0 30.854589
4.924511 12.019003 -0.19304492 101 0 0 0 30.854589
16.632322 -50.613518 0.4938316 21 0 0 0 69.547531
17.956371 -50.438553 0.49658158 21 0 0 0 69.158409
-0.96815604 -37.51265 0.34897187 30 0 0 0 75.026718
-0.049112402 -37.916645 0.35407081 23 0 0 0 74.633041
2.4940333 -34.496418 0.32896325 25 0 0 0 73.46537
19.208487 -34.063595 0.37428626 57 0 0 0 66.418663
0.66313267 -28.761877 0.27876291 38 0 0 0 74.246841
16.887375 -28.310366 0.32135183 17 0 0 0 66.02948
17.773941 -28.200771 0.32462111 74 0 0 0 65.64724
19.878603 -28.354694 0.33588979 21 0 0 0 64.858299
20.794401 -28.165155 0.33917204 32 0 0 0 64.47097
21.040684 -27.083277 0.33217496 57 0 0 0 64.078377
-4.5295143 -25.923954 0.24782185 27 0 0 0 77.378418
20.992867 -25.695976 0.3214767 56 0 0 0 63.689831
-14.432785 -24.05633 0.24276063 26 0 0 0 83.232872
20.931803 -24.376343 0.31138048 53 0 0 0 63.295959
1.0889665 -22.963596 0.23047964 64 0 0 0 73.84787
-12.567986 -22.160053 0.22476186 40 0 0 0 82.851517
-6.7174287 -22.066008 0.21611032 74 0 0 0 79.328575
2.1516776 -22.260611 0.22589558 139 0 0 0 73.07048
-6.047286 -21.76314 0.21346381 41 0 0 0 78.934555
-17.413532 -20.182352 0.22601658 28 0 0 0 85.976723
-12.935358 -20.408649 0.21317653 21 0 0 0 83.620392
-17.891775 -19.737627 0.225133 21 0 0 0 86.368416
-6.5082111 -19.63555 0.19656461 57 0 0 0 79.721481
-4.9419475 -19.632128 0.19604656 46 0 0 0 78.544205
-20.893454 -18.940296 0.23342863 9 0 0 0 87.927139
-21.435009 -18.494925 0.23363566 37 0 0 0 88.309799
-21.247639 -17.443621 0.22739649 12 0 0 0 88.701233
-5.9846392 -16.672655 0.17269783 47 0 0 0 80.109871
-7.2078996 -16.224277 0.17058842 76 0 0 0 81.281532
-19.908997 -15.544039 0.21142513 83 0 0 0 89.0998
-7.6338992 -14.258267 0.15655175 30 0 0 0 82.45015
12.577791 -13.956204 0.19667917 57 0 0 0 62.89814
-6.2012868 -13.082032 0.14513932 28 0 0 0 81.677795
-5.5801497 -13.433547 0.14695379 201 0 0 0 80.888222
-6.1899271 -12.652902 0.31788337 132.5 0 0 0 81.869644
-16.323563 -12.113195 0.17687894 50 0 0 0 89.497131
-7.3635249 -12.263112 0.49815944 29 0 0 0 83.232872
-6.2565074 -12.398318 0.48638347 53 0 0 0 82.061501
-16.844772 -11.871192 0.17855519 62 0 0 0 89.883827
-2.6799359 -11.837477 0.28417307 811 0 0 0 78.14621
-2.3429761 -11.666432 0.27987918 148 0 0 0 77.761208
11.692152 -11.762172 0.1768031 8 0 0 0 62.109673
-17.936625 -10.76107 0.1801075 90 0 0 0 91.062653
-16.724463 -10.599801 0.17256501 93 0 0 0 90.670921
-15.808377 -10.570973 0.16733877 84 0 0 0 90.282639
-6.6844144 -10.53758 0.43866658 75 0 0 0 83.620392
-23.260187 -10.32609 0.21115802 39 0 0 0 92.99897
-6.9546394 -10.39232 0.43903661 97 0 0 0 84.012009
-27.313152 -9.7921638 0.23627885 35 0 0 0 94.180733
-23.430939 -9.7216015 0.21071002 35 0 0 0 93.40239
-18.334751 -9.8117046 0.17909263 97 0 0 0 91.832832
-7.9457483 -9.6767397 0.12569194 27 0 0 0 85.576065
-6.6980157 -9.6661682 0.2193494 307.33334 0 0 0 84.275917
-23.904202 -9.2377901 0.21267132 111 0 0 0 93.789963
-16.594736 -9.4110899 0.16733772 170 0 0 0 91.453712
-7.0674067 -9.0461731 0.40478605 509 0 0 0 85.183777
-6.9092283 -9.3061714 0.26499999 368.5 0 0 0 84.796989
-18.338831 -8.6861839 0.17561951 108 0 0 0 92.609718
-17.855694 -8.9996605 0.173567 125 0 0 0 92.221275
-8.2402906 -8.6506453 0.4184249 32 0 0 0 86.760147
10.097914 -8.7689419 0.14832988 74 0 0 0 60.937279
10.060108 -8.3123837 0.14518683 82 0 0 0 60.551048
-8.1190357 -7.7279215 0.39423221 39 0 0 0 87.539917
1.3294678 -6.8323855 0.09575291 770 0 0 0 71.508469
2.7745481 -6.5574112 0.097820163 7.5 0 0 0 68.187653
4.2046738 -6.3581481 0.1024763 27 0 0 0 65.25267
8.3227978 -6.3820391 0.2550329 714 0 0 0 59.965599
8.6214952 -6.1213741 0.38797173 724 0 0 0 59.38258
9.1221552 -6.1441965 0.40171504 550 0 0 0 58.987671
-9.396946 -5.6369395 0.38482657 69 0 0 0 91.062653
5.6485124 -5.9870882 0.10652364 200 0 0 0 62.50774
7.6217642 -5.6994753 0.1152055 435 0 0 0 59.769089
9.0013781 -5.7470994 0.3908177 481 0 0 0 58.595047
10.936246 -5.5499697 0.44172707 261 0 0 0 57.031048
-9.2726269 -5.2579479 0.37527719 27 0 0 0 91.453712
7.6166549 -5.4094291 0.11345322 675 0 0 0 59.38258
10.867245 -5.1833305 0.43397978 456 0 0 0 56.633591
7.3652749 -4.9644113 0.1093843 613 0 0 0 58.987671
7.5636392 -4.8316646 0.1098453 536 0 0 0 58.595047
10.975991 -4.9076095 0.43306026 676 0 0 0 56.244862
11.21343 -4.6861067 0.4369759 599 0 0 0 55.860607
11.565831 -4.502099 0.44508576 610 0 0 0 55.469368
7.2497759 -4.1938872 0.23007107 649.20001 0 0 0 57.892456
7.5460639 -4.0712614 0.10574496 450 0 0 0 57.428299
8.4597521 -4.2965298 0.11277197 1785 0 0 0 57.031048
8.511466 -4.0626411 0.11201219 1478 0 0 0 56.633591
9.1168718 -4.0780621 0.11611982 909 0 0 0 56.244862
9.8377504 -4.1117663 0.12113471 636 0 0 0 55.860607
11.550024 -4.4939494 0.13440776 330 0 0 0 55.469368
12.931618 -4.3126168 0.48436219 240 0 0 0 54.692982
12.623107 -3.6411045 0.3575674 263.33334 0 0 0 54.043076
18.934511 -3.8075266 0.18330836 25 0 0 0 52.739059
9.4223423 -3.4048929 0.11543403 625 0 0 0 55.076801
9.6966076 -3.1018324 0.11622837 497.5 0 0 0 54.496922
12.907191 -3.2672052 0.13911061 340 0 0 0 53.515781
15.046727 -3.4151392 0.15460369 65 0 0 0 53.124561
18.665138 -3.2780495 0.17971249 128 0 0 0 52.351593
18.70677 -2.8128798 0.17861661 121 0 0 0 51.954639
21.352461 -2.6743524 0.19714515 166 0 0 0 51.56023
25.338388 -2.5412328 0.22541253 104 0 0 0 51.171398
47.43684 -1.2400509 0.3822158 18 0 0 0 49.998661
6.5381551 4.8795757 0.49744588 808 0 0 0 39.454048
8.4550724 4.8056421 0.34676301 399 0 0 0 41.412247
11.725561 4.8578806 0.44168591 149 0 0 0 43.367439
5.4943924 5.277308 0.46700266 892 0 0 0 37.498638
5.6385117 5.2185984 0.2801747 1110.75 0 0 0 37.797256
6.2135248 5.0706744 0.34350377 1066 0 0 0 38.771999
6.6503892 5.0919056 0.19898713 1065.25 0 0 0 39.257576
8.5400848 5.4274006 0.35905525 216 0 0 0 40.62096
9.1343899 5.3391323 0.24044144 255 0 0 0 41.214314
9.5044184 5.0920982 0.38040316 200 0 0 0 41.793961
10.857448 5.4725513 0.42420363 397 0 0 0 42.192768
11.341206 5.1996326 0.2779378 542.25 0 0 0 42.775497
12.966377 5.371984 0.1329093 110 0 0 0 43.367439
13.518589 5.2107978 0.49900624 133 0 0 0 43.751606
14.980751 5.3549838 0.14622982 103 0 0 0 44.144341
16.317465 5.3815465 0.1552496 75 0 0 0 44.532558
17.876411 5.4098144 0.16585526 48 0 0 0 44.9184
5.321022 5.9269114 0.38802707 1314 0 0 0 36.332047
5.5816631 5.7263484 0.28896955 907.33331 0 0 0 36.978878
6.7126603 5.8297091 0.097026259 651 0 0 0 38.284286
8.8092766 5.9080324 0.24109522 271 0 0 0 40.232819
9.1698275 5.6689167 0.10991751 385.5 0 0 0 40.818672
10.73407 5.7491055 0.11958597 273 0 0 0 41.793961
11.042321 5.5675817 0.12101419 321 0 0 0 42.192768
20.237339 5.5823374 0.18222639 87 0 0 0 45.318768
-17.025436 6.0748315 0.20344013 227 0 0 0 5.0703001
5.0150838 6.1751285 0.48602271 866 0 0 0 35.53796
6.0636039 6.1109395 0.31103343 788 0 0 0 37.107407
6.6667805 6.3921852 0.09939748 269 0 0 0 37.498638
8.6975393 6.1484928 0.37579638 142 0 0 0 39.84742
16.66551 6.4218988 0.15925694 69 0 0 0 43.751606
24.142565 6.0217814 0.2096158 35 0 0 0 45.701241
27.082819 6.0501547 0.23013113 26 0 0 0 46.087566
32.741161 6.4710336 0.27006727 19 0 0 0 46.486118
-8.1443701 6.955997 0.39497566 620 0 0 0 10.9277
-7.6028004 6.8154745 0.25259298 709.5 0 0 0 11.3217
-7.1248417 6.8702779 0.24407047 677 0 0 0 11.903515
-6.9980459 6.915885 0.36409312 851 0 0 0 12.0998
5.3947673 6.9792833 0.31806415 49 0 0 0 35.146648
5.7298737 6.7024717 0.15273771 635.5 0 0 0 35.934139
6.4453969 6.8212676 0.10050377 252 0 0 0 36.721821
-21.269011 7.0181408 0.24352543 48 0 0 0 4.6854901
-7.4570389 7.0193629 0.12459745 460 0 0 0 11.70723
-6.8337555 7.3268757 0.28822026 488 0 0 0 12.745827
-6.3953733 7.3161969 0.11765666 848 0 0 0 13.27619
-2.12163 7.3794317 0.18843216 865 0 0 0 20.318081
-1.7351818 7.3752618 0.27945641 812.22223 0 0 0 21.088984
-1.2991518 7.4006824 0.21489288 732.33331 0 0 0 21.999594
5.5366349 7.1631708 0.098642662 81 0 0 0 35.146648
8.5604982 7.4162698 0.39706099 190 0 0 0 38.284286
-7.5954905 7.8911424 0.12933348 637 0 0 0 12.48844
-6.588872 7.7367878 0.37281638 595 0 0 0 13.4684
-6.377346 7.6689701 0.11911176 795 0 0 0 13.66061
-2.6938634 7.7509222 0.2483677 999.5 0 0 0 19.427721
-2.3201787 7.6145802 0.42248178 719.33331 0 0 0 20.052088
-1.1588459 7.6330748 0.42492354 624 0 0 0 22.355297
-0.74531859 7.7965746 0.38164711 619.25 0 0 0 23.229408
-0.45882189 7.8427401 0.38382733 782.5 0 0 0 23.82123
4.4163337 7.8960223 0.32491574 156 0 0 0 32.807251
5.2388005 7.784595 0.17998429 451.33334 0 0 0 34.103626
5.5654182 7.9761534 0.34693819 359 0 0 0 34.362873
-11.944168 8.3597183 0.16628757 85 0 0 0 9.3724003
-11.461252 8.444294 0.16258895 202 0 0 0 9.7533398
-6.6942062 8.4767942 0.3929913 630 0 0 0 14.05013
-3.1514955 8.271246 0.21531475 788.5 0 0 0 18.944275
-1.1149939 8.4242144 0.097071961 827 0 0 0 22.64636
-0.69075257 8.3467903 0.095579028 508 0 0 0 23.427059
-0.37956315 8.2353897 0.19428262 612 0 0 0 24.013584
1.7881403 8.2678413 0.30576566 632.33331 0 0 0 28.119448
2.0327091 8.3826933 0.095480852 511 0 0 0 28.51004
2.8007457 8.0082121 0.094429113 617 0 0 0 30.06348
3.1437562 8.1099653 0.24173824 537.33331 0 0 0 30.594629
4.3076611 8.1678219 0.21518075 325.5 0 0 0 32.420799
4.8986869 8.2679501 0.10233689 419 0 0 0 33.198269
11.541381 8.1473541 0.1322145 112 0 0 0 39.84742
-11.240528 8.7131233 0.16175604 216 0 0 0 10.15037
1.7646536 8.6612206 0.097008586 691 0 0 0 27.92415
5.3907785 8.5983582 0.23211177 244 0 0 0 33.592701
6.9811478 8.5628939 0.38860926 149 0 0 0 35.53796
-11.328478 9.235508 0.1644588 727 0 0 0 10.53676
-10.833148 9.2792797 0.16061747 589 0 0 0 10.9277
-2.8392906 9.1028814 0.10724498 774 0 0 0 19.91909
4.6896996 9.4315825 0.1083483 165 0 0 0 32.03083
5.27565 9.1453724 0.24094564 165.5 0 0 0 33.002762
-7.5535378 9.57757 0.13653508 1237 0 0 0 14.05013
-7.2045717 9.6096992 0.28295955 1203 0 0 0 14.45256
-6.7060814 9.6596937 0.27699587 1296.5 0 0 0 15.04152
-6.2211232 9.7015095 0.27108398 1415.5 0 0 0 15.6309
-5.7615099 9.7508936 0.2662904 1506.75 0 0 0 16.212296
-5.1682091 9.8105125 0.26042417 1549 0 0 0 16.98917
-4.7320433 9.8419857 0.25614339 1526.5 0 0 0 17.57848
-4.3156514 9.8871613 0.25276512 1571.25 0 0 0 18.156319
-3.9028907 9.9230051 0.38212529 1648 0 0 0 18.753241
2.6976984 9.9713211 0.36500505 524 0 0 0 28.892481
4.6308503 9.9086018 0.3845647 163 0 0 0 31.641729
-1.581164 10.161488 0.11003772 333 0 0 0 22.25816
-1.0750974 10.175734 0.1088736 480 0 0 0 23.031759
-0.15414803 10.291465 0.19355977 1225.6666 0 0 0 24.466782
0.31225964 10.336839 0.23683938 1538.75 0 0 0 25.191515
0.82703304 10.38285 0.23799759 1664.25 0 0 0 25.97031
1.3507742 10.428661 0.23970805 1560.5 0 0 0 26.750839
1.7474778 10.445285 0.24083042 1247 0 0 0 27.34259
4.3803592 10.241608 0.2043225 226 0 0 0 31.117769
2.8611705 10.566218 0.11105604 1482 0 0 0 28.892481
3.2901947 10.573869 0.249816 1112.25 0 0 0 29.484505
3.7369139 10.606232 0.39407367 1118 0 0 0 30.06348
5.2843785 11.290037 0.12129965 159 0 0 0 31.641729
5.631485 11.29052 0.43790501 170 0 0 0 32.03083
-54.627476 -52.015766 0.56560367 6 0 0 0 87.539917
19.33456 -50.366112 0.50055689 22 0 0 0 68.77301
23.490076 -49.884243 0.51195461 16 0 0 0 67.594955
-0.046600338 -28.479151 0.98570704 41 0 0 0 74.633041
0.65131032 -28.481222 0.98738486 17 0 0 0 74.246841
1.3450017 -28.375513 0.98520786 43 0 0 0 73.84787
-5.7168889 -22.700792 0.80509704 16 0 0 0 78.544205
-6.0530787 -21.76832 0.77720803 48 0 0 0 78.934555
-16.754131 -20.400698 0.88369668 30 0 0 0 85.576065
-3.5488362 -20.271042 0.71509302 16 0 0 0 77.378418
-17.770416 -19.596703 0.88391042 40 0 0 0 86.368416
-17.027931 -19.728226 0.87203598 40 0 0 0 85.976723
-20.617983 -17.783726 0.90554005 47 0 0 0 88.309799
-21.052607 -17.277407 0.9052512 26 0 0 0 88.701233
-5.7552762 -17.349182 0.63383031 91 0 0 0 79.721481
-6.3955789 -16.523849 0.61384493 89 0 0 0 80.500626
-5.104578 -16.747492 0.60944343 209 0 0 0 79.328575
-6.735785 -16.211906 0.60773849 148 0 0 0 80.888222
-5.9135551 -16.464638 0.60734391 106 0 0 0 80.109871
-20.33728 -15.085781 0.84337401 46 0 0 0 89.497131
12.687579 -14.082151 0.67158371 18 0 0 0 62.89814
-7.5512691 -13.303955 0.53088045 117 0 0 0 82.851517
-7.1977878 -13.436657 0.9024905 88 0 0 0 82.45015
-6.7288122 -13.335134 0.88567328 23 0 0 0 82.061501
-5.9485846 -13.379234 0.69224119 49.5 0 0 0 81.281532
-4.0107651 -13.150006 0.82237345 108 0 0 0 79.328575
-6.903698 -12.887388 0.509552 183 0 0 0 82.45015
-6.0405755 -12.736107 0.83840185 67 0 0 0 81.677795
-15.863795 -12.381641 0.67787802 80 0 0 0 89.0998
-2.6956551 -11.901509 0.73571962 701 0 0 0 78.14621
-2.3519702 -11.705187 0.7211675 133 0 0 0 77.761208
11.695034 -11.768539 0.79491138 29.5 0 0 0 62.109673
-17.388592 -11.016509 0.69162422 69 0 0 0 90.670921
-16.05991 -11.314075 0.66207063 44 0 0 0 89.883827
-27.170582 -10.49461 0.96384788 34 0 0 0 93.789963
-24.46451 -10.14566 0.87947375 30 0 0 0 93.40239
-21.983044 -10.407194 0.81037861 49 0 0 0 92.609718
-15.64131 -10.455449 0.6353687 55 0 0 0 90.282639
-7.1593447 -10.151423 0.7396059 79 0 0 0 84.407875
-6.338407 -10.266033 0.72051883 123 0 0 0 83.426636
12.433022 -10.268934 0.57371008 7 0 0 0 60.551048
12.744437 -10.009808 0.5758422 233 0 0 0 60.162113
-27.213053 -9.7514048 0.95712537 20 0 0 0 94.180733
-6.5115156 -9.7294922 0.69949645 331 0 0 0 84.012009
-5.9364505 -9.8879375 0.97720838 479 0 0 0 83.232872
-16.882927 -9.031435 0.6455487 86 0 0 0 91.832832
-7.3952522 -9.0026579 0.69472986 164 0 0 0 85.576065
-6.9491563 -9.3580904 0.69577527 107 0 0 0 84.796989
-17.279024 -8.7055531 0.65194929 53 0 0 0 92.221275
-7.8372469 -8.8562565 0.70419133 95 0 0 0 86.172569
-7.2944775 -8.8829861 0.97166622 322 0 0 0 85.576065
-6.8063183 -8.7131968 0.79728448 386 0 0 0 85.183777
-8.5347309 -8.1263866 0.99384481 246 0 0 0 87.539917
-7.3645725 -8.1229 0.92786366 99 0 0 0 86.368416
-8.0885963 -7.6989222 0.66589022 129 0 0 0 87.539917
-7.5111814 -7.8850479 0.65076083 5 0 0 0 86.760147
-7.4248657 -7.7970891 0.91149235 302 0 0 0 86.760147
-8.3682194 -7.218307 0.658934 81 0 0 0 88.309799
-8.1064816 -6.6559062 0.88783729 261 0 0 0 88.701233
-7.7467327 -6.6846304 0.86712283 214 0 0 0 88.309799
-7.2812543 -6.6007252 0.8344112 65 0 0 0 87.927139
-5.8152385 -6.7400136 0.97617179 273 0 0 0 85.973732
-4.2868986 -6.9411106 0.89907736 123 0 0 0 83.426636
8.3428383 -6.5615015 0.7825774 1024.5 0 0 0 60.162113
-8.4154415 -6.245862 0.88683963 110 0 0 0 89.497131
-7.9571018 -6.213542 0.8557266 236 0 0 0 89.0998
-6.2547307 -6.4088879 0.98113072 232.5 0 0 0 86.95343
8.3663483 -6.2539043 0.77023518 1120.5 0 0 0 59.769089
8.5688982 -6.0826812 0.774068 556 0 0 0 59.38258
9.0890999 -6.1204677 0.80516702 611.5 0 0 0 58.987671
10.96525 -5.5643287 0.7444064 248 0 0 0 57.031048
8.9319315 -5.1022396 0.75797081 536.5 0 0 0 57.809471
10.85985 -5.1795235 0.72886467 680 0 0 0 56.633591
13.869161 -5.0062456 0.52126831 149 0 0 0 55.076801
15.393131 -5.1301236 0.96729785 74 0 0 0 54.692982
9.2389326 -4.979845 0.77219325 283.5 0 0 0 57.428299
11.29969 -4.8840489 0.74436879 500.5 0 0 0 56.052734
11.633223 -4.5279288 0.75373548 422 0 0 0 55.469368
11.576806 -4.181284 0.74339038 189 0 0 0 55.076801
14.376705 -4.4026103 0.8987053 144 0 0 0 54.300861
14.521267 -4.0588508 0.90043807 175 0 0 0 53.914181
14.363871 -3.6366763 0.70391583 160.5 0 0 0 53.515781
18.262007 -3.6755636 0.64403737 115 0 0 0 52.739059
14.792994 -3.3601155 0.53216934 199 0 0 0 53.124561
15.317267 -3.4784393 0.93501663 221 0 0 0 53.124561
18.308775 -3.2185268 0.64196253 243 0 0 0 52.351593
19.78326 -2.9773777 0.68711889 155 0 0 0 51.954639
22.373831 -2.8054302 0.76867288 78 0 0 0 51.56023
101.81495 -0.15782414 0.77364153 7 0 0 0 49.61586
8.2286844 4.4148555 0.79773712 242 0 0 0 41.793961
6.2023883 4.7095819 0.79863209 870.66669 0 0 0 39.323208
6.774415 4.9254479 0.71925551 698 0 0 0 39.650734
7.1879129 4.7000518 0.94624782 513 0 0 0 40.426888
7.825882 4.84482 0.67021143 358.5 0 0 0 40.818672
8.7616539 4.8839345 0.68592972 266.66666 0 0 0 41.539486
11.258646 4.8266211 0.72848958 319.5 0 0 0 43.169579
13.968671 4.992065 0.87445217 314 0 0 0 44.144341
4.4841185 5.2644429 0.9401955 292 0 0 0 35.933273
5.3998141 5.4511056 0.66198301 1122 0 0 0 37.107407
5.7423358 5.2467866 0.76637477 689.5 0 0 0 37.893238
6.3564777 5.3425088 0.71120971 471 0 0 0 38.545181
6.7296724 5.0229383 0.92588681 232 0 0 0 39.454048
8.2808418 5.4087338 0.84223664 192 0 0 0 40.426888
8.5607328 5.1486459 0.60059881 262 0 0 0 41.01638
10.633385 5.1994829 0.8515352 328 0 0 0 42.386021
11.227337 5.315239 0.73784488 390 0 0 0 42.579273
14.207986 5.2758408 0.7068556 79.5 0 0 0 43.947975
16.853331 5.0981107 0.59915197 83 0 0 0 44.9184
19.868006 5.4772224 0.6951772 98 0 0 0 45.318768
5.1474113 5.833303 0.79692215 996.33331 0 0 0 36.196121
5.5024004 5.5533266 0.8644886 224 0 0 0 37.107407
8.3035011 5.7196226 0.6056599 322 0 0 0 40.040119
16.861206 5.5571718 0.60347271 61 0 0 0 44.532558
28.886215 5.7054601 0.97884399 20 0 0 0 46.486118
-17.883318 6.3865104 0.68305951 109 0 0 0 5.0703001
4.8386183 6.2709298 0.8752659 302 0 0 0 35.146648
5.1052122 6.2866464 0.79378617 386 0 0 0 35.53796
5.7883964 6.4429908 0.74211431 146 0 0 0 36.332047
25.268606 6.2976594 0.86888427 46 0 0 0 45.701241
27.812078 6.2080216 0.94784862 37 0 0 0 46.087566
-20.448273 6.7495322 0.77026284 205 0 0 0 4.6854901
-7.1685829 6.9139986 0.61019534 765.5 0 0 0 11.903515
4.8009877 6.8965783 0.92610216 541 0 0 0 34.362873
5.5844908 6.5323825 0.52189004 306 0 0 0 35.933273
6.4331326 6.8058739 0.56513721 570 0 0 0 36.721821
-10.02815 7.0093594 0.74565881 628 0 0 0 9.3724003
-9.9230213 7.3033266 0.75019753 524 0 0 0 9.7533398
-8.6226387 7.3680563 0.9718852 98 0 0 0 10.9277
-8.2902832 7.26372 0.67288417 516 0 0 0 11.124701
-7.7275043 7.0999079 0.90088147 655.5 0 0 0 11.514465
-7.2282515 7.1451993 0.8727476 656 0 0 0 12.0998
-6.8403034 7.275599 0.73557377 743 0 0 0 12.68148
4.7675772 7.4126348 0.5342257 223.5 0 0 0 33.783356
5.2160158 7.4815888 0.55167538 182 0 0 0 34.362873
6.6536269 7.0390658 0.82519126 177 0 0 0 36.721821
-9.9327831 7.6929855 0.76380831 499 0 0 0 10.15037
-6.7101445 7.8136268 0.71516162 681.33331 0 0 0 13.40433
-2.6604061 7.8134823 0.90831512 1081 0 0 0 19.52519
-2.3049865 7.6715612 0.88231432 759.5 0 0 0 20.118586
-1.9812067 7.5963449 0.86510175 750 0 0 0 20.7036
-1.0567479 7.9525623 0.68840617 885 0 0 0 22.64636
-0.86141741 7.9809198 0.68865156 920 0 0 0 23.031759
2.1408975 7.9715562 0.50146526 711 0 0 0 28.892481
2.7186439 7.8754086 0.71312028 718.83331 0 0 0 30.00123
3.2293694 7.9472303 0.94283807 628 0 0 0 30.854589
4.6984844 7.7199965 0.77233839 252 0 0 0 33.395485
5.2772436 7.7743006 0.80181623 212.5 0 0 0 34.168442
-11.777922 8.2456446 0.52100784 198 0 0 0 9.3724003
-11.273182 8.3077631 0.50776297 256 0 0 0 9.7533398
-10.153497 8.2721291 0.79427487 524 0 0 0 10.53676
-2.5639198 8.1934452 0.73563451 549 0 0 0 19.91909
-1.9574343 8.375267 0.94442761 368 0 0 0 21.08758
-0.67273068 8.1078901 0.69733322 763 0 0 0 23.427059
1.806308 8.2302256 0.6944772 845.5 0 0 0 28.168428
2.1656611 8.0649471 0.81722534 799 0 0 0 28.892481
4.4188786 8.3745785 0.69013578 248 0 0 0 32.420799
4.7185245 8.269062 0.65108347 236.66667 0 0 0 32.937592
-11.315547 8.775382 0.51777029 234 0 0 0 10.15037
-7.0969572 8.5502672 0.94903332 391 0 0 0 13.66061
-1.6920207 8.689806 0.75654638 494.5 0 0 0 21.673038
1.4716122 8.8676109 0.65508711 843.5 0 0 0 27.34259
1.6508224 8.6373692 0.96439892 868 0 0 0 27.727591
2.6173556 8.8352413 0.555498 222 0 0 0 29.29286
-11.307606 9.222044 0.526241 692 0 0 0 10.53676
-2.2273388 9.0570107 0.79564178 497 0 0 0 20.89559
-1.413226 9.0239334 0.77906728 453 0 0 0 22.25816
4.6372843 9.3249874 0.75585496 298.5 0 0 0 32.03083
-7.5090747 9.5252714 0.73212838 1143 0 0 0 14.05013
-7.1614943 9.5542707 0.7205326 1239 0 0 0 14.45256
-6.672451 9.6132507 0.70606291 1211.5 0 0 0 15.041519
-6.2858348 9.6281328 0.88378263 1339.3334 0 0 0 15.500306
-5.7282019 9.6952448 0.81853259 1390.75 0 0 0 16.212296
-5.1921878 9.7613363 0.75808221 1447.6666 0 0 0 16.923567
-4.8058548 9.7900648 0.83771086 1599 0 0 0 17.447645
-4.295155 9.8411903 0.77995443 1575.75 0 0 0 18.156319
-3.7534282 9.8934107 0.76824677 1530.25 0 0 0 18.944275
-3.352566 9.9188843 0.88996017 1539 0 0 0 19.52519
-2.8291123 9.9516954 0.87917531 1221 0 0 0 20.318081
2.9670448 9.986639 0.88274723 232 0 0 0 29.29286
4.5655346 9.7747135 0.91353077 293 0 0 0 31.641729
-0.57147449 10.189684 0.86543149 1520 0 0 0 23.82123
-0.19488591 10.238419 0.74049664 1583.5 0 0 0 24.401569
0.31081647 10.283556 0.74375796 1543.5 0 0 0 25.191515
0.82318735 10.332787 0.7489357 1603.25 0 0 0 25.97031
1.3433909 10.371482 0.7553007 1537 0 0 0 26.750841
4.5187645 10.319512 0.67111355 225 0 0 0 31.249359
4.316505 11.334062 0.71937448 260 0 0 0 30.464649
4.6736655 11.414557 0.73104715 157 0 0 0 30.854589
5.4720087 11.679079 0.76291424 137 0 0 0 31.641729
-1.1098843 -42.797333 1.461642 16 0 0 0 75.026718
2.4800642 -34.390137 1.1886616 19 0 0 0 73.46537
19.23842 -34.129768 1.3531901 53 0 0 0 66.418663
-3.2004826 -32.038475 1.1034045 12 0 0 0 76.204254
-4.7876959 -31.989305 1.1051301 16 0 0 0 76.979599
18.836876 -28.332277 1.180228 54 0 0 0 65.25267
19.935312 -28.445217 1.2042344 43 0 0 0 64.858299
20.879313 -28.289482 1.2185266 41 0 0 0 64.47097
21.057793 -27.114201 1.1898412 43 0 0 0 64.078377
20.991022 -25.702061 1.150272 48 0 0 0 63.689831
20.900009 -24.34717 1.1124015 65 0 0 0 63.295959
-3.9332347 -22.474304 1.3471416 20 0 0 0 77.378418
20.81535 -21.970839 1.0493268 55 0 0 0 62.50774
-5.560792 -19.993469 1.2244216 15 0 0 0 78.934555
-5.0142756 -19.90362 1.2124205 29 0 0 0 78.544205
21.411247 -19.503151 1.0028309 7 0 0 0 61.337994
14.263318 -18.378633 1.3879011 11 0 0 0 64.078377
-2.5568931 -17.055201 1.4568379 32 0 0 0 76.979599
-5.5477057 -16.721617 1.0431012 57 0 0 0 79.721481
-4.6847119 -16.847252 1.4723042 115 0 0 0 78.934555
-6.6819263 -16.081598 1.0290563 71 0 0 0 80.888222
-6.2829642 -16.231901 1.029327 68 0 0 0 80.500626
-5.8624549 -16.321539 1.0265323 59 0 0 0 80.109871
-34.98719 -15.523621 1.2548943 18 0 0 0 92.99897
-7.0370541 -15.837861 1.4546304 86 0 0 0 81.281532
-16.578985 -15.023896 1.2982918 26 0 0 0 87.927139
-20.185417 -14.973238 1.4523271 24 0 0 0 89.497131
13.690644 -14.462776 1.1909382 92 0 0 0 62.50774
13.992038 -13.399051 1.1583103 10 0 0 0 61.720539
-8.6057911 -12.865916 1.2985038 74 0 0 0 84.012009
-6.8762684 -12.840909 1.2262427 95 0 0 0 82.45015
14.009544 -12.772135 1.1336858 16 0 0 0 61.337994
-15.63495 -12.203099 1.1538461 48 0 0 0 89.0998
-4.7514777 -12.274698 1.2734194 104.5 0 0 0 80.500626
12.708801 -12.168673 1.4939272 16 0 0 0 61.720539
14.257776 -12.371431 1.1284043 20 0 0 0 60.937279
-4.1515207 -11.555391 1.0423751 111 0 0 0 80.109871
-3.912621 -11.789454 1.2055902 196.5 0 0 0 79.721481
-2.698133 -11.92127 1.1893388 781.5 0 0 0 78.14621
-2.3654528 -11.782377 1.170108 199 0 0 0 77.761208
12.955117 -11.808769 1.4879652 29 0 0 0 61.337994
14.436284 -11.91801 1.1187555 21 0 0 0 60.551048
18.416542 -11.730682 1.2951672 104 0 0 0 58.595047
19.623058 -11.830698 1.3565291 118 0 0 0 58.20752
-16.071957 -11.322656 1.1435432 78 0 0 0 89.883827
-9.5518656 -11.069024 1.2260681 36 0 0 0 85.976723
-5.6361961 -11.171782 1.0588098 126 0 0 0 82.061501
-5.4268212 -11.445071 1.0719079 74 0 0 0 81.677795
-4.760376 -11.455569 1.0516307 110 0 0 0 80.888222
13.337784 -11.287425 1.4825981 55 0 0 0 60.744164
-22.324762 -10.569217 1.4269168 36 0 0 0 92.609718
-16.126635 -10.779902 1.1285714 84 0 0 0 90.282639
-8.154377 -10.985768 1.4827908 148 0 0 0 84.796989
-7.8371782 -10.558357 1.1073881 32 0 0 0 84.796989
-5.9631124 -10.507171 1.0224793 140 0 0 0 82.851517
-23.125084 -10.261975 1.4607821 86 0 0 0 92.99897
-16.088604 -10.193238 1.1085874 102 0 0 0 90.670921
-7.1396775 -10.127108 1.0459442 23 0 0 0 84.407875
-6.520061 -10.281841 1.0291955 330 0 0 0 83.620392
-23.56555 -9.7733431 1.4728721 64 0 0 0 93.40239
-16.382753 -9.8255024 1.1117061 125 0 0 0 91.062653
-23.919497 -9.239687 1.4804121 15 0 0 0 93.789963
-18.361607 -9.2510014 1.1936762 61 0 0 0 92.221275
-17.320744 -9.2657595 1.1420214 104 0 0 0 91.832832
-16.433121 -9.3160238 1.09962 109 0 0 0 91.453712
-5.2833095 -9.3077545 1.1693497 90 0 0 0 82.851517
-4.4615612 -9.4059057 1.139654 251 0 0 0 81.677795
-3.910161 -9.4051514 1.1166997 174 0 0 0 80.888222
14.857101 -9.4643679 1.4913514 21 0 0 0 58.595047
-9.0477953 -8.6148949 1.354645 210 0 0 0 87.539917
-9.3500328 -8.4760666 1.3678148 173 0 0 0 87.927139
-8.4596539 -8.4592676 1.0086542 100 0 0 0 87.146713
-6.541573 -8.3783684 1.4203882 413 0 0 0 85.183777
-4.4349456 -8.2800655 1.2614279 105 0 0 0 82.45015
-8.9137192 -7.691515 1.2781641 76 0 0 0 88.309799
-6.7579861 -7.639863 1.3637114 378.5 0 0 0 86.172569
-6.3091826 -7.6851821 1.3305597 244 0 0 0 85.576065
-5.5319953 -7.8451023 1.0509235 157 0 0 0 84.407875
-5.2070298 -7.781426 1.0262008 80 0 0 0 84.012009
-4.6079416 -7.6753292 1.4242754 260 0 0 0 83.232872
-4.1410737 -7.7303004 1.3965828 294 0 0 0 82.45015
-7.116096 -7.1180506 1.3454485 420 0 0 0 87.146713
-6.9926419 -7.345582 1.3556578 355 0 0 0 86.760147
-5.6426301 -7.2238698 1.0044831 84 0 0 0 85.183777
-7.1004968 -6.7630482 1.3114866 663 0 0 0 87.539917
-8.1642008 -6.375247 1.1284081 90 0 0 0 89.0998
-7.2286959 -6.2398682 1.2777483 55 0 0 0 88.309799
-6.7005243 -6.0763931 1.435779 413 0 0 0 87.927139
-4.7828164 -6.1244478 1.2393848 151 0 0 0 85.183777
-4.4912672 -6.0501652 1.3891504 107 0 0 0 84.796989
-7.8268447 -5.8113289 1.303322 75 0 0 0 89.497131
-7.165132 -5.8831468 1.0136908 55 0 0 0 88.701233
-6.9388065 -5.6994004 1.425313 239 0 0 0 88.701233
11.087864 -5.6235571 1.0624063 265 0 0 0 57.031048
8.9533119 -5.1118097 1.2662549 534 0 0 0 57.809471
11.064407 -5.2740145 1.047635 527 0 0 0 56.633591
11.548697 -5.1595998 1.079546 293 0 0 0 56.244862
15.999361 -5.3280306 1.4244632 170 0 0 0 54.692982
11.606875 -4.8468704 1.0734 267 0 0 0 55.860607
15.263112 -4.6698561 1.3498927 148 0 0 0 54.300861
8.5284233 -4.3292284 1.176821 467.5 0 0 0 57.031048
14.721654 -4.1115394 1.2936679 155 0 0 0 53.914181
-37.611244 -3.7302992 1.2481152 7 0 0 0 98.077248
14.889129 -3.7659028 1.2989824 214 0 0 0 53.515781
17.359209 -3.9370193 1.4985135 109 0 0 0 53.124561
18.207823 -3.6642771 1.0977511 127 0 0 0 52.739059
21.00395 -3.6904814 1.2538077 85 0 0 0 52.351593
39.245369 -3.9388504 1.3144556 11 0 0 0 51.171398
21.858782 -3.2884114 1.297245 83 0 0 0 51.954639
5.8260174 4.3563766 1.3458395 733.33331 0 0 0 39.454048
6.1562233 4.3682036 1.3987722 624 0 0 0 39.84742
6.6398091 4.2314911 1.2615614 197.5 0 0 0 40.624599
7.1969171 4.337791 1.3434668 404 0 0 0 41.01638
8.2069874 4.2756028 1.2996789 322.75 0 0 0 41.993362
11.549673 4.4576302 1.1964121 173 0 0 0 43.751606
3.3722391 4.751019 1.2320606 5382.5 0 0 0 34.563145
3.5919521 4.5633388 1.2284812 5528.5 0 0 0 35.342304
5.4788909 4.537653 1.4964503 634 0 0 0 38.675632
5.757185 4.7661009 1.2361517 628 0 0 0 38.673279
6.2714939 4.8074193 1.265525 623.5 0 0 0 39.257576
6.5607085 4.6522865 1.186594 487 0 0 0 39.84742
7.1677904 4.6910734 1.2614149 559.5 0 0 0 40.426888
7.9875317 4.54567 1.4654171 271 0 0 0 41.412247
8.2636747 4.7005978 1.1574748 368.5 0 0 0 41.412247
8.524334 4.5723648 1.0609044 235 0 0 0 41.793961
10.69315 4.7469635 1.274984 212 0 0 0 42.971722
11.319185 4.8562136 1.0400261 339 0 0 0 43.169579
11.776851 4.8817215 1.3858137 338 0 0 0 43.367439
4.9872241 5.0412097 1.4913601 1225 0 0 0 37.107407
5.2728181 5.2515416 1.1930962 772.14288 0 0 0 37.219997
5.8630733 5.2282801 1.2573185 799 0 0 0 38.090538
6.1907926 5.1203918 1.1855196 672.5 0 0 0 38.675632
8.3244133 5.0095687 1.0651257 471 0 0 0 41.01638
10.640002 5.3660083 1.0070103 300 0 0 0 42.192768
11.081169 5.2489204 1.3340554 247 0 0 0 42.579273
16.693613 5.0501299 1.021845 100 0 0 0 44.9184
19.645298 5.4162159 1.1877383 14 0 0 0 45.318768
4.7713876 5.8830428 1.0258733 681 0 0 0 35.53796
5.177526 5.7265282 1.2683748 756.83331 0 0 0 36.395508
6.1064248 5.5798254 1.3223778 766 0 0 0 37.896793
16.411463 5.8649426 1.4554976 96 0 0 0 44.144341
16.872845 5.5646033 1.4833311 85 0 0 0 44.532558
17.380785 5.7280312 1.0699347 79 0 0 0 44.532558
23.442019 5.8436513 1.4013462 10 0 0 0 45.701241
4.7148266 6.2730889 1.2563341 165.5 0 0 0 34.955029
5.0271244 6.5139456 1.1108029 399 0 0 0 35.146648
6.2730317 6.9760137 1.02925 645 0 0 0 36.332047
-10.561018 7.0049949 1.390348 53 0 0 0 8.97785
-10.351834 7.3610091 1.1892697 460.33334 0 0 0 9.4993801
-7.7023053 7.255168 1.1628526 667 0 0 0 11.70723
-7.4427366 7.3607707 1.1502607 867 0 0 0 12.0998
4.8804059 7.1983552 1.1716281 283.5 0 0 0 34.168442
-10.321531 7.7937069 1.2620282 468 0 0 0 9.9518547
-7.6547217 7.9532113 1.4804913 628 0 0 0 12.48844
-7.1812291 7.6434789 1.1518002 750.5 0 0 0 12.68148
-2.3068275 7.7452254 1.246812 949.40002 0 0 0 20.158485
-1.8157876 7.6236577 1.2729237 764 0 0 0 21.040636
-1.2850411 7.8224697 1.4097594 682 0 0 0 22.161285
2.8789818 7.9190283 1.1342142 739 0 0 0 30.264065
3.2434602 7.9846516 1.1594114 662 0 0 0 30.854589
4.9318814 7.8783216 1.1339471 132.5 0 0 0 33.592701
-7.2839708 8.1446953 1.332338 361 0 0 0 13.075356
-2.7426991 8.0601721 1.144294 155 0 0 0 19.52519
-1.2349434 8.2653542 1.1936933 390.66666 0 0 0 22.38756
-0.89056343 8.2733297 1.2209851 515.5 0 0 0 23.031759
2.3193588 8.4166355 1.2278779 701.75 0 0 0 28.997061
2.7097957 8.1757402 1.3018327 845.33331 0 0 0 29.80526
3.2363956 8.2476091 1.4104825 600.5 0 0 0 30.659618
4.7211366 8.1998072 1.0370562 329.5 0 0 0 33.002762
-1.7854427 8.5879316 1.1773347 289 0 0 0 21.475769
-1.1410216 8.6390419 1.3846805 332 0 0 0 22.64636
1.8924828 8.7296515 1.1989369 664 0 0 0 28.12071
2.2066407 8.6290197 1.4165684 891.5 0 0 0 28.70126
4.5694499 8.6599007 1.3127904 277 0 0 0 32.420799
5.7787623 8.7281599 1.1435657 72 0 0 0 33.974007
-1.7468276 9.1871042 1.1007307 490.66666 0 0 0 21.738794
4.7460318 9.2623806 1.2661606 170.5 0 0 0 32.225815
5.3286881 9.2404327 1.4270375 180 0 0 0 33.002762
-7.281446 9.5479479 1.1185803 839 0 0 0 14.318417
-6.8245425 9.5797644 1.0009282 1107 0 0 0 14.84392
-6.2293968 9.7155447 1.2606471 378 0 0 0 15.6309
-5.5511689 9.662816 1.2175467 1058 0 0 0 16.40638
-5.2702622 9.7157326 1.2075189 1348 0 0 0 16.79236
-4.8314977 9.7399015 1.1878524 1452 0 0 0 17.382229
-4.2766743 9.7971268 1.1677928 1468 0 0 0 18.156319
-3.6744478 9.7999191 1.228582 809.33331 0 0 0 19.007952
2.866986 9.6579189 1.0998733 249 0 0 0 29.29286
3.23088 9.9659176 1.1423823 355 0 0 0 29.676149
4.4853296 9.6054173 1.1563504 184 0 0 0 31.641729
4.8865986 9.8199091 1.1952744 150 0 0 0 32.03083
-1.5613811 10.03583 1.1084685 839 0 0 0 22.25816
-1.1919879 10.099855 1.1096852 1668.5 0 0 0 22.83906
-0.694444 10.15041 1.1097876 1652 0 0 0 23.624146
-0.19488518 10.199041 1.1123424 1625 0 0 0 24.401569
0.30883762 10.244832 1.1175056 1586.5 0 0 0 25.191515
0.8186413 10.286533 1.1249218 1528 0 0 0 25.97031
1.3380086 10.335814 1.1359034 1570 0 0 0 26.750839
1.7335404 10.366056 1.1452094 1376 0 0 0 27.34259
4.9709578 11.33991 1.0425574 130 0 0 0 31.249359
4.7054043 11.903784 1.0763479 147.5 0 0 0 30.659618
5.4600625 12.438319 1.4704922 87 0 0 0 31.249359
16.672617 -50.765427 1.8292358 27 0 0 0 69.547531
18.008381 -50.611877 1.83938 11 0 0 0 69.158409
20.034092 -39.999493 1.53952 9 0 0 0 67.205482
0.66560364 -29.097237 1.7202713 51 0 0 0 74.246841
-0.047159564 -28.82383 1.7026145 41 0 0 0 74.633041
2.0443764 -28.398523 1.6846564 22 0 0 0 73.46537
-2.7680819 -27.685421 1.6392202 22 0 0 0 76.204254
-2.1013319 -27.908749 1.6500913 44 0 0 0 75.810493
-1.4183587 -27.978308 1.6529968 47 0 0 0 75.424309
-0.73081487 -27.935299 1.6503917 8 0 0 0 75.026718
2.5624382 -26.521009 1.5792485 7 0 0 0 73.07048
-13.979614 -24.639328 1.6458973 25 0 0 0 82.851517
-5.0249705 -19.959957 1.7278595 46 0 0 0 78.544205
-3.467998 -19.825346 1.6933194 23 0 0 0 77.378418
-5.4766126 -17.980715 1.5790629 85 0 0 0 79.328575
-3.0813289 -17.604557 1.9414501 20 0 0 0 77.378418
-20.956573 -17.198635 1.5646685 52 0 0 0 88.701233
-4.6057367 -16.561777 1.8652303 36 0 0 0 78.934555
-7.296813 -16.422775 1.9432783 46 0 0 0 81.281532
-5.7075262 -15.897023 1.8308495 34 0 0 0 80.109871
11.980174 -14.680261 1.6087726 62 0 0 0 63.689831
11.534174 -14.134825 1.9938512 198 0 0 0 63.689831
11.857428 -13.824221 1.7688186 157 0 0 0 63.295959
12.346104 -13.698459 1.5656143 163 0 0 0 62.89814
12.903742 -13.628386 1.5921504 44 0 0 0 62.50774
-7.2018838 -13.449319 1.652933 56 0 0 0 82.45015
-6.3475122 -12.583405 1.5301784 86 0 0 0 82.061501
12.466702 -12.537661 1.5015465 32 0 0 0 62.109673
11.607893 -12.263058 1.846784 35 0 0 0 62.50774
-2.7068918 -11.968668 1.7955902 674 0 0 0 78.14621
-2.3753095 -11.841187 1.7688422 322 0 0 0 77.761208
11.810703 -11.879396 1.8319294 102 0 0 0 62.109673
12.176522 -11.660046 1.8429598 147 0 0 0 61.720539
12.619609 -11.503389 1.8656925 160 0 0 0 61.337994
-15.974133 -11.258017 1.6232491 38 0 0 0 89.883827
-7.2130885 -11.379657 1.7931364 74 0 0 0 83.620392
-16.085648 -10.756685 1.6074699 70 0 0 0 90.282639
-4.6905293 -10.55423 1.5447968 125 0 0 0 81.281532
-15.91541 -10.08756 1.566069 101 0 0 0 90.670921
-5.1441913 -10.198831 1.8095232 204 0 0 0 82.061501
-4.9515629 -10.445335 1.5455819 31 0 0 0 81.677795
11.755266 -10.201299 1.7034712 138 0 0 0 60.937279
-17.010389 -9.647275 1.6237954 73 0 0 0 91.453712
-16.47788 -9.8866014 1.5962918 45 0 0 0 91.062653
-6.7664733 -9.6006536 1.5667017 42 0 0 0 84.407875
-6.3968573 -9.5647573 1.5359344 42 0 0 0 84.012009
-5.6675358 -9.9893827 1.5344089 243 0 0 0 82.851517
12.019193 -9.9234648 1.7053806 77 0 0 0 60.551048
12.524781 -9.8330641 1.7409929 95 0 0 0 60.162113
13.266081 -9.6441422 1.7914946 69.5 0 0 0 59.575836
-17.693832 -9.46945 1.6654299 87 0 0 0 91.832832
-6.7925262 -9.1533184 1.5210106 258 0 0 0 84.796989
-3.6823297 -9.1785917 1.8172722 73.5 0 0 0 80.694427
13.71882 -9.2219372 1.8044531 46 0 0 0 58.987671
15.198782 -9.1648664 1.5017608 30 0 0 0 58.20752
-17.772327 -8.9583292 1.6519595 48 0 0 0 92.221275
-7.8140264 -8.6215782 1.8382592 105 0 0 0 86.368416
-7.3237705 -8.7041168 1.7984599 89 0 0 0 85.776398
-5.0941339 -8.9773006 1.6374838 101 0 0 0 82.851517
13.962276 -8.8954935 1.8066435 36 0 0 0 58.595047
14.193727 -8.5600576 1.8083068 112 0 0 0 58.20752
-9.0346689 -8.1930456 1.6226673 329 0 0 0 87.927139
-19.459839 -7.5218725 1.7304616 96 0 0 0 93.789963
-9.3698826 -7.6958237 1.6130191 174 0 0 0 88.701233
-7.6232209 -7.6253381 1.7054114 27 0 0 0 87.146713
-6.6042624 -7.6547532 1.8517671 90 0 0 0 85.976723
14.787438 -7.9544744 1.8304154 42 0 0 0 57.428299
-9.4324532 -7.3680377 1.5925369 47 0 0 0 89.0998
-7.8223333 -7.4505844 1.7083653 150 0 0 0 87.539917
-5.6577282 -7.0649276 1.6617751 344 0 0 0 85.379921
-9.0916796 -6.7501907 1.7883294 110 0 0 0 89.497131
-7.9422717 -6.8557663 1.9192474 142 0 0 0 88.309799
-6.3990974 -6.7218695 1.7021592 266 0 0 0 86.760147
-8.5564508 -6.3529563 1.9485863 21 0 0 0 89.497131
-7.8877096 -5.562335 1.7678834 30 0 0 0 89.883827
-6.6373987 -5.7317362 1.7170904 116.5 0 0 0 88.314186
-6.1272669 -5.8379974 1.9695539 54 0 0 0 87.539917
-4.5485792 -5.8241305 1.5442662 398 0 0 0 85.183777
-4.4599171 -5.7124944 1.692125 121 0 0 0 85.183777
-6.5553861 -5.3864765 1.9741572 23 0 0 0 88.701233
8.9266291 -5.242034 1.7843943 340.5 0 0 0 58.008499
8.4851284 -4.5715799 1.6635664 956.5 0 0 0 57.428299
16.901224 -4.7178445 1.9064494 117 0 0 0 53.914181
8.4639206 -4.2952461 1.6388613 687.5 0 0 0 57.031048
8.560895 -4.0828738 1.5197797 124 0 0 0 56.633591
17.190786 -4.3457184 1.9252701 101 0 0 0 53.515781
21.561268 -4.3328171 1.8412241 94 0 0 0 52.739059
21.915884 -3.8458664 1.8614491 80 0 0 0 52.351593
3.604605 4.466785 1.6404845 5513 0 0 0 35.53796
5.8538752 4.3786311 1.8069746 374.25 0 0 0 39.454155
6.1793585 4.2705345 1.763731 414.75 0 0 0 40.040119
6.8782196 4.3832083 1.7073181 311.5 0 0 0 40.62096
7.262815 4.3777943 1.7749753 469.66666 0 0 0 41.01638
7.6686888 4.2401381 1.7270774 332.25 0 0 0 41.603104
8.1515751 4.1200361 1.7957616 309.5 0 0 0 42.192768
10.737597 4.4553189 1.5543021 443 0 0 0 43.367439
11.385708 4.3970933 1.629954 438 0 0 0 43.751606
3.3629875 4.6881614 1.6688055 5398.1431 0 0 0 34.6465
3.5308683 4.6030674 1.5855434 5178.5 0 0 0 35.146648
4.750401 4.8853784 1.7700876 678.66669 0 0 0 36.978878
5.2395291 4.56567 1.8054125 390 0 0 0 38.284286
5.598207 4.6837606 1.7135489 441.20001 0 0 0 38.596184
6.1813946 4.8612046 1.6496121 343 0 0 0 39.0611
6.7695909 4.5541325 1.9108852 463 0 0 0 40.232819
7.2073641 4.5902033 1.7891011 370 0 0 0 40.62096
9.5127802 4.5121703 1.9346544 218 0 0 0 42.579273
10.459562 4.9584179 1.8349684 206 0 0 0 42.579273
11.103219 4.6063042 1.9043125 351 0 0 0 43.367439
11.781643 4.5493412 1.9987644 184 0 0 0 43.751606
14.22973 4.6973314 1.8061423 86.5 0 0 0 44.532558
4.7600446 5.3144803 1.6996404 553.57141 0 0 0 36.329475
5.2157607 5.1862855 1.6662344 370.66666 0 0 0 37.2397
5.6009045 5.12393 1.779446 534 0 0 0 37.896793
10.202621 5.149013 1.5281488 136 0 0 0 42.192768
10.807202 5.1222219 1.597407 366 0 0 0 42.579273
11.362336 5.0449662 1.9677603 268 0 0 0 42.971722
11.509795 5.1100202 1.67998 285 0 0 0 42.971722
14.063295 5.0302277 1.8008158 100 0 0 0 44.144341
17.333038 5.2466211 1.9525074 43 0 0 0 44.9184
18.737707 5.6702819 1.6307005 37 0 0 0 44.9184
4.2615647 6.4689274 1.8142929 237 0 0 0 33.974007
27.39216 6.1148176 1.6222645 39 0 0 0 46.087566
4.2839942 6.6776686 1.7597673 732.5 0 0 0 33.783356
6.1370792 7.1754422 1.5031198 370 0 0 0 35.933273
-24.127789 7.9711475 1.5221443 30 0 0 0 4.6854901
-2.2483349 7.8294501 1.6293763 915.66669 0 0 0 20.313589
-1.7627436 7.7951484 1.7324448 892.33331 0 0 0 21.216974
-1.3362559 7.8286629 1.6558303 862.5 0 0 0 22.064236
6.2367444 7.6636219 1.5709748 174 0 0 0 35.53796
8.6127319 7.8454652 1.5558007 111 0 0 0 37.896793
-1.6720678 8.0118885 1.9048374 719 0 0 0 21.475769
-1.2788521 8.1057129 1.8435138 724.66669 0 0 0 22.258276
-0.90694666 8.4463425 1.5604793 96 0 0 0 23.031759
4.8741403 8.2284708 1.9943101 311 0 0 0 33.198269
5.0136356 8.0078106 1.9709907 90 0 0 0 33.592701
5.5851288 8.2224703 1.5800116 185.5 0 0 0 34.168442
4.6297116 8.7719822 1.5753731 284 0 0 0 32.420799
5.2979779 8.611002 1.7734613 201 0 0 0 33.461224
-8.2646456 9.4894676 1.6828772 67 0 0 0 13.27619
-7.180975 9.5765867 1.8950043 31 0 0 0 14.45256
-6.2091532 9.6809158 1.6792144 65.5 0 0 0 15.6309
-3.7475884 9.873889 1.9329848 54 0 0 0 18.944275
-3.3519263 9.9158764 1.9157 32 0 0 0 19.52519
4.3167882 9.8734655 1.7072117 64 0 0 0 31.249359
-0.91562235 11.458925 1.8156639 165 0 0 0 23.427059
5.2497988 11.220035 1.6497533 180 0 0 0 31.641729
-0.63808984 11.562124 1.5424122 46 0 0 0 23.82123
-56.625805 -51.313831 2.4785109 17 0 0 0 87.927139
17.005304 -36.144405 2.3563359 25 0 0 0 67.594955
17.63883 -35.223305 2.324542 14 0 0 0 67.205482
19.26281 -34.172249 2.315372 55 0 0 0 66.418663
0.65898955 -28.612083 2.4046516 7 0 0 0 74.246841
2.7616651 -28.516655 2.4086986 8 0 0 0 73.07048
19.986746 -28.517717 2.0600247 23 0 0 0 64.858299
1.33681 -28.110172 2.3656509 24 0 0 0 73.84787
18.869215 -28.380114 2.0167348 66 0 0 0 65.25267
20.909109 -28.328981 2.0824528 26 0 0 0 64.47097
-2.7310996 -27.359173 2.3046768 20 0 0 0 76.204254
-2.0359998 -27.094389 2.2792742 7 0 0 0 75.810493
-1.3819822 -27.342676 2.2977164 15 0 0 0 75.424309
1.8859692 -26.158049 2.2074349 17 0 0 0 73.46537
-1.7173605 -22.816439 2.4805963 19 0 0 0 75.810493
-2.0632906 -20.627771 2.249655 24 0 0 0 76.204254
-4.7072067 -18.693642 2.0884652 19 0 0 0 78.544205
-2.319706 -18.571297 2.0333714 37 0 0 0 76.594765
-5.5465484 -18.210094 2.0608897 99 0 0 0 79.328575
-2.973568 -17.002459 2.3004248 82 0 0 0 77.378418
-4.9466982 -16.24604 2.2596085 36 0 0 0 79.328575
-4.3000407 -16.239708 2.2370372 35.5 0 0 0 78.73938
-6.0781918 -15.716775 2.2399683 34 0 0 0 80.500626
-6.420908 -15.466309 2.2254536 21 0 0 0 80.888222
-4.8830996 -14.729885 2.0669296 51 0 0 0 79.721481
-38.856556 -13.922868 2.3616664 19 0 0 0 94.180733
-8.1398287 -13.566703 2.1003642 47 0 0 0 83.232872
-4.7400017 -13.736298 2.2967362 47 0 0 0 79.91568
12.337382 -13.68836 2.012547 50 0 0 0 62.89814
-17.75349 -12.511904 2.3275309 41 0 0 0 89.883827
-5.3988109 -12.150683 2.1020098 19 0 0 0 81.281532
-2.7184451 -12.019074 2.2601781 601 0 0 0 78.14621
11.021576 -12.227847 2.2070973 106 0 0 0 62.89814
-2.3765097 -11.846195 2.2173634 68 0 0 0 77.761208
11.293911 -11.927779 2.2019663 326 0 0 0 62.50774
11.688416 -11.752254 2.2211192 154 0 0 0 62.109673
12.172167 -11.651396 2.2568455 76 0 0 0 61.720539
12.673326 -11.547734 2.295296 40 0 0 0 61.337994
-22.302818 -10.563897 2.0399547 75 0 0 0 92.609718
-15.709688 -10.505445 2.0295792 68 0 0 0 90.282639
-6.8371887 -10.785941 2.0170572 135 0 0 0 83.620392
-6.174685 -10.883877 2.2874975 37 0 0 0 82.851517
-5.2824388 -10.687604 2.3778207 161 0 0 0 81.933594
-24.585106 -10.201444 2.1977768 28 0 0 0 93.40239
-16.979799 -10.187819 2.1246629 89 0 0 0 91.062653
-16.069462 -10.185307 2.0428371 118 0 0 0 90.670921
-9.8483124 -10.345919 2.2486351 65 0 0 0 86.760147
-7.5537996 -10.179665 2.0010948 73 0 0 0 84.796989
-7.322999 -10.390671 2.0070586 49 0 0 0 84.407875
11.780935 -10.219507 2.0908704 113 0 0 0 60.937279
-27.523893 -9.8691216 2.4113464 45 0 0 0 94.180733
-18.056507 -9.6636848 2.1961677 50 0 0 0 91.832832
-16.868309 -9.5668945 2.0814188 142 0 0 0 91.453712
-6.6862955 -9.9973755 2.4941354 49 0 0 0 84.012009
-6.306066 -9.94699 2.4434435 139 0 0 0 83.620392
11.878999 -9.8040085 2.2565026 240.5 0 0 0 60.551048
12.345196 -9.6886253 2.1028337 54 0 0 0 60.162113
27.238859 -9.8092003 2.4184179 24 0 0 0 55.076801
-19.306339 -9.1453056 2.2894442 62 0 0 0 92.609718
-5.7230058 -9.0297537 2.4822752 112 0 0 0 83.620392
13.152895 -9.3154755 2.1577969 12 0 0 0 59.38258
-19.67321 -8.7353649 2.3067095 72 0 0 0 92.99897
-17.588463 -8.8659019 2.1135452 77 0 0 0 92.221275
-6.120151 -8.6840897 2.3347888 96.5 0 0 0 84.407875
-5.248857 -8.745677 2.2476897 74 0 0 0 83.232872
13.33963 -8.7293587 2.1342232 10.5 0 0 0 58.791359
-20.892836 -8.0758543 2.3993092 74 0 0 0 93.789963
-20.455853 -8.4889317 2.3725021 64 0 0 0 93.40239
-8.0852461 -8.0875044 2.0894942 48 0 0 0 87.146713
-7.7831106 -8.1759577 2.3406005 271 0 0 0 86.760147
-7.4044466 -8.1694593 2.1504283 140 0 0 0 86.368416
-5.8000431 -8.2317162 2.217515 161 0 0 0 84.404495
-4.6245642 -8.1514463 2.1807199 143 0 0 0 82.851517
-4.0279913 -8.4966154 2.1890588 143 0 0 0 81.677795
-3.7936003 -8.2611656 2.340625 81.5 0 0 0 81.47966
-3.3190045 -8.2744789 2.4060884 147 0 0 0 80.694427
13.611369 -8.2062302 2.1270852 87 0 0 0 58.20752
-8.2277832 -7.8367548 2.0761211 369 0 0 0 87.539917
-7.2336473 -7.9836655 2.4989564 131 0 0 0 86.368416
-6.2990818 -7.6726174 2.0630465 43 0 0 0 85.576065
-4.0232077 -7.9755797 2.2997935 73 0 0 0 82.061501
-3.7607343 -7.9312434 2.4785099 234 0 0 0 81.677795
13.96771 -7.5112557 2.1217113 63 0 0 0 57.428299
-7.2526855 -7.2545896 2.129812 226 0 0 0 87.146713
-6.080543 -7.4088473 2.2272432 135 0 0 0 85.576065
-5.2875113 -7.1243749 2.2827477 350 0 0 0 84.795822
-4.5406022 -7.1619921 2.3937776 171 0 0 0 83.620392
-7.9952059 -6.9014564 2.1913905 96 0 0 0 88.309799
-6.9178033 -6.7575188 2.3626571 270 0 0 0 87.343315
-5.434783 -6.7897801 2.4531908 65.5 0 0 0 85.379921
-4.6704001 -6.9831009 2.3714509 153 0 0 0 84.012009
-4.4461365 -6.6475201 2.0606747 150 0 0 0 84.012009
14.418658 -6.8626595 2.1352184 46 0 0 0 56.633591
14.634747 -6.5291905 2.1422384 35 0 0 0 56.244862
-7.9767952 -6.2312827 2.1013198 147 0 0 0 89.0998
-5.1477361 -6.116662 2.0590785 143.5 0 0 0 85.776398
-4.655231 -6.273222 2.1089034 124.5 0 0 0 84.796989
-4.2828074 -6.0757222 2.4677143 141 0 0 0 84.407875
13.918552 -6.2102647 2.4173577 10 0 0 0 56.244862
14.95393 -6.2352614 2.1649983 44 0 0 0 55.860607
14.250006 -5.7377338 2.4357989 60.5 0 0 0 55.664986
15.135201 -5.8783426 2.1691582 16 0 0 0 55.469368
-6.863102 -5.3634529 2.0257523 37 0 0 0 89.0998
8.9592838 -5.2595348 2.3035417 348 0 0 0 58.008495
14.586201 -5.2565861 2.4573181 45 0 0 0 55.076801
9.1543846 -4.8307395 2.3374026 44.666668 0 0 0 57.295883
39.168884 -3.9303792 2.2766418 18 0 0 0 51.171398
40.697643 -3.0756576 2.3573105 16 0 0 0 50.787327
7.8158503 3.9533703 2.0487413 471 0 0 0 42.192768
4.7487006 4.3537898 2.1575565 149 0 0 0 37.896793
5.1626382 4.071178 2.0377896 241 0 0 0 39.0611
5.7907162 4.369144 2.2738984 322.66666 0 0 0 39.388626
6.0415058 4.29002 2.1994667 335 0 0 0 39.84742
6.7458787 4.3771935 2.2154181 255.33333 0 0 0 40.491577
7.3279772 4.2717991 2.2358813 368.39999 0 0 0 41.253899
7.706501 4.1404572 2.1527622 456 0 0 0 41.793961
9.3949156 4.4587469 2.4239614 320 0 0 0 42.579273
9.8102198 4.3594794 2.2371306 383 0 0 0 42.971722
10.222549 4.2429585 2.1681385 413.5 0 0 0 43.367439
10.783322 4.165894 2.4059365 588 0 0 0 43.751606
11.565948 4.4665542 2.2709877 165 0 0 0 43.751606
12.169978 4.3571472 2.2054634 113 0 0 0 44.144341
12.67897 4.1889439 2.4429255 88 0 0 0 44.532558
14.62768 4.4333887 2.4107213 48 0 0 0 44.9184
3.447279 4.7347064 2.2525871 434 0 0 0 34.763409
3.5358455 4.6123295 2.2359428 239 0 0 0 35.146648
4.8445091 4.7125235 2.3261764 347 0 0 0 37.422905
5.3316693 4.7450728 2.1832204 304.57144 0 0 0 38.117245
5.5675297 4.6125784 2.1461415 326 0 0 0 38.675632
6.6926212 4.5045514 2.4899273 66 0 0 0 40.232819
9.820281 4.6571918 2.2641814 201 0 0 0 42.579273
10.160444 4.5141182 2.0406637 290 0 0 0 42.971722
14.145971 4.6713815 2.3504486 49 0 0 0 44.532558
4.4165993 5.0635157 2.4128878 249.5 0 0 0 36.13266
4.7113171 5.2197199 2.2328832 534.16669 0 0 0 36.395508
5.0892372 5.1451087 2.2363892 803.66669 0 0 0 37.107407
5.6560984 5.4360256 2.0317085 274 0 0 0 37.498638
