# .PCD v0.7 - Point Cloud Data file format
VERSION 0.7
FIELDS x y z intensity normal_x normal_y normal_z curvature
SIZE 4 4 4 4 4 4 4 4
TYPE F F F F F F F F
COUNT 1 1 1 1 1 1 1 1
WIDTH 936
HEIGHT 1
VIEWPOINT 0 0 0 1 0 0 0
POINTS 936
DATA ascii
4.6626472 -5.4601145 0.61813593 233 0 0 0 63.222969
-5.1943178 -4.6479478 0.80550611 844 0 0 0 87.936905
-4.8798437 -4.7470055 0.83688521 856 0 0 0 87.279739
-3.593919 -4.5813508 0.50839657 401 0 0 0 85.119492
-3.2819481 -4.7574515 0.85807061 293.25 0 0 0 84.135605
-2.6748943 -4.820684 0.88599336 284 0 0 0 82.578949
-2.2552001 -4.7152119 0.75907451 163 0 0 0 81.601616
-1.7249185 -4.8620276 0.88841683 215.71428 0 0 0 79.920143
-1.1719891 -4.908299 0.93978566 298.66666 0 0 0 78.211029
-0.26624727 -4.8543878 0.90388995 157.33333 0 0 0 75.349281
0.22762613 -4.819396 0.80553234 145.39999 0 0 0 73.702347
0.7802403 -4.700366 0.74434483 142.11111 0 0 0 71.834389
1.1471211 -4.7325759 0.82953531 200.33333 0 0 0 70.65802
1.6330975 -4.7936344 0.82020515 132 0 0 0 69.224876
2.5378087 -4.5537567 0.84286809 326 0 0 0 66.352371
5.4328594 -4.6140604 0.70151019 237.5 0 0 0 60.680157
6.1043987 -4.5652266 0.8401674 290 0 0 0 59.70414
8.5575724 -4.6050954 0.58165741 181 0 0 0 57.365978
-9.2851763 -4.2457542 0.61272454 320 0 0 0 92.732574
-8.2576103 -4.2803316 0.56132042 326.5 0 0 0 91.955872
-7.5410614 -4.2666178 0.74040073 70 0 0 0 91.372704
-3.7033978 -4.1057329 0.70050538 463.20001 0 0 0 86.214554
-3.3998909 -4.262938 0.69830865 519 0 0 0 85.247948
-2.638164 -4.3069692 0.72312742 343 0 0 0 83.259918
-2.2620082 -4.1886115 0.69003344 262.60001 0 0 0 82.382492
-1.8206155 -4.1797409 0.78667194 199.44444 0 0 0 81.034935
-1.3335897 -4.247324 0.82961863 109.83334 0 0 0 79.316826
-0.87522763 -4.2610254 0.92069066 109 0 0 0 77.694969
1.4191848 -4.3282819 0.65475917 193.75 0 0 0 69.385834
1.753463 -4.1651282 0.71891117 122.92857 0 0 0 68.08651
2.1641135 -4.163013 0.82646751 122.42857 0 0 0 66.802979
2.7797959 -4.1611204 0.77635086 243 0 0 0 65.069466
3.2000837 -4.1045437 0.93946141 292.5 0 0 0 63.908089
3.7470636 -4.0801558 0.82436574 491.5 0 0 0 62.634014
4.2945318 -4.1308632 0.84532756 568.75 0 0 0 61.657722
4.6391973 -4.2493706 0.669043 519.20001 0 0 0 61.26408
5.2448292 -4.237608 0.82838911 454 0 0 0 60.294178
5.8141608 -4.2422795 0.6624577 445.75 0 0 0 59.509048
6.0916328 -4.1032844 0.9924612 501 0 0 0 58.921501
8.6621799 -4.3896084 0.58133012 418 0 0 0 56.971008
25.123121 -4.3776751 0.84484529 17 0 0 0 52.289009
-26.059692 -3.863138 0.87918103 12 0 0 0 97.232224
-3.851759 -3.9310884 0.61550999 563 0 0 0 86.886528
-2.1341822 -3.9526708 0.61805147 269 0 0 0 82.381195
1.8106464 -3.9139137 0.70307207 92 0 0 0 67.527908
2.2772858 -3.9552391 0.58475125 107.4 0 0 0 66.11953
2.7297692 -3.9395888 0.54118943 227 0 0 0 64.790276
3.1198905 -3.883801 0.64973629 321.85715 0 0 0 63.669888
3.660382 -3.9294429 0.68254858 458.60001 0 0 0 62.515331
4.1185808 -3.9659166 0.78027987 664 0 0 0 61.659271
4.5309882 -3.949605 0.81857973 401 0 0 0 60.872601
5.6817269 -3.9660599 0.7682299 755 0 0 0 59.180439
6.0729251 -3.8786795 0.62073797 441 0 0 0 58.537819
-6.1356268 4.361846 0.97935045 653 0 0 0 9.5593357
-5.5125489 4.2226124 0.73760051 321 0 0 0 10.13734
-4.7080173 4.3107429 0.7679469 787.22223 0 0 0 11.571306
-4.4338961 4.3307252 0.66274369 1010 0 0 0 12.09675
-2.608983 4.2646346 0.70827794 232 0 0 0 16.125237
-2.0974951 4.4990649 0.90442199 177 0 0 0 17.94965
0.682459 4.4831243 0.73126972 40 0 0 0 27.312605
1.613264 4.4220839 0.76188171 85 0 0 0 30.43273
11.936535 4.2941947 0.75186175 67 0 0 0 44.104618
-7.5530605 4.7231112 0.5058533 222 0 0 0 8.5816898
-6.1601758 4.7876177 0.82643223 377 0 0 0 10.241147
-5.7849302 4.663517 0.69905007 399 0 0 0 10.52894
-4.579946 4.5860748 0.84901679 583.5 0 0 0 12.289725
-4.2347579 4.7044864 0.73158532 854.35712 0 0 0 13.121387
-3.268764 4.7360921 0.89981991 272 0 0 0 15.21938
-2.6316347 4.7320137 0.85067856 200.75 0 0 0 16.779076
-2.1932015 4.7127523 0.71111423 364.28571 0 0 0 17.948116
-1.7663901 4.7314682 0.74486828 378.5 0 0 0 19.204758
-1.3276843 4.8973122 0.67981172 442 0 0 0 20.67709
-0.098009624 4.8920927 0.90256298 235 0 0 0 24.58016
0.93033504 4.6702299 0.71930015 95.599998 0 0 0 28.020061
1.2868363 4.5491853 0.70503592 101.5 0 0 0 29.256189
1.7823069 4.6919155 0.74626768 258.5 0 0 0 30.625074
2.1857977 4.969862 0.67272234 215.5 0 0 0 31.408125
2.7050281 4.930007 0.90641195 99 0 0 0 32.7715
3.2591298 4.8523874 0.59471744 279.39999 0 0 0 34.174423
3.733659 4.6535406 0.63136488 295.75 0 0 0 35.505371
7.4395499 4.7602963 0.75439668 478.33334 0 0 0 40.584167
7.5819187 4.591373 0.75808531 68 0 0 0 40.976967
12.07122 4.6816406 0.76660353 149 0 0 0 43.708649
13.956889 4.6307874 0.86558127 66 0 0 0 44.490841
-8.0879297 5.3394666 0.78642362 398 0 0 0 8.9765396
-7.7659554 5.4005933 0.76857734 651 0 0 0 9.3688002
-7.4258575 5.1626387 0.51378173 267 0 0 0 9.3688002
-5.6379409 5.017952 0.62021917 510 0 0 0 11.30809
-5.4038701 5.0479398 0.78559268 422 0 0 0 11.70115
-4.041502 5.0462437 0.77070099 377 0 0 0 14.04506
-3.682061 5.3577352 0.69715703 342 0 0 0 15.21938
-3.2316291 5.2231226 0.8076579 326.39999 0 0 0 15.996454
-2.8130333 5.3215027 0.65136939 234.8 0 0 0 17.086918
-1.6980035 5.2634664 0.73731911 200 0 0 0 19.903179
-0.31027177 5.2588673 0.62391853 228.33333 0 0 0 23.932358
0.2190437 5.2386279 0.77801317 258.77777 0 0 0 25.536865
0.66518372 5.1994681 0.73780054 284.55554 0 0 0 26.881098
1.2908903 5.3395019 0.6994493 196 0 0 0 28.613192
1.8098271 5.2624879 0.7366699 305.28571 0 0 0 30.096975
2.2871642 5.188777 0.73417783 246 0 0 0 31.405643
2.7340279 5.148634 0.71224159 263 0 0 0 32.554302
3.1279244 5.2179003 0.64119506 297 0 0 0 33.35638
3.6468852 5.3017573 0.79415894 304 0 0 0 34.332344
7.5564103 5.2365713 0.55440462 111.5 0 0 0 40.004341
11.361197 5.2352176 0.74189222 102 0 0 0 42.736004
12.150622 5.0603142 0.7786839 157 0 0 0 43.316841
18.15654 5.038372 0.63585269 78 0 0 0 45.264759
-7.6901455 5.6327901 0.54030198 914 0 0 0 9.7498703
-6.747251 5.7362423 0.50500703 342 0 0 0 10.92054
-4.087203 5.9625702 0.94793224 179 0 0 0 15.21938
-3.7278607 5.721549 0.73068219 315.5 0 0 0 15.607075
-3.4279244 5.5497355 0.54390985 478 0 0 0 15.99477
-2.6339028 5.7142863 0.67906547 331 0 0 0 17.94965
-0.6639666 5.7752824 0.77854425 214 0 0 0 23.021095
0.31524786 5.5815234 0.7527051 169 0 0 0 25.75034
1.283777 5.8046908 0.6542573 368.5 0 0 0 28.292786
1.5164503 5.8176632 0.81175458 200 0 0 0 28.86698
2.3559322 5.5178661 0.6653924 232 0 0 0 31.211861
2.7079804 5.5569658 0.68597102 249.5 0 0 0 31.990995
9.1849022 5.5490327 0.64125562 93 0 0 0 40.976967
11.229315 5.6871572 0.74611396 83 0 0 0 42.142578
-8.5510979 6.2702279 0.85885042 458 0 0 0 9.7498703
-7.7008624 6.24159 0.56141865 440 0 0 0 10.53869
-2.4520097 6.0930619 0.86861211 242 0 0 0 18.72971
-1.1731194 6.1945076 0.68535435 256 0 0 0 21.841909
-0.85481513 6.1515131 0.75381184 218.5 0 0 0 22.630264
-0.09592285 6.0884995 0.51888502 155 0 0 0 24.58016
0.52050787 6.2585621 0.8421576 192 0 0 0 26.137569
4.1588583 6.0300493 0.98876005 291 0 0 0 34.330032
11.160925 6.3623548 0.76049793 107 0 0 0 41.37096
-5.2524662 6.946939 0.7147364 119 0 0 0 14.43813
-3.2039108 6.5618372 0.78302181 149 0 0 0 17.5522
-0.26516256 6.8917394 0.74982619 166 0 0 0 24.193779
1.2499247 6.7580276 0.92107314 100 0 0 0 27.70323
12.527778 6.7325668 0.83805233 69 0 0 0 41.753181
27.764324 6.9613209 0.94687074 76 0 0 0 45.660831
-9.5488844 7.3804307 0.67677951 294 0 0 0 10.13734
-5.7036467 7.1819525 0.63505244 129 0 0 0 14.04506
-5.2819729 7.1072698 0.79694414 197.33333 0 0 0 14.566844
-0.27011055 7.26299 0.87542188 197 0 0 0 24.191391
0.083872549 7.3490233 0.97813261 115 0 0 0 24.974119
9.1965685 8.4041042 0.73658848 300 0 0 0 37.848473
9.697855 8.2236748 0.75153255 329 0 0 0 38.441238
10.863667 8.1109362 0.79950428 147 0 0 0 39.420834
-6.3278313 8.8454199 0.88603288 166 0 0 0 14.82427
9.0110359 8.6519871 0.73817813 182 0 0 0 37.461182
10.968834 8.6170578 0.82123798 72 0 0 0 39.03006
-3.1749477 9.3222914 0.56785935 263 0 0 0 19.509581
129.20247 9.5005322 0.91868287 26 0 0 0 48.384552
-0.59363937 10.166666 0.84451449 139 0 0 0 23.80262
0.30654103 10.782043 0.89449453 169.5 0 0 0 25.170694
13.929886 10.924847 0.59777337 87 0 0 0 39.03006
-2.6523225 11.398211 0.67107213 128 0 0 0 21.076941
-3.2845535 11.532973 0.68567157 252 0 0 0 20.29393
-2.1566579 11.884789 0.99246961 137 0 0 0 21.841909
0.48038623 11.604784 0.67207325 143 0 0 0 25.36727
-2.0507953 13.214147 0.76402742 233 0 0 0 22.239429
-19.486166 -11.029742 1.3031062 22 0 0 0 91.372704
30.537697 -10.117862 1.0544374 38 0 0 0 54.635128
33.929348 -10.321887 1.1591244 15 0 0 0 54.242767
15.142325 -9.1098652 1.4686534 122 0 0 0 58.135601
31.79476 -8.8259335 1.0813106 25 0 0 0 53.846741
34.077824 -8.5626879 1.1494669 28 0 0 0 53.45919
14.226631 -8.0913153 1.3630267 106 0 0 0 57.747231
3.7683368 -7.1276727 1.0843157 119 0 0 0 66.744698
4.0467105 -7.2175026 1.1119254 144 0 0 0 66.352371
13.903671 -7.2439723 1.3074427 107.5 0 0 0 57.168495
14.054724 -6.6746273 1.2979119 114 0 0 0 56.576458
22.893368 -6.969358 1.3807151 53 0 0 0 54.242767
23.452435 -6.5136566 1.4039932 20 0 0 0 53.846741
-8.2553101 -6.1146975 1.246623 741 0 0 0 89.425247
-7.7313194 -6.1767144 1.2018465 849.25 0 0 0 88.832047
-0.77724838 -6.0760198 1.4337145 280 0 0 0 76.525772
-0.48230448 -6.1298466 1.138159 177 0 0 0 75.73941
0.57091898 -6.1382422 1.1415036 306 0 0 0 73.002541
14.299474 -6.3642645 1.3055413 81 0 0 0 56.19249
14.716065 -6.119894 1.3288521 127 0 0 0 55.801979
-4.5650072 -5.5430503 1.4994437 121 0 0 0 85.504875
-4.4159036 -5.6370821 1.2325318 539 0 0 0 85.119492
-0.74345666 -5.795258 1.2695636 168.66667 0 0 0 76.525772
-0.17139421 -5.7262979 1.2027079 216.33333 0 0 0 74.953873
0.39288417 -5.7701073 1.2573775 246 0 0 0 73.3955
0.83836615 -5.6850562 1.2072954 159 0 0 0 72.145164
15.431322 -5.9753551 1.37852 120 0 0 0 55.416729
23.131163 -5.8159385 1.3767903 27 0 0 0 53.45919
-7.5557947 -5.0431824 1.3296489 546.5 0 0 0 90.201637
-7.4011106 -5.2062345 1.3246802 538 0 0 0 89.812393
-5.5579462 -5.1530876 1.2110101 657.5 0 0 0 87.666473
-5.0734119 -5.1872845 1.3369707 668 0 0 0 86.886528
-4.5745478 -5.2235718 1.2385287 637.5 0 0 0 85.99836
-4.415194 -5.2299585 1.0940094 649 0 0 0 85.699997
-1.8435388 -5.0843086 1.1368401 137 0 0 0 80.03054
-1.345513 -5.2656369 1.0092548 353 0 0 0 78.47068
-0.81660181 -5.2824364 1.122454 221.75 0 0 0 76.910614
-0.17591476 -5.1741214 1.2912296 212 0 0 0 75.012566
0.32118252 -5.2604666 1.2586607 164.14285 0 0 0 73.502396
0.67383415 -5.2149444 1.2786471 192.5 0 0 0 72.416252
1.2356397 -5.1426725 1.1611774 229.375 0 0 0 70.708099
1.5575901 -5.2583337 1.0862498 303 0 0 0 69.86869
6.2059698 -5.1323667 1.4840208 309 0 0 0 60.487713
-5.1694508 -4.7897482 1.1256132 493 0 0 0 87.666473
-4.8681183 -4.9735818 1.1119275 921.5 0 0 0 86.886528
-3.1138952 -4.6320696 1.0353324 312 0 0 0 83.941727
-2.8987491 -4.5468926 1.0012797 457 0 0 0 83.550163
-2.1094904 -4.6058273 1.2328057 230 0 0 0 81.340843
-1.6924833 -4.6648264 1.286325 243.5 0 0 0 80.03054
-1.1326399 -4.9234271 1.0642496 117 0 0 0 78.081329
-0.62854522 -4.6489053 1.3036453 214.25 0 0 0 76.620483
-0.30806828 -4.6918769 1.3071489 179.57143 0 0 0 75.517273
0.16084099 -4.8737297 1.3135222 177.60001 0 0 0 73.934036
0.8656764 -4.7302747 1.2319682 192.5 0 0 0 71.574799
1.2679527 -4.6711726 1.2365552 198.60001 0 0 0 70.226479
1.7799323 -4.7148438 1.3263512 182.55556 0 0 0 68.700882
2.0762262 -4.6956253 1.273402 191.5 0 0 0 67.823639
2.6300611 -4.7162085 1.404336 251.5 0 0 0 66.355316
3.0707867 -4.5364165 1.2897928 440 0 0 0 64.988541
3.9761002 -4.6616497 1.2885002 349 0 0 0 63.222969
4.3848662 -4.538106 1.4814488 437 0 0 0 62.244148
6.1355171 -4.586565 1.0332284 400 0 0 0 59.70414
-8.143713 -4.3501215 1.2370028 287 0 0 0 91.75975
-2.6641665 -4.4124308 1.1471449 175.5 0 0 0 83.166382
-2.2239888 -4.2440891 1.2062861 250.5 0 0 0 82.18708
-1.7120891 -4.2318487 1.2631689 210.53847 0 0 0 80.604973
-1.2048757 -4.2045369 1.2027502 142.1579 0 0 0 78.922745
-0.81858081 -4.2809224 1.2229903 156.53334 0 0 0 77.483696
-0.2903564 -4.4272461 1.2445028 211 0 0 0 75.504715
1.3503262 -4.4414921 1.1720186 151.33333 0 0 0 69.739021
1.7473319 -4.4098215 1.2251408 160.11111 0 0 0 68.442009
2.2786677 -4.3061175 1.137525 252.5 0 0 0 66.698349
2.7147009 -4.355032 1.1482489 376.25 0 0 0 65.57254
3.2458141 -4.3226876 1.1858358 424.16666 0 0 0 64.200226
3.7098393 -4.2451816 1.0496364 504 0 0 0 63.023884
4.2416501 -4.2864599 1.1965002 568.75 0 0 0 62.047844
4.7974319 -4.1810899 1.1431651 608.25 0 0 0 60.87394
5.1728325 -4.2315378 1.2802917 640 0 0 0 60.390396
5.6960545 -4.1506796 1.2172467 627.25 0 0 0 59.507027
6.0458865 -4.0726519 1.166476 219 0 0 0 58.921501
25.110867 -4.375464 1.4696224 80 0 0 0 52.289009
-1.6175375 -3.9872518 1.0681436 245 0 0 0 80.618935
-43.883785 -2.1529176 1.4405285 6 0 0 0 98.785278
-4.7326007 3.9918892 1.1113216 295 0 0 0 10.92054
-5.8710027 4.3867688 1.3084846 346 0 0 0 9.9436054
-5.184804 4.1004448 1.131364 642.66669 0 0 0 10.404906
-4.7356629 4.2802305 1.2082069 633.20001 0 0 0 11.468534
-4.4657764 4.1509466 1.2415705 674.5 0 0 0 11.70115
-3.6787119 4.2514191 1.2885479 529 0 0 0 13.456039
-3.3366895 4.1391268 1.217077 309 0 0 0 14.04506
-2.5832067 4.2613316 1.3222635 375 0 0 0 16.19426
-2.2961464 4.489109 1.2833343 199 0 0 0 17.362301
-1.8970281 4.4293523 1.2683419 299.33334 0 0 0 18.46833
3.4161844 4.4903488 1.1917061 296 0 0 0 35.11628
4.4288707 4.3000622 1.4545252 271 0 0 0 37.461182
11.94255 4.2988143 1.0696261 64 0 0 0 44.104618
-6.6123695 4.6655369 1.3803605 554 0 0 0 9.4958239
-6.0691028 4.6558299 1.1817759 549 0 0 0 10.13734
-5.7417755 4.7484741 1.2324624 574.5 0 0 0 10.729614
-5.3504181 4.6404033 1.4408762 533 0 0 0 11.114315
-4.7674527 4.546874 1.4203675 595 0 0 0 11.898951
-4.2682586 4.6410747 1.3027279 549 0 0 0 12.956619
-3.8709915 4.766397 1.2187167 686.25 0 0 0 13.948358
-3.1567516 4.81569 1.4035606 349.20001 0 0 0 15.607477
-2.773741 4.7588267 1.308185 308.83334 0 0 0 16.449018
-2.2692008 4.7500353 1.3386867 209.60001 0 0 0 17.792307
-1.8082794 4.6344562 1.2087564 400.875 0 0 0 18.97419
-1.4064263 4.8216729 1.2800136 342.5 0 0 0 20.389721
-0.64928722 4.9518213 1.1006095 140.5 0 0 0 22.824499
-0.2834954 4.9766102 1.3452992 172 0 0 0 23.997225
0.21892112 4.7962546 1.2377106 284.33334 0 0 0 25.621664
0.67321718 4.8121634 1.137731 117.5 0 0 0 27.121708
1.3712575 4.6306581 1.1928234 202 0 0 0 29.454643
1.9053177 4.824172 1.1566992 515 0 0 0 30.817419
2.0192077 4.7658424 1.4099925 490 0 0 0 31.211861
3.3490295 4.7178721 1.266849 102.66666 0 0 0 34.590679
4.2735672 4.6955223 1.3374722 590 0 0 0 36.482349
4.7383585 4.9429255 1.3558669 199 0 0 0 36.876575
7.4213648 4.7515149 1.1869295 588 0 0 0 40.584167
-7.7270613 5.0959215 1.1987189 77 0 0 0 8.9765396
-4.8712325 5.2597542 1.1122907 354 0 0 0 12.86702
-4.217268 5.3605256 1.1726499 560 0 0 0 14.176084
-3.5455351 5.1505909 1.1284603 519 0 0 0 15.21938
-3.1812074 5.1344581 1.1651158 313.5 0 0 0 15.99477
-2.6796043 5.2201505 1.2083508 256.33334 0 0 0 17.299
-2.1199203 5.0417852 1.1946821 437 0 0 0 18.533676
-1.9888566 5.2693934 1.2985207 434 0 0 0 19.123791
-0.27644944 5.2847314 1.2740879 133.66667 0 0 0 24.0618
0.15504532 5.1451812 1.1756201 248 0 0 0 25.365253
0.84681535 5.4298038 1.2617141 333 0 0 0 27.312004
1.6303124 5.2172971 1.0132177 536 0 0 0 29.653099
2.3116894 5.3030076 1.168539 314.33334 0 0 0 31.342703
2.9941993 5.4474149 1.4583161 201 0 0 0 32.772572
3.3227134 5.1059928 1.1313607 207 0 0 0 33.943687
3.8266821 5.4158382 1.2288439 33 0 0 0 34.525517
4.4822044 5.0409956 1.2511238 87 0 0 0 36.288658
4.6566539 5.2332029 1.1233469 112 0 0 0 36.288658
12.307574 5.1278939 1.1215986 54 0 0 0 43.316841
-4.2072792 5.826642 1.3793659 335 0 0 0 14.82427
-3.9285951 5.7243028 1.4193937 676 0 0 0 15.21938
-3.0014694 5.7587986 1.0157355 253 0 0 0 17.1724
-2.5883012 5.6072803 1.2698234 260 0 0 0 17.94965
-1.7853285 5.5508127 1.0617397 333 0 0 0 19.903179
-0.099068686 5.9067707 1.3720961 166 0 0 0 24.58016
1.0016276 5.5141358 1.1724461 318 0 0 0 27.70323
1.7157974 5.7188778 1.2884489 239.25 0 0 0 29.454275
2.1591246 5.6949081 1.1757404 293.33334 0 0 0 30.560959
2.6915078 5.5280137 1.290629 52 0 0 0 31.988911
3.4251542 5.707695 1.3962971 151 0 0 0 33.35638
4.2826362 5.596302 1.2178055 307.5 0 0 0 35.112217
21.31567 5.9110436 1.2829974 60 0 0 0 45.264759
-8.8198671 6.1439991 1.1280175 262 0 0 0 9.3688002
-4.6713824 6.3184986 1.2198412 190.5 0 0 0 14.631201
-3.4795711 6.3176904 1.3014129 254 0 0 0 16.77673
-1.6237874 6.4167795 1.2020301 160 0 0 0 20.877014
-1.077181 6.321703 1.246698 614.75 0 0 0 22.140049
-0.70881045 6.1852441 1.1964059 237.39999 0 0 0 23.021095
-0.40964758 6.3089151 1.4647578 205 0 0 0 23.80262
0.52994651 6.3568668 1.0912684 477.5 0 0 0 26.137569
1.3933405 6.2733383 1.4179995 237.5 0 0 0 28.292786
1.6712812 6.2782364 1.1980391 249.66667 0 0 0 28.935974
3.5203621 6.0228333 1.28878 195 0 0 0 33.165401
20.547407 6.2474546 1.2468344 157 0 0 0 44.87513
-0.75391668 6.6496372 1.3842616 101 0 0 0 23.021099
-0.097214945 6.9467697 1.0972093 141 0 0 0 24.58016
4.2194633 6.8038511 1.473829 242 0 0 0 33.547359
-5.4592099 7.2230487 1.1800747 67 0 0 0 14.43813
3.4268992 7.4371333 1.3003335 441 0 0 0 31.604389
10.791214 7.2617407 1.411218 114 0 0 0 40.200329
13.025506 7.420537 1.2556995 100 0 0 0 41.37096
9.7730284 7.6880698 1.1960981 398.5 0 0 0 39.03006
10.196498 7.6197329 1.0710173 272 0 0 0 39.420834
10.693922 7.5858521 1.4219556 281 0 0 0 39.808353
11.413409 7.6769309 1.1547668 80 0 0 0 40.200329
15.32736 7.7508006 1.4334091 117 0 0 0 42.142578
8.6841459 8.344347 1.0138766 409 0 0 0 37.461182
9.841074 8.1407194 1.0739167 410 0 0 0 38.636993
11.331203 8.0340919 1.1655078 146 0 0 0 39.808353
-0.95335788 8.6855583 1.3691541 126 0 0 0 23.021099
9.1429358 9.2233973 1.4064534 372 0 0 0 37.07711
9.812602 9.1910019 1.4553823 114 0 0 0 37.654827
9.3309841 9.8851128 1.3024683 373 0 0 0 36.676041
9.7779255 9.8575439 1.1626794 250 0 0 0 37.07711
-1.3556755 10.218988 1.1023399 221 0 0 0 22.627899
9.3968172 10.456543 1.1758903 202 0 0 0 36.288658
-0.8840788 10.675271 1.4081676 71 0 0 0 23.414289
12.984745 11.266555 1.4319404 75 0 0 0 38.245487
-45.975903 11.538289 1.4001962 11 0 0 0 3.51724
-2.7637925 11.884691 1.1483241 188.5 0 0 0 21.076941
9.9160023 11.588444 1.2720157 167 0 0 0 35.898338
13.093289 11.936432 1.4741807 117 0 0 0 37.848473
-3.3093297 12.189335 1.339715 159 0 0 0 20.48551
-2.4820275 12.000909 1.3024571 281 0 0 0 21.458111
2.4696918 12.865364 1.0843273 75 0 0 0 27.70323
0.24635944 13.765122 1.4660106 105 0 0 0 24.974119
1.2630551 13.740622 1.1367326 98 0 0 0 26.137569
-1.2158599 -12.048038 1.9112242 563 0 0 0 76.137001
-0.62669325 -12.138056 1.9182842 547 0 0 0 75.345207
-0.031384345 -12.247505 1.9326669 299 0 0 0 74.569038
-1.6375476 -11.858978 1.8899825 283 0 0 0 76.717667
-21.232841 -10.684616 1.9722638 17 0 0 0 92.151985
14.025987 -7.9774952 1.7371712 93 0 0 0 57.747231
13.911885 -7.4663053 1.7007275 171 0 0 0 57.365978
14.188148 -7.1704612 1.7122653 97 0 0 0 56.971008
14.423187 -6.8489099 1.7197312 105 0 0 0 56.576458
14.805545 -6.5886412 1.745012 152 0 0 0 56.19249
-7.5433626 -6.4974399 1.5771674 29 0 0 0 88.247086
0.88158083 -6.1664505 1.7659905 214 0 0 0 72.224548
4.5528922 -6.1952105 1.9844472 242 0 0 0 64.394089
15.328871 -6.3738055 1.7868572 93 0 0 0 55.801979
22.476154 -6.2387638 1.9289411 76 0 0 0 53.846741
-4.7631254 -5.504055 1.5194563 538 0 0 0 85.895111
-0.099892341 -5.7582436 1.8464918 201 0 0 0 74.761459
0.1786765 -5.7496753 1.7008363 157 0 0 0 73.972984
0.74995661 -5.756074 1.7198429 140 0 0 0 72.416832
4.4322186 -5.7335954 1.872912 483 0 0 0 64.002518
4.7363558 -5.5407033 1.8840095 414 0 0 0 63.222969
-7.5287981 -5.025238 1.7714872 629 0 0 0 90.201637
-7.4012904 -5.2064734 1.7709465 543.5 0 0 0 89.812393
-5.245995 -5.2336287 1.5467267 501.66666 0 0 0 87.082855
-4.8060126 -5.375402 1.6228937 276.66666 0 0 0 86.162865
-0.28069565 -5.1505222 1.9308609 183.66667 0 0 0 75.346161
0.34325302 -5.2583146 1.7559545 134.3 0 0 0 73.431381
0.60645586 -5.170321 1.8195854 107.66666 0 0 0 72.609116
1.2165021 -5.1703019 1.7298485 228.33333 0 0 0 70.790565
1.6326939 -5.0501351 1.6413336 259 0 0 0 69.479691
4.2369361 -5.2150269 1.6591403 428 0 0 0 63.61787
4.731967 -5.1415625 1.9822508 437 0 0 0 62.63179
5.8089724 -5.0497417 1.9885932 305 0 0 0 60.872601
22.954481 -5.1706452 1.9460123 15 0 0 0 53.075352
-8.1292133 -4.6018729 1.7125305 3114 0 0 0 91.372704
-1.4144164 -4.5825038 1.600063 209 0 0 0 79.25145
-0.67609984 -4.785357 1.7070131 217.2 0 0 0 76.71759
-0.17830853 -4.8370414 1.7015877 224.42857 0 0 0 75.06929
0.22923198 -4.7782164 1.7865822 160.2 0 0 0 73.702339
0.76598191 -4.7749815 1.6144881 139.75 0 0 0 71.931435
1.1807721 -4.8420215 1.6662499 170.83333 0 0 0 70.658745
4.3410835 -4.9161572 1.5918279 357 0 0 0 62.95752
4.7632017 -4.750073 1.7015855 407.5 0 0 0 61.95171
5.1261072 -4.6296082 1.7477736 457.5 0 0 0 61.165283
5.6652074 -4.5323567 1.6977986 382 0 0 0 60.229664
-8.1747208 -4.2397313 1.8017869 4014 0 0 0 91.955872
-1.6720902 -4.2705741 1.5675263 241 0 0 0 80.422806
-1.2557545 -4.3365912 1.5876423 210.57143 0 0 0 78.972649
-0.91441262 -4.4722075 1.636328 58 0 0 0 77.694969
5.3812914 -4.3429723 1.7064601 207 0 0 0 60.294174
5.7955523 -4.3333731 1.6056757 492.5 0 0 0 59.70414
-5.2130628 3.7859991 1.9321743 343 0 0 0 9.7498703
-2.3225639 3.9096315 1.7072165 91 0 0 0 16.38196
4.5646858 3.9144042 1.6428275 249.5 0 0 0 38.441238
-6.5707145 4.3204503 1.9742733 97 0 0 0 8.9765396
-6.2558374 4.2770071 1.7222624 532.5 0 0 0 9.2707348
-5.6657109 4.2681923 1.6701406 503 0 0 0 10.008183
-5.1561608 4.2849755 1.9043401 427.33334 0 0 0 10.795156
-4.6239052 4.3442345 1.8441731 523.20001 0 0 0 11.780777
-4.1622181 4.2593727 1.8407145 416.66666 0 0 0 12.482158
-3.8373597 4.2611303 1.8666772 383.28571 0 0 0 13.14964
-3.2379718 4.3528428 1.7685264 241 0 0 0 14.670222
-2.6903267 4.310092 1.723262 290.5 0 0 0 15.99477
-2.1041868 4.4088445 1.6401421 139 0 0 0 17.817167
-1.9308201 4.1149101 1.7110299 124 0 0 0 17.94965
1.8322576 4.3491778 1.6978886 28 0 0 0 31.211861
2.1572053 4.4744782 1.7867569 185 0 0 0 31.988911
3.4018881 4.3633461 1.923147 270.5 0 0 0 35.309856
3.6980338 4.3904681 1.6393002 127 0 0 0 35.898338
4.580236 4.2305884 1.6232609 240 0 0 0 37.848473
5.2866879 4.193294 1.5873673 219 0 0 0 39.03006
-6.3909855 4.6626778 1.7976034 339 0 0 0 9.7498703
-5.6213317 4.7002215 1.7541035 394 0 0 0 10.826502
-5.244626 4.5415516 1.8324215 690.5 0 0 0 11.114315
-4.7777891 4.5558729 1.7427258 623 0 0 0 11.898951
-4.2522407 4.5725355 1.6527692 454.66666 0 0 0 12.869054
-3.8766527 4.6516867 1.7875319 363 0 0 0 13.752605
-3.2087681 4.6766977 1.7703294 224.57143 0 0 0 15.274668
-2.7538373 4.6756086 1.5761671 479.25 0 0 0 16.383856
-2.2880826 4.6865816 1.6596599 197.75 0 0 0 17.654793
-1.7474965 4.7589331 1.7195579 311.22223 0 0 0 19.2952
-1.3983493 4.9099255 1.8048263 262 0 0 0 20.48551
-0.21754372 4.6547623 1.6858528 121 0 0 0 24.192099
0.018539462 4.8158855 1.5365423 236 0 0 0 24.974119
0.61086196 4.7848125 1.723155 99.333336 0 0 0 26.92198
1.8530524 4.8766294 1.8713986 158.5 0 0 0 30.625074
2.0946977 4.6808195 1.7788244 215.5 0 0 0 31.537634
2.9175682 4.7520132 1.8666565 68 0 0 0 33.547359
3.140564 4.7090063 1.8953576 130 0 0 0 34.13686
3.7435832 4.7286634 1.6434402 219.25 0 0 0 35.408585
7.3934903 4.8202386 1.7012262 144.33333 0 0 0 40.456223
12.860579 4.9912252 1.8361769 34 0 0 0 43.708649
17.710184 4.9186625 1.5314423 46 0 0 0 45.264759
-4.1510687 5.3192534 1.7022889 495 0 0 0 14.241595
-3.8953867 5.1092367 1.7812388 460 0 0 0 14.43813
-2.7808893 5.101902 1.8058854 204.66667 0 0 0 16.908619
-2.1904314 5.0305853 1.9318131 97 0 0 0 18.337641
-1.6689192 5.1573739 1.7811149 347.33334 0 0 0 19.903179
0.27882266 5.2273369 1.9068502 213 0 0 0 25.74975
0.70567155 5.4001942 1.5738149 223.5 0 0 0 26.925491
1.2260045 5.2828202 1.7371058 144.75 0 0 0 28.484983
1.5970223 5.1224823 1.7893964 253 0 0 0 29.653099
3.1995897 5.4912529 1.8059157 59 0 0 0 33.165401
4.2282853 5.2612114 1.7506846 93 0 0 0 35.503433
-9.0547142 5.9841189 1.6676561 217 0 0 0 8.9765396
-4.0773716 5.9443202 1.9989085 312 0 0 0 15.21938
-2.0965314 5.5696788 1.6617409 148 0 0 0 19.123791
-1.9059734 5.9438004 1.5902803 326 0 0 0 19.903179
-1.4471515 5.9835205 1.8732792 89 0 0 0 21.076941
-0.54138315 5.9738827 1.9794101 176 0 0 0 23.414289
-0.23607415 5.5415168 1.7432913 166.33333 0 0 0 24.192186
0.38350767 5.6087151 1.8633649 134.5 0 0 0 25.943954
0.85847729 5.5086718 1.8517883 370 0 0 0 27.310801
1.7378081 5.8689885 1.7335933 295 0 0 0 29.388491
2.8185525 5.611412 1.7831601 125.5 0 0 0 32.183258
3.0106122 5.8049679 1.6121906 410.5 0 0 0 32.377602
4.6012864 5.7155547 1.7183586 136 0 0 0 35.503433
-4.5722456 6.0225983 1.9090618 272 0 0 0 14.43813
-4.3130322 6.3033972 1.6514063 403 0 0 0 15.21803
-1.2912534 6.2446914 1.7852882 507 0 0 0 21.586044
-0.40650347 6.2377715 1.7558879 143 0 0 0 23.80262
0.37010536 6.3690572 1.9524257 225 0 0 0 25.75034
0.53597313 6.4349174 1.5785758 509 0 0 0 26.137569
1.2741275 6.0953255 1.7570486 227.5 0 0 0 28.094765
1.690454 6.1666374 1.8041095 243.5 0 0 0 29.061584
2.2572353 6.2455411 1.6862231 280 0 0 0 30.300896
2.8467321 6.2156162 1.7624702 361.5 0 0 0 31.604389
3.8610837 6.2415113 1.8967794 93 0 0 0 33.547359
-4.5075383 6.588953 1.8226398 149 0 0 0 15.21938
-0.92548758 6.6861386 1.7242866 213 0 0 0 22.627899
0.55963868 6.6780963 1.8860151 270 0 0 0 26.137569
1.0434152 6.5706782 1.5473315 403 0 0 0 27.310801
3.6324921 6.5747032 1.9389225 53 0 0 0 32.772572
20.559677 6.8125038 1.7978268 72 0 0 0 44.490841
21.497524 6.5394149 1.8636506 68 0 0 0 44.87513
1.6975074 7.1633067 1.8026479 169 0 0 0 28.483124
10.773725 7.2530246 1.7297882 128 0 0 0 40.200329
19.146919 7.4108992 1.7062445 67 0 0 0 43.708649
28.62064 7.1755276 1.6986417 45 0 0 0 45.660831
-9.6160908 7.8105001 1.5999278 118 0 0 0 10.53869
11.200205 7.9453478 1.8263373 250 0 0 0 39.808353
-1.1098191 8.1987314 1.5012088 70 0 0 0 22.627899
9.1024933 8.3256712 1.6430768 300 0 0 0 37.848473
9.5169649 8.2810097 1.6797949 342 0 0 0 38.245487
10.236657 8.2564144 1.7501359 273 0 0 0 38.833527
11.054017 8.258769 1.8346509 323 0 0 0 39.420834
9.2513294 8.8876925 1.7067285 293 0 0 0 37.461182
15.729988 8.9516096 1.9489522 48 0 0 0 41.37096
18.297955 8.686327 1.6836101 38 0 0 0 42.544281
19.258751 8.5662107 1.7505465 79 0 0 0 42.927727
0.13038337 9.2490368 1.9066017 138 0 0 0 24.974119
8.8141956 9.3465414 1.7082032 333 0 0 0 36.676041
9.0132122 9.0972872 1.7033527 240 0 0 0 37.07711
11.432796 9.4463358 1.602252 123 0 0 0 38.636993
15.682613 9.443121 1.9706104 68 0 0 0 40.976967
8.6384029 9.6245728 1.7188325 192 0 0 0 36.288658
13.402064 9.9956408 1.8020539 152 0 0 0 39.420834
-2.9680059 11.456273 1.8388559 139 0 0 0 20.67709
10.129066 11.264262 1.6330981 196 0 0 0 36.288658
13.099903 11.366212 1.8666973 114 0 0 0 38.245487
-2.7744637 11.920473 1.5999322 261 0 0 0 21.076941
-2.17748 11.989058 1.5945603 232 0 0 0 21.841909
-1.872743 11.971498 1.5865812 199 0 0 0 22.239429
9.1645956 11.847947 1.613657 124 0 0 0 35.11628
9.8979435 11.568005 1.6405541 260 0 0 0 35.898338
-3.5242157 12.38025 1.9967755 100 0 0 0 20.29393
-3.4785218 12.216062 1.6576874 295 0 0 0 20.29393
-2.4987929 12.072794 1.61221 335 0 0 0 21.458111
-0.39742407 12.301026 1.6147649 142 0 0 0 24.193779
7.9872441 12.083359 1.9168686 70 0 0 0 33.943687
9.5499973 12.986582 1.733091 159 0 0 0 34.721001
2.6824727 13.934233 1.5162849 86 0 0 0 27.70323
4.6450448 14.33412 1.9834319 50 0 0 0 29.653099
-57.604427 17.503263 1.7706831 9 0 0 0 4.2990298
-23.805483 -15.069149 2.3321021 5 0 0 0 90.604919
-24.448877 -14.649343 2.3586953 33 0 0 0 90.987877
68.183968 -13.600966 2.2407079 9 0 0 0 52.674301
-23.180643 -12.386765 2.1773722 20 0 0 0 91.75975
-1.2103429 -11.993717 2.2008188 585 0 0 0 76.137001
-23.454985 -11.091006 2.1495132 15 0 0 0 92.538521
-19.513481 -11.049896 2.407131 24 0 0 0 91.372704
3.5643818 -7.6166553 2.374733 169 0 0 0 67.527908
23.177334 -7.678515 2.0167081 38 0 0 0 54.635128
-41.096523 -7.1268859 2.3925292 25 0 0 0 96.835129
3.7119694 -7.1579781 2.3440459 292.66666 0 0 0 66.877205
23.866613 -7.260366 2.0600061 22 0 0 0 54.242767
4.4937553 -6.4393225 2.0258005 399 0 0 0 64.790276
24.224941 -6.0857997 2.0631421 34 0 0 0 53.45919
4.6294456 -5.8373361 2.1101451 198 0 0 0 63.810196
5.1353436 -5.7115316 2.3640442 118 0 0 0 62.824799
-7.5312085 -5.0288725 2.3263617 458 0 0 0 90.201637
-7.4437928 -5.1485353 2.1777151 475.66666 0 0 0 89.942139
-0.2842035 -5.2265263 2.0013978 149 0 0 0 75.345207
0.81829023 -5.2768235 2.043344 112 0 0 0 72.029175
4.6649175 -5.4577856 2.0351379 421 0 0 0 63.222969
5.2532468 -5.2306514 2.2392602 270 0 0 0 61.950165
-7.5880008 -4.8023734 2.3071494 123 0 0 0 90.604919
5.1514602 -4.9460235 2.1145203 532.5 0 0 0 61.659271
5.6738863 -4.8115621 2.1091354 203.5 0 0 0 60.680157
25.139587 -4.3758492 2.1077852 46 0 0 0 52.289009
-6.2985797 3.8517115 2.272855 145.66667 0 0 0 8.453557
-5.8175125 3.9156525 2.2700272 332 0 0 0 9.1726704
-3.9639986 3.7619956 2.038348 217.5 0 0 0 11.898951
-6.1852474 4.1707077 2.1896043 287.25 0 0 0 9.1726704
-5.7968225 4.2205582 2.2161422 433.60001 0 0 0 9.7511501
-5.1989336 4.2078428 2.1673911 385.57144 0 0 0 10.588483
-4.8107915 4.2602305 2.1392372 357.33334 0 0 0 11.309926
-4.1865788 4.331151 2.1761975 320.75 0 0 0 12.578373
-3.5858727 4.238215 2.0755761 378.33334 0 0 0 13.652539
2.9634542 4.3403611 2.0223122 105 0 0 0 34.330032
3.4301116 4.0833497 2.0541675 93 0 0 0 35.898338
3.5229082 4.4054313 2.0303297 201 0 0 0 35.503433
-7.7763605 4.8589158 2.3005164 18 0 0 0 8.5816898
-5.4501977 4.6061583 2.4881337 172 0 0 0 10.92054
-4.8929453 4.553472 2.332222 138 0 0 0 11.70115
-3.6737776 4.5633368 2.1197081 351 0 0 0 14.046625
-3.2844415 4.6246171 2.0562029 272 0 0 0 15.02496
2.1626706 4.7749462 2.0112159 119 0 0 0 31.604389
3.0344751 4.6817222 2.005827 156 0 0 0 33.943687
3.628695 4.5346675 2.2322361 284 0 0 0 35.503433
7.3499408 4.8376164 2.0575967 13 0 0 0 40.39225
-4.6942186 5.3145199 2.4782863 306 0 0 0 13.25744
-3.5062308 5.0845075 2.3129497 71 0 0 0 15.21938
-2.1715987 5.1673937 2.1096425 154 0 0 0 18.533676
0.28741717 5.2633147 2.0058599 97 0 0 0 25.75034
1.3250862 5.143003 2.0300505 227 0 0 0 28.86698
3.3170292 5.1053452 2.334728 17 0 0 0 33.943687
3.7965965 5.1888366 2.2087569 245 0 0 0 34.800922
4.2282186 5.0056624 2.1900198 160 0 0 0 35.898338
4.788723 5.1226559 2.2556987 246 0 0 0 36.682884
-9.2149677 5.7718992 2.3323889 141.5 0 0 0 8.5816898
-0.24050409 5.6353431 2.0024312 282 0 0 0 24.193779
0.32944062 5.8344984 2.077894 66 0 0 0 25.75034
0.91580588 5.8523526 2.1105077 82 0 0 0 27.310801
1.8518543 5.9019651 2.2854166 115.5 0 0 0 29.653099
2.2674441 5.9060764 2.2585502 233 0 0 0 30.625074
2.7404685 5.9886365 2.1106057 137 0 0 0 31.600386
3.5513649 5.7551513 2.0866797 336 0 0 0 33.547359
4.2142224 5.5176306 2.1439126 709 0 0 0 35.11628
-9.5948429 6.3454237 2.0480998 70 0 0 0 8.9765396
-9.1662874 6.0586524 2.2241206 162 0 0 0 8.9765396
-4.6476407 6.1216993 2.3155336 229 0 0 0 14.43813
-2.0905204 6.0063009 2.3950195 184 0 0 0 19.509581
-1.6361128 6.3329201 2.3087394 348.66666 0 0 0 20.810373
-0.81135988 6.4017019 2.1260757 202 0 0 0 22.824499
0.20356913 6.1600127 2.0382934 156 0 0 0 25.36727
1.7944467 6.2399058 2.3960137 47.5 0 0 0 29.256189
2.1735761 6.3433499 2.0618281 217 0 0 0 30.040831
3.2498181 6.1311607 2.1374738 203.33333 0 0 0 32.511353
3.6311793 6.2132187 2.3090291 347.5 0 0 0 33.165401
4.222271 6.2880936 2.3332498 123 0 0 0 34.13686
21.713375 6.0252657 2.4174879 74 0 0 0 45.264759
-1.4259971 6.6418061 2.3983057 186 0 0 0 21.458111
0.64882261 6.7474566 2.2422996 268.5 0 0 0 26.337975
2.6149304 6.5436459 2.1667469 94 0 0 0 30.817419
4.2500048 6.6760669 2.2399187 184 0 0 0 33.745522
4.6377902 6.5414095 2.27037 142.5 0 0 0 34.525517
20.671032 6.8494167 2.3377025 74 0 0 0 44.490841
1.1205732 7.0177293 2.0012448 104 0 0 0 27.310801
1.7693312 7.4473495 2.1560748 260 0 0 0 28.4863
20.266853 7.2743993 2.3120339 92 0 0 0 44.104618
-2.4391911 7.7017813 2.2512152 121 0 0 0 19.903179
2.8291335 7.5836535 2.4820776 189 0 0 0 30.43273
3.083102 7.6704998 2.3315659 16 0 0 0 30.817419
3.6421309 7.6538477 2.1809688 72.5 0 0 0 31.79665
11.245315 7.7705793 2.1579075 242.5 0 0 0 40.004341
12.094754 7.7101235 2.2625761 95 0 0 0 40.584167
20.504936 7.9344287 2.359899 42 0 0 0 43.708649
-2.8115866 8.1988487 2.412729 100 0 0 0 19.509581
-2.2076614 8.4059181 2.2077878 224 0 0 0 20.67709
-1.94402 8.2031193 2.2452307 173 0 0 0 21.076941
-0.69066554 8.0029068 2.247623 108 0 0 0 23.414289
10.648543 8.3745289 2.138062 211 0 0 0 39.03006
17.578682 8.3466616 2.0930352 140 0 0 0 42.544281
18.370544 8.17307 2.1614141 83 0 0 0 42.927727
0.95548046 8.5378942 2.1970472 58 0 0 0 26.53838
9.1796474 8.8199654 2.1672864 141.5 0 0 0 37.461182
9.7884235 8.9474754 2.0926738 158 0 0 0 37.848473
10.154768 8.6137047 2.267868 248.5 0 0 0 38.441238
10.817596 8.9456196 2.2135301 190 0 0 0 38.636993
11.723645 8.755518 2.3063755 100 0 0 0 39.420834
14.769972 8.9003115 2.2839603 111 0 0 0 40.976967
15.215573 8.6642017 2.3186855 142 0 0 0 41.37096
16.433018 8.8214817 2.0074234 66 0 0 0 41.753181
17.325474 8.7559452 2.087909 72 0 0 0 42.142578
-2.7101741 9.4240494 2.4870732 275 0 0 0 20.29393
9.0795841 9.1639872 2.0358562 239 0 0 0 37.07711
-3.0318725 9.6615314 2.1962891 376.5 0 0 0 19.903179
3.3882313 9.7271004 2.1319389 148 0 0 0 30.040831
-6.4711404 10.060648 2.1412547 208 0 0 0 15.61179
1.5196737 10.883346 2.2641294 242 0 0 0 26.92198
-2.7917082 11.330595 2.2426813 142 0 0 0 20.877014
-2.3468204 11.303293 2.2235167 151 0 0 0 21.458111
9.7631264 11.703969 2.3961024 169 0 0 0 35.700886
9.3678818 12.113128 2.0262375 96 0 0 0 35.11628
10.148423 12.469153 2.1260128 176 0 0 0 35.503433
-3.6627865 12.880515 2.4063282 73 0 0 0 20.29393
-2.6301148 12.732647 2.0192118 174 0 0 0 21.458111
-2.3274598 12.851402 2.3513348 97 0 0 0 21.841909
1.7978798 12.753514 2.3313055 102 0 0 0 26.92198
-9.2750835 13.031139 2.0672762 44 0 0 0 14.82427
8.3585281 13.337134 2.4691739 104 0 0 0 33.547359
-0.77115279 13.743349 2.4813738 103 0 0 0 23.80262
-0.43461689 13.822351 2.1520767 180 0 0 0 24.193779
-0.78655118 14.066774 2.1910322 128 0 0 0 23.80262
0.25523427 14.249787 2.2186177 70 0 0 0 24.974119
-69.796928 19.359507 2.1235499 17 0 0 0 3.9100399
-23.494717 -14.872478 2.9771268 14 0 0 0 90.604919
-22.154804 -13.274279 2.7674508 9 0 0 0 90.987877
-23.816553 -11.262123 2.8216882 11 0 0 0 92.538521
-19.521294 -11.058914 2.9596374 23 0 0 0 91.372704
18.555178 -10.539966 2.8108687 70 0 0 0 57.747231
18.852386 -10.103906 2.8174429 28 0 0 0 57.365978
-4.6842113 -9.8644876 2.7990692 167 0 0 0 81.596626
79.973763 -9.9030685 2.5934637 13 0 0 0 51.506271
19.565584 -9.2779932 2.8521643 24 0 0 0 56.576458
24.045948 -8.6270618 2.7296627 28 0 0 0 55.02644
-3.1940081 -7.1668563 2.7917964 15 0 0 0 81.212952
-2.9362862 -7.0454841 2.7166262 64 0 0 0 80.817276
16.827532 -7.4817085 2.8884311 29 0 0 0 56.19249
-2.7442608 -6.6944685 2.7084551 61.25 0 0 0 80.71785
-2.3527832 -6.5207443 2.6392856 62 0 0 0 80.03054
22.457926 -6.8326464 2.512017 38 0 0 0 54.242767
23.671608 -6.5697947 2.6274002 29 0 0 0 53.846741
-2.1585977 -6.4727869 2.5983193 125 0 0 0 79.645744
-1.8109407 -6.4634781 2.5573006 79.333336 0 0 0 78.859642
23.989178 -6.0266132 2.6454411 18 0 0 0 53.45919
-77.12085 -5.6831198 2.5093 8 0 0 0 98.394608
-7.3712316 -5.1869655 2.7043846 319.75 0 0 0 89.81292
24.01 -5.4078465 2.6327705 32 0 0 0 53.075352
-7.5999928 -4.8100214 2.5336993 144 0 0 0 90.604919
-7.4578819 -4.9808989 2.8571081 431 0 0 0 90.201637
25.040068 -4.9958253 2.730263 20 0 0 0 52.674301
25.215374 -4.3889394 2.7369802 19 0 0 0 52.289009
-44.41415 -3.2729847 2.5501351 14 0 0 0 98.394608
-43.773598 -2.1475155 2.5096133 24 0 0 0 98.785278
-49.85321 -1.22065 2.8501291 11 0 0 0 99.180931
-7.3837419 4.1212897 2.9417057 33 0 0 0 7.8077002
-6.043334 4.1786504 2.735142 125 0 0 0 9.3688002
-5.7481151 4.3288274 2.6210587 170 0 0 0 10.008183
-5.2718906 4.4522791 2.5720673 155 0 0 0 10.92054
-5.1246343 4.5445929 2.5540349 168 0 0 0 11.30809
4.7928514 5.3908277 2.584707 134 0 0 0 36.288658
-4.0548978 5.6024108 2.588419 104 0 0 0 14.82427
4.8003397 5.6733479 2.6608343 60 0 0 0 35.898338
5.0008059 5.6207404 2.8790414 46 0 0 0 36.288658
2.1518486 6.2876754 2.5346529 27 0 0 0 30.040831
3.1989629 6.1646662 2.6534083 138 0 0 0 32.377602
3.6987138 6.3303022 2.6210713 184 0 0 0 33.159966
1.1057971 6.951642 2.674078 169 0 0 0 27.310801
3.7790291 6.7150898 2.815397 107 0 0 0 32.902802
20.564497 6.8184195 2.8601987 78 0 0 0 44.490841
-1.0052283 7.3040333 2.7845335 84 0 0 0 22.627899
0.78363729 7.1735511 2.7380056 115 0 0 0 26.53838
1.963567 7.4432783 2.5489323 65 0 0 0 28.86698
3.7856135 7.2567172 2.7171004 7 0 0 0 32.377602
4.0500059 7.3131633 2.7751904 13 0 0 0 32.772572
20.450293 7.3441901 2.8684959 63 0 0 0 44.104618
18.105518 7.5313139 2.5926406 49 0 0 0 43.316841
26.179264 7.9581518 2.9270132 55 0 0 0 44.87513
2.9399519 8.4832954 2.9703426 113 0 0 0 30.040831
3.0340166 8.1117258 2.8676388 32 0 0 0 30.43273
10.225153 8.460146 2.7523501 278 0 0 0 38.636993
11.221265 8.3835917 2.9034019 188 0 0 0 39.420834
11.797788 8.148798 2.9718096 242.5 0 0 0 40.004341
14.092643 8.4949856 2.9984152 94 0 0 0 40.976967
14.731943 8.3905697 2.6672745 73 0 0 0 41.37096
16.696146 8.4435673 2.9395983 79 0 0 0 42.142578
17.558186 8.3409634 2.5702088 56 0 0 0 42.544281
9.319663 8.9537354 2.6799922 243 0 0 0 37.461182
9.7957134 8.7346916 2.7218828 178 0 0 0 38.046982
10.931397 8.5957813 2.8823814 252 0 0 0 39.03006
11.901471 8.8876562 2.7095597 44 0 0 0 39.420834
12.023804 8.5257416 2.6894488 118 0 0 0 39.808353
14.397407 8.6773415 2.6447847 108 0 0 0 40.976967
16.390223 8.8028183 2.9231086 136 0 0 0 41.753181
17.489494 8.8425217 2.5907609 88 0 0 0 42.142578
19.344561 8.6087198 2.796068 47 0 0 0 42.927727
-2.6901655 9.3508034 2.7083259 200 0 0 0 20.29393
-1.6742849 9.053546 2.793484 132 0 0 0 21.841909
11.470622 9.0161953 2.6617949 132 0 0 0 39.03006
17.225698 9.2489786 2.5845759 47 0 0 0 41.753181
-6.5324483 9.6210527 2.9310031 147 0 0 0 15.21938
11.490601 9.9836073 2.7743435 61 0 0 0 38.245487
-2.247035 10.78801 2.6590137 160 0 0 0 21.458111
-1.6595163 10.506905 2.8328185 244 0 0 0 22.239429
-5.3390846 11.076859 2.5058811 133 0 0 0 17.5522
-2.6227481 11.228995 2.641037 221 0 0 0 21.076941
-2.9864419 11.517773 2.7233548 151 0 0 0 20.67709
-0.38502431 11.637826 2.959873 175 0 0 0 24.193779
10.044258 11.743112 2.8123267 108 0 0 0 35.898338
11.02912 11.672581 2.5238149 64 0 0 0 36.676041
-48.322666 12.129241 2.6861367 6 0 0 0 3.51724
-2.3293307 12.860195 2.6734145 180 0 0 0 21.841909
9.956687 12.868485 2.9576905 102 0 0 0 35.11628
-0.42393667 13.350696 2.7376583 104 0 0 0 24.193779
-0.095787071 13.829834 2.8344548 183 0 0 0 24.58016
-0.44068676 14.056724 2.53548 178 0 0 0 24.193779
-3.4601119 14.976078 2.7602615 77 0 0 0 21.076941
50.046104 -17.946091 3.021364 8 0 0 0 55.02644
50.104023 -16.589937 3.0001891 20 0 0 0 54.635128
-21.487446 -13.606608 3.3508925 13 0 0 0 90.604919
-22.996504 -11.577706 3.3912559 28 0 0 0 92.151985
-25.882576 -11.471368 3.0295515 10 0 0 0 92.92662
16.92243 -10.747436 3.1396255 58 0 0 0 58.537819
17.762922 -10.676617 3.2446036 111 0 0 0 58.135601
18.54878 -10.536199 3.3387425 10 0 0 0 57.747231
24.132175 -10.719823 3.4696939 45 0 0 0 56.19249
16.165857 -10.268184 3.4760337 39 0 0 0 58.537819
18.701931 -10.023355 3.3213229 82 0 0 0 57.365978
19.456417 -9.8190479 3.4104545 39 0 0 0 56.971008
22.221565 -8.591548 3.1349053 30 0 0 0 55.416729
17.291306 -8.2021217 3.4746518 21 0 0 0 56.576458
22.174948 -7.9527378 3.1006067 25 0 0 0 55.02644
-36.060074 -6.259923 3.0146112 23 0 0 0 96.835129
-37.797543 -5.6100526 3.1454663 27 0 0 0 97.232224
-7.7593474 -5.7547059 3.4311724 155 0 0 0 89.425247
-7.6743321 -5.0362577 3.3358629 276.33334 0 0 0 90.33606
-7.4629478 -5.2548256 3.2437947 232.33333 0 0 0 89.812401
-6.9669218 -5.1660728 3.2952981 66 0 0 0 89.425247
-39.774162 -4.9094033 3.2968206 11 0 0 0 97.613091
-7.8149333 -4.7721305 3.2540181 174.33333 0 0 0 90.860229
-7.924159 -4.4913836 3.2368917 152 0 0 0 91.372704
29.853739 -4.441731 3.2208741 24 0 0 0 51.90041
29.64135 -3.6677754 3.1879971 14 0 0 0 51.506271
39.790215 -3.93208 3.2822289 34 0 0 0 51.121319
29.294397 -2.8955762 3.1429369 62 0 0 0 51.121319
30.100948 -2.2294579 3.2219112 43 0 0 0 50.725231
-8.1229115 4.5437922 3.0139408 25 0 0 0 7.8077002
-8.7647581 5.1922426 3.3002369 57 0 0 0 8.1972904
-8.1827154 5.1123853 3.3595397 59 0 0 0 8.5816898
4.1434436 6.6944485 3.0050299 198 0 0 0 33.547359
20.019409 6.6385918 3.3088899 65 0 0 0 44.490841
4.1161242 7.436832 3.2388668 31 0 0 0 32.772572
19.824896 7.1206956 3.3047965 44 0 0 0 44.104618
3.0557816 7.6143727 3.1225801 81 0 0 0 30.817419
11.084127 7.8676662 3.3202896 180.5 0 0 0 39.808353
16.509254 7.8454733 3.326812 53 0 0 0 42.544281
18.359598 7.6367159 3.1219115 118 0 0 0 43.316841
2.8343325 8.19769 3.0837817 161 0 0 0 30.040831
10.898849 8.1477604 3.1561224 238 0 0 0 39.420834
16.277889 8.2333364 3.3200095 130 0 0 0 42.142578
18.662239 8.3066092 3.205888 112 0 0 0 42.927727
20.693939 8.0118361 3.4791274 57 0 0 0 43.708649
15.355819 8.744133 3.217052 165 0 0 0 41.37096
17.937748 8.5206499 3.1176662 56 0 0 0 42.544281
9.4345675 9.0669441 3.3565989 216 0 0 0 37.461182
9.8428707 9.0009394 3.0925503 189 0 0 0 37.848473
10.70833 9.0826349 3.2543845 126.5 0 0 0 38.441238
-1.8955194 10.336565 3.4441121 130 0 0 0 21.841909
-1.3836354 10.383421 3.177453 190 0 0 0 22.627899
-1.9670805 10.752374 3.0445211 156 0 0 0 21.841909
-4.0072179 11.820553 3.1572335 134 0 0 0 19.509581
-1.5528232 11.772853 3.3077061 132 0 0 0 22.627899
-1.2722392 11.896841 3.3336911 138 0 0 0 23.021099
3.8537393 11.953518 3.2065928 120 0 0 0 29.653099
9.8752003 11.547668 3.1407733 153 0 0 0 35.898338
11.817278 11.901283 3.0508261 141 0 0 0 37.07711
10.116901 12.432388 3.3102655 96 0 0 0 35.503433
13.593279 12.39539 3.3435423 73 0 0 0 37.848473
0.21528086 12.790214 3.2509263 94 0 0 0 24.974119
-2.245569 14.463582 3.3490868 16 0 0 0 22.239429
-0.45871532 14.661277 3.3617418 82 0 0 0 24.193779
8.2432337 14.706836 3.0583005 40 0 0 0 32.772572
7.9653683 15.067572 3.0902965 46 0 0 0 32.377602
-55.546127 16.877363 3.1261082 6 0 0 0 4.2990298
8.3340044 16.732538 3.384644 25 0 0 0 31.988911
67.918869 -13.547905 3.9288538 25 0 0 0 52.674301
-21.700848 -13.007533 3.9592106 9 0 0 0 90.987877
-21.630503 -12.254535 3.8908005 15 0 0 0 91.372704
23.85257 -12.032067 3.5095079 25 0 0 0 56.971008
-25.360693 -11.998071 3.6923144 19 0 0 0 92.538521
7.9184327 -10.730513 3.7460914 97 0 0 0 64.394089
18.035122 -10.839615 3.8154285 35 0 0 0 58.135601
-21.177744 -10.018515 3.6680493 21 0 0 0 92.538521
24.640358 -10.227687 3.5053427 35 0 0 0 55.801979
16.279852 -9.7874136 3.9165173 32 0 0 0 58.135601
18.298611 -9.8076477 3.7654455 31 0 0 0 57.365978
20.666794 -8.5816383 3.5014203 56 0 0 0 55.801979
13.575902 -8.163413 3.6615963 44 0 0 0 58.135601
23.522026 -8.4346809 3.9060187 34 0 0 0 55.02644
10.626678 -7.913795 3.7245247 55 0 0 0 59.70414
17.314188 -7.6972747 3.9080212 15 0 0 0 56.19249
17.38784 -7.2232785 3.8838956 38 0 0 0 55.801979
18.339643 -6.5802283 3.5380101 43 0 0 0 55.02644
-8.4302597 -5.0555019 3.7315068 71 0 0 0 90.987877
29.067947 -5.0530229 3.8758709 30 0 0 0 52.289009
28.880564 -4.2918849 3.8364117 64 0 0 0 51.90041
29.567186 -3.6532655 3.9140129 36 0 0 0 51.506271
-44.26823 -3.2700036 3.6468737 5 0 0 0 98.394608
29.536905 -2.9142096 3.8998039 53 0 0 0 51.121319
-43.337193 -2.1336899 3.5650632 47 0 0 0 98.785278
36.779205 -1.8161759 3.9223866 18 0 0 0 50.334351
35.666916 -0.88315374 3.8018336 45 0 0 0 49.949299
20.424656 6.7725768 3.9090688 82 0 0 0 44.490841
19.14386 7.4143291 3.731442 95 0 0 0 43.708649
20.526169 7.3716979 3.9614401 63 0 0 0 44.104618
18.054506 7.5105872 3.5562215 117 0 0 0 43.316841
9.7156076 8.4570742 3.6271334 176 0 0 0 38.245487
19.055727 8.4811945 3.7902563 58 0 0 0 42.927727
9.3391218 8.54492 3.5647471 224 0 0 0 37.848473
10.933085 8.6007614 3.5676832 144 0 0 0 39.03006
11.085585 8.7200909 3.9683177 191 0 0 0 39.03006
11.807692 8.822197 3.7780063 150 0 0 0 39.420834
15.083588 8.5902109 3.589299 68 0 0 0 41.37096
11.081728 9.1668377 3.6864743 156 0 0 0 38.636993
-5.6616278 9.8058567 3.8275466 148.5 0 0 0 16.38196
10.22931 9.8241138 3.9878664 101 0 0 0 37.461182
16.247814 9.786664 3.9176669 57 0 0 0 40.976967
18.573212 9.9695511 3.8295536 53 0 0 0 41.753181
-1.8788726 10.217123 3.7849236 192.5 0 0 0 21.841909
-1.234324 10.166224 3.6102648 249.5 0 0 0 22.824499
-0.74494171 10.42599 3.6869946 192.5 0 0 0 23.608456
9.9861193 10.075683 3.9880874 153 0 0 0 37.07711
-2.3559566 10.633539 3.7003453 152.5 0 0 0 21.267525
9.6084337 10.700371 3.6826499 132 0 0 0 36.288658
10.139832 10.744273 3.7826028 97 0 0 0 36.676041
42.601582 10.678389 3.6050901 12 0 0 0 45.660831
-3.1816795 11.125472 3.7849076 151 0 0 0 20.29393
-2.930095 11.280722 3.5264413 108 0 0 0 20.67709
-1.7448047 11.077044 3.6748755 100 0 0 0 22.239429
0.43991268 11.062346 3.909091 69 0 0 0 25.36727
-0.81400275 11.579502 3.5216994 124.5 0 0 0 23.608456
-0.38511968 11.533471 3.5026591 111 0 0 0 24.193779
4.486413 11.876639 3.5589163 51 0 0 0 30.43273
-1.2887012 12.039196 3.6701453 149 0 0 0 23.021099
-0.10197613 12.94344 3.9266574 85 0 0 0 24.58016
0.53408486 12.935326 3.9297652 88 0 0 0 25.36727
3.4956331 12.979424 3.7609475 73 0 0 0 28.86698
8.4293671 15.936286 3.7107847 31 0 0 0 32.377602
9.4481506 16.833984 3.9717181 12 0 0 0 32.772572
8.7057743 18.593779 3.7124939 31 0 0 0 31.604389
-69.023399 19.145555 3.8502223 7 0 0 0 3.9100399
32.931709 -20.893965 4.1448216 6 0 0 0 58.537819
-22.510468 -16.693508 4.3825216 15 0 0 0 89.425247
20.355831 -13.634087 4.4355335 17 0 0 0 58.921501
17.130417 -12.098714 4.3192596 53 0 0 0 59.309914
-23.014975 -11.587099 4.0312552 19 0 0 0 92.151985
6.2243099 -11.713976 4.3805656 67 0 0 0 66.744698
8.6680593 -11.736108 4.4540954 24 0 0 0 64.394089
-76.857063 -11.393917 4.4257293 10 0 0 0 97.232224
6.3088264 -11.202851 4.2471666 53 0 0 0 66.352371
7.104073 -11.27486 4.0711932 55 0 0 0 65.56871
16.604549 -11.127412 4.1186891 40 0 0 0 58.921501
9.2768326 -10.797537 4.3472357 75 0 0 0 63.222969
17.203264 -10.924948 4.1986089 12 0 0 0 58.537819
17.616117 -10.007577 4.1747866 8 0 0 0 57.747231
18.728689 -10.037402 4.3766966 58 0 0 0 57.365978
9.3647585 -9.8793755 4.4965243 130 0 0 0 62.438782
19.00913 -9.593668 4.3859177 36 0 0 0 56.971008
19.769423 -9.9764843 4.0137658 33 0 0 0 56.971008
19.169249 -9.0902309 4.3703666 19 0 0 0 56.576458
21.822216 -9.0601587 4.2807932 15 0 0 0 55.801979
11.469746 -8.984726 4.0911784 16 0 0 0 60.100639
15.363095 -8.7276068 4.0794945 42 0 0 0 57.747231
26.521458 -8.7786207 4.362442 40 0 0 0 54.635128
15.950333 -8.050416 4.1251845 33 0 0 0 56.971008
17.121765 -8.1180897 4.3727155 17 0 0 0 56.576458
26.710384 -8.118309 4.359807 10 0 0 0 54.242767
10.659089 -7.9375477 4.3928847 35 0 0 0 59.70414
11.205472 -7.513813 4.1248903 12 0 0 0 58.921501
17.709299 -7.8686275 4.4712286 36 0 0 0 56.19249
27.599152 -7.6522231 4.4721475 8 0 0 0 53.846741
-38.189373 -6.6296072 4.1319065 25 0 0 0 96.835129
18.726683 -6.7186546 4.102385 12 0 0 0 55.02644
-39.053032 -4.8204017 4.1933203 12 0 0 0 97.613091
22.237211 6.7684374 4.2190971 65 0 0 0 44.87513
17.882492 7.4395547 4.0007386 59 0 0 0 43.316841
18.843521 7.2987041 4.1722455 70 0 0 0 43.708649
9.9243793 8.6405506 4.0291662 27 0 0 0 38.245487
11.412673 8.529458 4.0087214 100 0 0 0 39.420834
19.525034 8.6893854 4.4097133 60 0 0 0 42.927727
-5.7580991 9.4243698 4.1359205 131 0 0 0 15.99477
16.045353 9.1388779 4.2687168 111 0 0 0 41.37096
17.996843 9.0985699 4.1632175 69 0 0 0 42.142578
19.128326 9.0840511 4.369616 44 0 0 0 42.544281
10.35595 9.948554 4.3914819 165 0 0 0 37.461182
10.774565 9.850028 4.4641838 113 0 0 0 37.848473
15.940395 9.6065331 4.3017697 76 0 0 0 40.976967
-5.4850335 10.057902 4.0143294 64 0 0 0 16.77673
-2.1943426 10.495994 4.0357137 207 0 0 0 21.458111
10.136046 10.2296 4.4030352 75 0 0 0 37.07711
18.834923 10.109685 4.4102044 68 0 0 0 41.753181
