# .PCD v0.7 - Point Cloud Data file format
VERSION 0.7
FIELDS x y z intensity normal_x normal_y normal_z curvature
SIZE 4 4 4 4 4 4 4 4
TYPE F F F F F F F F
COUNT 1 1 1 1 1 1 1 1
WIDTH 940
HEIGHT 1
VIEWPOINT 0 0 0 1 0 0 0
POINTS 940
DATA ascii
-17.671194 -3.9750576 0.6165424 2749 0 0 0 96.115997
-7.706665 -3.8867562 0.52299505 561 0 0 0 92.217308
-5.719265 -3.9326191 0.68406403 489.5 0 0 0 90.08152
-3.6550555 -3.9217944 0.70681036 446.20001 0 0 0 86.595276
-3.4382093 -3.9933867 0.72056246 384 0 0 0 85.968079
-2.6113889 -3.9100502 0.53134865 246.33333 0 0 0 84.002159
-2.384361 -3.9797795 0.52464521 207 0 0 0 83.218735
2.2677844 -3.9078417 0.68382698 163.33333 0 0 0 66.173302
2.6357069 -3.8466525 0.67551357 182 0 0 0 64.985512
5.0188303 3.9685867 0.88769615 425 0 0 0 39.050499
-15.130221 4.1679769 0.87598926 76 0 0 0 3.9119301
1.7422352 4.3841062 0.60378492 180.5 0 0 0 30.838726
2.281251 4.316112 0.64688212 173.5 0 0 0 32.527691
2.7530544 4.3136988 0.84198284 269.39999 0 0 0 33.801189
3.249717 4.2040601 0.75879049 425.33334 0 0 0 35.216953
3.7795267 4.2437282 0.67466944 603 0 0 0 36.306904
4.2651415 4.210711 0.85442364 516.14288 0 0 0 37.316586
4.8283715 4.2567382 0.70711565 412 0 0 0 38.20293
5.1865368 4.0961618 0.71115291 259 0 0 0 39.049309
5.813283 4.2487402 0.81632245 501 0 0 0 39.635262
6.2234116 4.2009001 0.66543126 272 0 0 0 40.219769
6.8992519 4.4091406 0.72173816 416 0 0 0 40.604519
7.2504592 4.332675 0.86663705 457 0 0 0 41.079124
7.7880821 4.2779694 0.63182682 367.66666 0 0 0 41.655552
8.0946245 4.1051531 0.68151891 342 0 0 0 42.180832
-15.093723 4.5567608 0.8806203 276 0 0 0 4.29316
-7.2346091 4.8989921 0.61499083 270.5 0 0 0 9.1742058
-1.8914601 4.7448082 0.82041353 4288.8335 0 0 0 18.795853
-0.90230298 4.7232056 0.66113949 91 0 0 0 21.857861
-0.078836896 4.7237291 0.53856844 196 0 0 0 24.584909
0.27068886 4.7269626 0.58015174 143.83333 0 0 0 25.767609
0.89869416 4.9005156 0.63139975 121.5 0 0 0 27.71862
1.4166622 4.7069807 0.62478679 187.5 0 0 0 29.468889
1.6772387 4.7061315 0.79302371 173.75 0 0 0 30.247993
2.2017615 4.6118937 0.71594334 156.33333 0 0 0 31.877312
2.5792499 4.6782737 0.67906439 256.5 0 0 0 32.789768
3.2058125 4.9017377 0.85041046 288.25 0 0 0 33.957245
3.8091185 4.6481266 0.78748649 393 0 0 0 35.656368
4.7862029 4.774519 0.65752566 362.66666 0 0 0 37.221539
5.486392 4.5559812 0.80817223 603 0 0 0 38.66114
6.5094318 4.6296835 0.90008569 416 0 0 0 39.835419
7.2841477 4.6511045 0.54343575 369 0 0 0 40.604519
-7.2389522 5.300652 0.95965374 215 0 0 0 9.76124
-6.8173909 5.2489557 0.82096148 398.5 0 0 0 10.15277
-6.3236647 5.3764343 0.69248116 291 0 0 0 10.93121
-5.7995529 5.4355211 0.66561723 259 0 0 0 11.70825
-1.7162626 5.2005453 0.82280815 2310.2 0 0 0 19.749409
-0.57383138 5.0089417 0.56991124 78 0 0 0 23.02598
-0.080119804 5.2854242 0.72745991 189 0 0 0 24.584909
0.42552045 5.1218615 0.96459478 271 0 0 0 26.160789
0.68781883 5.1508551 0.71868509 120.33334 0 0 0 26.938936
1.384868 5.2776041 0.75595635 222 0 0 0 28.87719
2.3103638 5.1462641 0.73658425 217 0 0 0 31.489395
2.5756063 5.1561947 0.89485627 216.66667 0 0 0 32.137646
3.2368531 5.222827 0.77430749 171 0 0 0 33.563438
3.9040296 5.0897822 0.57360286 177 0 0 0 35.126419
8.4806576 5.1192002 0.61669439 359 0 0 0 41.00259
-8.4141159 5.5610299 0.83102262 401 0 0 0 8.9799604
-6.2381792 5.5717807 0.69804776 134 0 0 0 11.31575
-5.7937927 5.5640984 0.7697202 204.5 0 0 0 11.904235
-5.3370676 5.9341974 0.76589763 144.5 0 0 0 13.069485
-1.5759321 5.9602718 0.68443733 179 0 0 0 20.68861
-1.2534279 5.8796334 0.96447414 59 0 0 0 21.464621
-0.9214533 5.6653447 0.50359964 77 0 0 0 22.24354
-0.28368837 5.5475063 0.62550902 304.5 0 0 0 24.005705
0.39096674 5.7011123 0.78780836 255.66667 0 0 0 25.898483
0.62564218 5.7005081 0.64888668 212 0 0 0 26.54907
1.3458694 5.6678805 0.5903722 255.5 0 0 0 28.494205
1.7681383 5.7297173 0.68283129 177.66667 0 0 0 29.532692
2.2304335 5.660533 0.87864184 232.75 0 0 0 30.743776
3.910279 5.6500087 0.61091268 253 0 0 0 34.351528
4.0522485 5.8544931 0.98067081 216 0 0 0 34.351528
8.321991 5.6013575 0.62413901 278 0 0 0 40.219769
-8.7845449 6.4474335 0.89621401 252 0 0 0 9.76124
-7.8627639 6.378161 0.83632171 300 0 0 0 10.54132
-6.0525274 6.2622538 0.93647516 95 0 0 0 12.48071
2.3141863 6.1885614 0.746234 109 0 0 0 30.44619
2.6221333 6.0777049 0.58736801 172 0 0 0 31.23126
23.193413 6.4329286 0.84419727 119 0 0 0 45.301208
-7.0087433 6.5896573 0.56081545 78 0 0 0 11.70825
-5.2895751 6.6672897 0.50344151 138 0 0 0 14.04442
-2.519861 6.8062563 0.79618776 135 0 0 0 19.118799
1.6745269 6.9850063 0.80494982 185 0 0 0 28.492849
18.443583 6.6189585 0.696163 140 0 0 0 44.131474
20.618551 6.8293295 0.76678544 73 0 0 0 44.512119
1.6194743 7.145237 0.9088586 239.5 0 0 0 28.302034
4.4642744 7.1603799 0.73993444 97 0 0 0 33.563438
16.730936 7.4415126 0.6542387 129 0 0 0 42.961273
17.43347 7.2444925 0.67292917 152 0 0 0 43.347561
18.386049 7.113739 0.70053697 140 0 0 0 43.738911
-5.4806261 7.6604934 0.55421174 102 0 0 0 14.83907
1.4503496 7.6717343 0.68055242 74 0 0 0 27.71862
16.590652 7.8738999 0.65631044 89 0 0 0 42.569649
7.7706146 8.2330313 0.98128134 145 0 0 0 36.703728
1.2109201 8.6829033 0.97059423 123 0 0 0 26.940941
4.746829 8.5005074 0.60358232 80 0 0 0 32.789768
-4.5032101 11.462382 0.72100854 74 0 0 0 18.729521
-4.0464039 11.081187 0.69324923 23 0 0 0 19.118799
-2.79074 11.416159 0.69512594 48.5 0 0 0 20.88139
-8.9021606 11.889653 0.85100257 143 0 0 0 14.44149
-6.9467716 12.842086 0.84211731 224 0 0 0 16.77994
-9.2866125 13.773942 0.94910049 102 0 0 0 15.22716
-8.926178 13.965744 0.74615622 138.5 0 0 0 15.61009
-8.287075 13.68945 0.52732223 64 0 0 0 15.99865
-6.6669102 13.923108 0.89028513 157 0 0 0 17.553909
-10.445674 14.715235 0.58670104 83 0 0 0 14.83907
-4.0259218 -8.0011768 1.4220092 302 0 0 0 82.050552
-3.3262982 -7.7566848 1.3420109 597.5 0 0 0 81.071655
-2.8131871 -7.5626402 1.2845907 792.5 0 0 0 80.288834
-0.7628336 -7.6702151 1.4197778 199 0 0 0 76.192238
-0.19416378 -7.5414209 1.3906176 333 0 0 0 75.016121
0.35796496 -7.502912 1.3851844 326 0 0 0 73.840431
0.54217505 -7.5013442 1.3870349 652 0 0 0 73.445557
-3.3133526 -7.2324228 1.0703475 587 0 0 0 81.460625
-2.7282403 -7.0660572 1.020951 713.66669 0 0 0 80.484825
-2.2645333 -7.4499831 1.2410907 679.66669 0 0 0 79.31382
-1.868165 -7.4418492 1.2233313 562 0 0 0 78.528526
-0.53279543 -7.1142092 1.1404358 229 0 0 0 75.798225
0.80930555 -7.4023094 1.37397 553.5 0 0 0 72.856575
1.0844129 -7.3962808 1.3793163 685 0 0 0 72.271873
2.3360863 -7.4234381 1.4358413 448 0 0 0 69.730576
2.7263205 -7.2905316 1.3743817 639.66669 0 0 0 68.882507
3.0874944 -7.4965529 1.494969 602 0 0 0 68.356468
7.8285928 -7.1181793 1.4200186 461 0 0 0 61.315887
8.269227 -7.1550088 1.4665679 383 0 0 0 60.914101
11.24969 -7.1432028 1.4531168 285 0 0 0 58.577766
-3.2777848 -6.5138822 1.3441268 309 0 0 0 82.050552
0.33150199 -6.9656501 1.1161276 190 0 0 0 73.840431
0.67102647 -6.9343195 1.11567 252.5 0 0 0 73.051407
2.2936373 -6.9880095 1.1773629 447.5 0 0 0 69.535004
2.8780184 -6.9909234 1.2094554 610 0 0 0 68.356468
3.0630279 -6.9511104 1.2152214 239 0 0 0 67.975044
4.6442418 -6.6255183 1.4937099 491 0 0 0 64.838829
5.176548 -6.7775321 1.2918416 763.33331 0 0 0 64.183922
6.8151846 -6.8396969 1.2986609 287 0 0 0 62.090591
7.2519717 -6.9280958 1.347744 558 0 0 0 61.698727
8.396287 -6.5750713 1.1693459 512 0 0 0 60.143353
8.9244108 -6.6405435 1.2184021 454 0 0 0 59.750031
9.5947418 -6.778348 1.2848895 376 0 0 0 59.355862
10.395992 -6.9665689 1.3666029 357 0 0 0 58.969872
11.649286 -6.6167326 1.135745 299 0 0 0 57.794151
12.440509 -6.6662722 1.1948906 313 0 0 0 57.400608
13.206989 -6.6636992 1.2509915 276 0 0 0 57.008831
14.212907 -6.7371716 1.328164 229 0 0 0 56.608887
15.48233 -6.8769851 1.4280005 236 0 0 0 56.224041
-3.9515622 -6.2457304 1.1792721 506 0 0 0 83.612862
-3.1532612 -6.1728301 1.3220984 449.25 0 0 0 82.148712
-2.8699191 -6.0684834 1.0742186 310 0 0 0 81.654724
4.8663764 -6.425478 1.4885808 352 0 0 0 64.250351
5.2662048 -6.4451346 1.3299557 666 0 0 0 63.660542
5.8928242 -6.215045 1.3681756 294 0 0 0 62.484501
6.3030167 -6.3277645 1.4253846 382 0 0 0 62.090591
6.630609 -6.3377447 1.2330658 518.5 0 0 0 61.698727
7.2798719 -6.4595551 1.0699193 507 0 0 0 61.114994
7.8385415 -6.456275 1.1150556 601 0 0 0 60.5252
-33.99382 -5.9062953 1.1429052 8 0 0 0 96.905006
-3.7227626 -5.7620554 1.1664689 366 0 0 0 83.767555
-3.2718444 -5.7808881 1.2909082 395.39999 0 0 0 82.830566
16.396217 -5.8810349 1.0346202 207 0 0 0 55.05978
17.738977 -5.8738437 1.1076117 189 0 0 0 54.672539
21.603268 -5.9908667 1.3223779 104 0 0 0 53.892273
23.833088 -5.9817085 1.4464033 113 0 0 0 53.496101
-10.031845 -5.0595293 1.222629 364 0 0 0 92.217308
-5.0689492 -5.0783505 1.1461813 275 0 0 0 87.144196
-3.4234617 -5.2225494 1.3079227 439.66666 0 0 0 83.875427
4.1739936 -5.1145954 1.2262722 401 0 0 0 63.660542
-10.109299 -4.7911887 1.2176255 389 0 0 0 92.598579
-8.9431534 -4.5132213 1.3401548 252 0 0 0 92.217308
-3.6185226 -4.8874364 1.4244175 261 0 0 0 84.786148
-3.2714877 -4.5323 1.2450007 378.5 0 0 0 84.586533
-0.010046772 -4.8513384 1.0255886 286 0 0 0 74.623055
4.222147 -4.8029108 1.0310633 617.5 0 0 0 63.07856
15.633665 -4.7520471 1.3815808 115 0 0 0 54.27639
21.284737 -4.7899933 1.2894605 141 0 0 0 53.103409
31.195305 -4.6356583 1.0764461 54 0 0 0 51.938938
-6.9530759 -4.4139547 1.1076343 516 0 0 0 90.669037
-6.2051978 -4.156785 1.0076343 753 0 0 0 90.278442
-5.96699 -4.4358845 1.0030975 316 0 0 0 89.485504
-5.1877751 -4.1810884 1.1975198 453 0 0 0 88.853127
-4.8506498 -4.2984657 1.2800038 505.25 0 0 0 88.114197
-4.2622309 -4.2291746 1.2914852 396.60001 0 0 0 87.217819
-3.6841938 -4.1533141 1.2367803 419.20001 0 0 0 86.201889
-3.3304884 -4.3482738 1.2214136 408.33334 0 0 0 85.044312
2.2242391 -4.1988149 1.0087125 279 0 0 0 66.790192
34.705433 -4.2881751 1.1904217 33 0 0 0 51.542938
-3.8811581 -3.8897767 1.0214826 603 0 0 0 87.144196
35.322712 1.7358487 1.2118158 9 0 0 0 48.811619
34.987873 2.5827296 1.2036437 106 0 0 0 48.424259
34.93132 3.443615 1.2054201 127 0 0 0 48.026112
4.7233782 3.9272137 1.385747 115.5 0 0 0 38.657921
-15.218939 4.1894197 1.2708367 139 0 0 0 3.9119301
-14.240194 4.2945347 1.2001483 94 0 0 0 4.29316
-13.403261 4.0402417 1.4686558 114 0 0 0 4.29316
-5.0632682 4.2860322 1.3648546 416 0 0 0 10.93121
1.8778059 4.4055586 1.381557 135 0 0 0 31.23126
2.2051928 4.2637172 1.3864106 169 0 0 0 32.401619
2.7851899 4.3922539 1.2217946 354.5 0 0 0 33.761566
3.2401381 4.2816896 1.211046 406.90909 0 0 0 35.057804
3.6634152 4.1575222 1.1038021 425 0 0 0 36.230896
4.327147 4.251533 1.1963228 459.33334 0 0 0 37.35265
4.7154999 4.1230545 1.0258557 375.66666 0 0 0 38.268902
5.1489043 4.4997997 1.2857012 710 0 0 0 38.265339
5.715416 4.3598781 1.2294786 317.66666 0 0 0 39.312138
6.2755055 4.3508558 1.0510654 306.5 0 0 0 40.027596
7.1394911 4.3189387 1.1442695 184 0 0 0 41.00259
7.6232963 4.356101 1.2016799 373 0 0 0 41.39296
34.899246 4.3089261 1.2087063 118 0 0 0 47.636639
-5.324059 4.6228371 1.1910143 229.5 0 0 0 11.12348
-4.81002 4.8334455 1.321738 382 0 0 0 12.290464
-1.9294366 4.7479291 1.24309 3774 0 0 0 18.695717
-0.947712 4.9796758 1.0680879 93 0 0 0 21.857861
0.040403835 4.9756532 1.2982808 412 0 0 0 24.98398
2.1564765 4.5692291 1.3295273 163 0 0 0 31.81041
2.680723 4.7550244 1.2517071 285.5 0 0 0 32.934757
3.2559164 4.6006041 1.3434534 336 0 0 0 34.543571
4.2897663 4.5780268 1.3378284 102 0 0 0 36.703728
5.2401676 4.5738077 1.3073834 209 0 0 0 38.270679
6.0316434 4.522985 1.2256075 218 0 0 0 39.435101
7.5719004 4.5783296 1.4306567 191 0 0 0 41.00259
8.3919191 4.5211725 1.3007662 581 0 0 0 41.786846
8.8600073 4.7695365 1.1222545 270 0 0 0 41.786846
-6.1617718 5.1056504 1.1529036 138.5 0 0 0 10.736265
-5.4882565 5.3949194 1.2062651 458 0 0 0 12.10022
-4.7581191 5.1500936 1.2708889 273 0 0 0 12.873226
-1.6876426 5.275218 1.4290819 209 0 0 0 19.91024
1.8529935 5.1910009 1.2762338 244 0 0 0 30.249783
2.3369222 5.434536 1.1853124 316.25 0 0 0 31.226942
2.6303773 5.3712425 1.1987684 332.5 0 0 0 32.005661
3.0712001 5.2445097 1.294214 226 0 0 0 33.176971
3.6274734 5.2514434 1.2006186 201 0 0 0 34.351528
5.157001 5.4891486 1.0365689 382 0 0 0 36.703728
7.9175363 5.1940665 1.1755385 284.5 0 0 0 40.412144
34.879353 5.1797404 1.213113 119 0 0 0 47.251209
-7.6759591 5.9162831 1.2704788 817 0 0 0 10.15277
-5.2221203 5.6599026 1.0198452 164 0 0 0 12.86871
-4.8790441 5.5487747 1.3420633 69 0 0 0 13.27026
-0.2170994 5.5358028 1.0331435 299 0 0 0 24.19742
1.6612432 5.7274618 1.1921415 271 0 0 0 29.268745
2.2312374 5.5637984 1.2253189 217.33333 0 0 0 30.840141
7.8873944 5.8979516 1.0997132 270 0 0 0 39.435101
-7.748147 6.2822862 1.1869764 224.5 0 0 0 10.54132
-7.2302785 6.3122816 1.1441243 360.5 0 0 0 11.12348
-6.981791 6.242219 1.4601687 366 0 0 0 11.31575
-6.1794524 6.3928266 1.1718891 136 0 0 0 12.48071
-0.37989184 6.0665817 1.1291392 72 0 0 0 23.81399
1.7286046 6.1635733 1.1654857 204.2 0 0 0 29.117365
2.1652532 6.2625704 1.2362537 230.5 0 0 0 30.049669
34.90567 6.0640478 1.2197708 21 0 0 0 46.863998
-5.014225 6.9901371 1.3498967 96 0 0 0 14.83907
1.3565941 6.9179845 1.1950339 234 0 0 0 27.849747
1.6008618 6.699585 1.2840447 240 0 0 0 28.492849
3.5914466 6.8570151 1.444376 218 0 0 0 32.401619
19.312239 6.9295578 1.2302183 100 0 0 0 44.131474
20.540579 6.8034196 1.2946646 192 0 0 0 44.512119
22.397627 6.8101459 1.3967766 116 0 0 0 44.900318
-7.6061063 7.1520467 1.3691289 154 0 0 0 11.70825
-5.9057817 7.4499545 1.2536371 148 0 0 0 14.04442
-5.1146021 7.3245487 1.1818044 200.5 0 0 0 15.033115
-4.8440633 7.1137004 1.3512049 75 0 0 0 15.22716
0.83763885 7.4376273 1.3878161 559 0 0 0 26.54907
1.0289376 7.4712825 1.3989414 625 0 0 0 26.940941
1.548822 7.2411737 1.0100513 209 0 0 0 28.111219
29.463377 7.3924823 1.0540577 37 0 0 0 45.68354
32.906197 7.3997746 1.165015 51 0 0 0 46.07188
36.519096 7.272697 1.2809882 63 0 0 0 46.465721
-4.7751794 7.8162923 1.437547 121 0 0 0 15.99865
0.50859839 7.9899979 1.4800285 572 0 0 0 25.76897
1.8579056 7.7264152 1.2783478 160 0 0 0 28.492849
-0.68976474 8.2273321 1.3156592 625 0 0 0 23.412899
-0.28522921 8.2175064 1.260824 325.25 0 0 0 24.198435
0.21867462 8.1304817 1.2002575 369 0 0 0 25.178925
1.5560526 8.217164 1.3417075 126 0 0 0 27.71862
-0.50515091 8.6099005 1.1607428 225 0 0 0 23.81399
1.3062506 8.6147022 1.2881135 280 0 0 0 27.133869
20.962763 9.9413404 1.3872765 171 0 0 0 42.569649
22.115452 9.8277626 1.4449155 49 0 0 0 42.961273
-3.1715276 11.157213 1.2536285 67 0 0 0 20.293329
-10.315557 11.855345 1.2848232 185 0 0 0 13.27026
-4.2168813 11.549725 1.0258206 70 0 0 0 19.118799
-2.4488339 11.897426 1.0201249 39 0 0 0 21.464621
-9.5906668 12.175888 1.2695017 131 0 0 0 14.04442
-3.1135943 12.098819 1.0459551 89 0 0 0 20.68861
-2.1803417 12.089632 1.3299484 89 0 0 0 21.857861
-1.9041183 12.281981 1.3462133 48 0 0 0 22.24354
-1.2927941 12.304847 1.0426048 56 0 0 0 23.02598
-7.4171939 12.940417 1.2283697 140 0 0 0 16.39253
-1.6550359 12.754222 1.3928758 88 0 0 0 22.636549
-12.484625 13.019012 1.4673716 123 0 0 0 12.48071
-6.6533613 13.047456 1.208717 267 0 0 0 17.16951
-11.553367 13.96971 1.4776254 109 0 0 0 13.65363
-7.3944263 13.672773 1.2795218 137 0 0 0 16.77994
-10.541483 14.094694 1.4377055 89 0 0 0 14.44149
-9.6691856 14.339984 1.4154135 86 0 0 0 15.22716
-9.262763 14.489801 1.4086196 100 0 0 0 15.61009
-6.710999 14.008306 1.2808834 234 0 0 0 17.553909
-6.3911228 14.225732 1.2871448 151 0 0 0 17.948481
-10.363612 14.590503 1.4623038 89 0 0 0 14.83907
-9.119153 15.077013 1.0063211 47 0 0 0 15.99865
-8.7494545 19.557707 1.2221985 73 0 0 0 17.948481
-8.261198 19.751348 1.2229323 53 0 0 0 18.344601
-2.8349414 -8.2297211 1.5982547 628 0 0 0 79.895203
-2.4340467 -8.014802 1.5392414 597 0 0 0 79.314781
-1.0424516 -8.3975 1.7630975 160 0 0 0 76.575554
-0.72388291 -8.3080511 1.7383726 618.5 0 0 0 75.995232
-0.30969599 -8.1705284 1.7052777 660 0 0 0 75.210304
0.18702126 -8.0270996 1.6754305 583 0 0 0 74.234398
3.0802684 -8.0297527 1.7949268 399 0 0 0 68.753571
3.7104797 -8.1383181 1.8660305 537.5 0 0 0 67.776939
4.1084709 -8.1999903 1.9127904 470 0 0 0 67.183052
4.5559883 -8.077899 1.9341297 428 0 0 0 66.405167
9.3322172 -8.0719776 1.9554888 260 0 0 0 60.914101
12.638552 -8.0199909 1.9958849 227 0 0 0 58.577766
-2.1016152 -7.9591007 1.5134954 600 0 0 0 78.727585
0.38086289 -7.9679012 1.6648961 380 0 0 0 73.840431
0.76766443 -7.9077315 1.6589881 466 0 0 0 73.05291
1.258445 -7.9008803 1.670589 506 0 0 0 72.080414
1.7590348 -7.889894 1.6882793 635.33331 0 0 0 71.100861
2.2868323 -7.9375296 1.7247467 375.5 0 0 0 70.122391
2.7150745 -7.9364362 1.7512925 619 0 0 0 69.335953
3.2946134 -7.9965024 1.8050498 471 0 0 0 68.356468
3.5515695 -7.5485396 1.5376724 525 0 0 0 67.578835
4.7442865 -7.9496579 1.9309332 206 0 0 0 66.010323
8.7437391 -7.9476514 1.873926 329 0 0 0 61.315887
10.151148 -7.5479465 1.6915889 282 0 0 0 59.750031
10.957899 -7.7358942 1.7917606 270 0 0 0 59.355862
11.793656 -7.8978601 1.8941832 259 0 0 0 58.969872
14.094243 -7.5506015 1.7372891 201 0 0 0 57.400608
15.092816 -7.6133609 1.8350334 208 0 0 0 57.008831
16.5609 -7.848145 1.9866589 165 0 0 0 56.608887
3.3023398 -7.4908981 1.5094109 585 0 0 0 67.975044
4.2593331 -7.1379642 1.9409645 195 0 0 0 66.010323
4.5673075 -7.2431536 1.9985971 256 0 0 0 65.615875
8.7683821 -7.217103 1.5219456 334 0 0 0 60.5252
9.3981323 -7.3545847 1.5976813 388 0 0 0 60.143353
12.12816 -7.2879739 1.5409527 396 0 0 0 58.187519
12.892046 -7.3210964 1.6132313 288 0 0 0 57.794151
20.040751 -7.1822829 1.7863375 136 0 0 0 55.05978
21.598745 -7.1459627 1.9069486 138 0 0 0 54.672539
-3.1681948 -6.7025557 1.7291653 263 0 0 0 81.654724
4.3534713 -6.9082432 1.707678 415 0 0 0 65.615875
4.6425366 -6.7382331 1.8435854 259.66666 0 0 0 64.969055
5.336473 -6.5287476 1.969877 149 0 0 0 63.660542
16.602631 -6.8903265 1.51337 179 0 0 0 55.841278
18.075457 -6.9849176 1.6289682 119 0 0 0 55.443581
-4.050384 -6.4018917 1.5811814 447 0 0 0 83.612862
-3.8105154 -6.0251808 1.8388182 303 0 0 0 83.612862
-3.2522335 -6.3155818 1.8677937 352.60001 0 0 0 82.206078
4.8461981 -6.3984036 1.7780331 329.5 0 0 0 64.250351
5.2580075 -6.1213408 1.6887159 408.20001 0 0 0 63.273327
5.572341 -6.1747351 1.5355817 263 0 0 0 62.882633
6.024991 -6.0490561 1.8908381 362 0 0 0 62.090591
6.5149183 -6.2268534 1.772568 469 0 0 0 61.698727
-33.645164 -5.845892 1.9676853 18 0 0 0 96.905006
-8.7228661 -5.8404202 1.6618446 149 0 0 0 90.278442
-7.6270452 -5.6680236 1.5073893 157 0 0 0 89.485504
-3.693079 -5.6831698 1.6677846 293.75 0 0 0 83.806305
-3.1548972 -5.7379456 1.612148 487.25 0 0 0 82.637283
5.4044666 -5.9876719 1.8865639 361 0 0 0 62.882633
5.6959543 -5.9328771 1.669369 493.75 0 0 0 62.386024
29.781769 -5.9347425 1.7800949 47 0 0 0 52.716938
-8.6096992 -5.1722574 1.5917296 213 0 0 0 91.060127
-8.0441904 -5.1054988 1.5115798 317 0 0 0 90.669037
-7.7285495 -5.454535 1.5008174 308 0 0 0 89.884598
-3.7452455 -5.3270907 1.7584341 294 0 0 0 84.386917
-3.2460029 -5.3242121 1.7149282 439.66666 0 0 0 83.350113
-8.5566378 -4.5851932 1.5398483 183 0 0 0 91.828621
-5.0157714 -4.5573211 1.5842609 351 0 0 0 87.923317
-4.6398296 -4.5933595 1.6892291 351.5 0 0 0 87.240425
-4.1496692 -4.6682048 1.8738518 301 0 0 0 86.22773
-3.7326326 -4.6749368 1.8455641 319.5 0 0 0 85.374489
-3.3336926 -4.7410817 1.6450558 272.66666 0 0 0 84.393257
15.539094 -4.7236629 1.7686623 166 0 0 0 54.27639
21.237032 -4.7757831 1.8293267 119 0 0 0 53.103409
27.151932 -4.7205634 1.62015 51 0 0 0 52.319759
48.930443 -4.8277411 1.6592517 7 0 0 0 51.148071
-4.1571069 -4.3770308 1.7134563 257 0 0 0 86.753754
-3.8198383 -4.4373527 1.6607853 281.33334 0 0 0 85.964943
-3.4870653 -4.4768033 1.6111431 373 0 0 0 85.174545
49.193314 -1.2125462 1.6654972 6 0 0 0 49.979088
-10.282137 2.819685 1.9061062 28 0 0 0 3.9119301
-14.785325 3.3002319 1.9538682 101 0 0 0 3.1215401
-11.565421 3.4798188 1.8611531 73 0 0 0 4.29316
-10.45257 3.1421256 1.9514582 51 0 0 0 4.29316
-14.578337 3.8179755 1.9451385 36 0 0 0 3.7145
-13.801776 3.7967334 1.5003237 150 0 0 0 3.9119301
3.5787747 3.8325851 1.7754699 162 0 0 0 36.703728
-16.936586 4.2229466 1.8218188 55 0 0 0 3.5170701
-14.171103 4.2702913 1.9118996 165 0 0 0 4.29316
-6.1460958 4.2588391 1.8941845 171 0 0 0 9.3684502
-5.6921816 4.1486797 1.7880657 87 0 0 0 9.76124
1.9702895 4.3291087 1.8423852 40 0 0 0 31.61516
2.1655474 4.4507294 1.6726499 176 0 0 0 32.005661
2.5930781 4.2138505 1.7963245 138 0 0 0 33.563438
4.5246401 4.163918 1.6157882 131 0 0 0 37.880219
8.3204441 4.2215586 1.7377601 152 0 0 0 42.180832
-7.0522122 4.6455245 1.9314145 148 0 0 0 8.9799604
-6.0246496 4.7441177 1.7583114 160.5 0 0 0 10.347045
-5.3082438 4.7230897 1.8046097 128 0 0 0 11.31575
-4.5690689 4.6990042 1.5097457 150 0 0 0 12.48071
-4.1902232 4.518477 1.5708196 190 0 0 0 12.86871
-2.6081626 4.7074742 1.6451778 32 0 0 0 16.77994
-2.0147467 4.6466041 1.553495 4239 0 0 0 18.344601
-1.8227248 4.8469272 1.5868907 2027 0 0 0 19.118799
1.6925182 4.585753 1.6496624 141 0 0 0 30.44619
2.0228271 4.7396045 1.9284929 135.5 0 0 0 31.23126
2.7313783 4.8570757 1.6933385 234.66667 0 0 0 32.918835
3.0486321 4.8008108 1.9181844 323 0 0 0 33.760223
3.7278008 4.8702688 1.8378184 192.5 0 0 0 35.126419
4.4583397 4.5286632 1.5111196 195 0 0 0 37.09042
7.4859948 4.5268717 1.8486707 241 0 0 0 41.00259
7.7050171 4.8359475 1.7717613 159.33333 0 0 0 40.737209
8.2024374 4.6844296 1.5241591 188 0 0 0 41.39296
8.8020515 4.7405658 1.8589092 202 0 0 0 41.786846
-4.1557274 5.2039475 1.8617742 178 0 0 0 14.04442
-1.6716627 5.2217102 1.5500749 83 0 0 0 19.91024
2.1885145 5.4674644 1.5417284 150 0 0 0 30.84297
3.1111472 5.123445 1.8202744 175.33333 0 0 0 33.434616
3.8816988 5.3323393 1.8917284 157 0 0 0 34.735619
7.862361 5.1601839 1.5179269 401.5 0 0 0 40.412144
-6.3519936 5.8112974 1.8697777 123 0 0 0 11.512
-5.4887033 5.9498711 1.8599969 327 0 0 0 12.86871
-4.7234669 5.6426272 1.5164804 150 0 0 0 13.65363
2.2958341 5.7220392 1.6125226 125 0 0 0 30.838726
2.6694264 5.6258984 1.8613515 215 0 0 0 31.81041
8.2607517 5.5649843 1.8524078 148 0 0 0 40.219769
-7.2123079 6.1390796 1.7077338 134 0 0 0 10.93121
-6.6370201 6.228837 1.6436749 271 0 0 0 11.70825
-6.1655407 6.0683208 1.9844359 535 0 0 0 12.10022
-5.4068995 6.157125 1.8833729 106 0 0 0 13.27026
2.7481177 6.3719573 1.638978 127 0 0 0 31.23126
3.3311009 6.3736186 1.8759345 93 0 0 0 32.401619
4.0412254 6.1561756 1.559886 277 0 0 0 33.957008
18.850468 6.2487636 1.6870842 211 0 0 0 44.512119
-8.7876759 6.7830424 1.7231165 498 0 0 0 10.15277
-5.2875752 6.7717323 1.6278119 177.66667 0 0 0 14.176777
3.0952201 6.7060313 1.8325281 142 0 0 0 31.61516
13.243897 6.6986551 1.6345973 102 0 0 0 42.180832
16.699173 6.9436779 1.5412484 114 0 0 0 43.347561
18.541725 6.6574721 1.6743717 108 0 0 0 44.131474
-7.8730311 7.4055018 1.681527 431 0 0 0 11.70825
-6.878758 7.4856586 1.8351526 161 0 0 0 12.86871
0.37281454 7.4162197 1.7390621 668 0 0 0 25.571421
1.2732201 7.4459844 1.8963385 367.33334 0 0 0 27.457405
1.6741124 7.3841801 1.9648541 458.5 0 0 0 28.302034
18.430794 7.13449 1.6799695 53 0 0 0 43.738911
25.753004 7.1407533 1.5880383 105 0 0 0 45.301208
28.444733 7.1371222 1.7379012 100 0 0 0 45.68354
-6.5019174 7.8094225 1.5865092 110 0 0 0 13.65363
0.38559189 7.5856781 1.5923622 686.5 0 0 0 25.571421
0.76558262 7.627676 1.6086094 649 0 0 0 26.354931
1.4031043 7.7906861 1.7256031 381 0 0 0 27.588013
1.7737832 7.6632805 1.7821018 416.66666 0 0 0 28.365639
2.1406081 7.6506281 1.8661678 242 0 0 0 29.077335
16.380497 7.7779694 1.5458218 133 0 0 0 42.569649
16.894009 7.5172143 1.5751852 134 0 0 0 42.961273
-0.69190758 8.250268 1.5235721 348 0 0 0 23.412899
-0.18842971 8.4383869 1.9684544 315.5 0 0 0 24.391165
1.2299891 8.1294422 1.6216316 219 0 0 0 27.133869
1.7726454 8.2452736 1.7697592 213 0 0 0 28.111219
1.6521212 8.7034779 1.6381091 170 0 0 0 27.71862
-0.53062028 9.0951328 1.8975304 157 0 0 0 23.81399
-0.19601502 9.1977406 1.917501 423.5 0 0 0 24.391165
0.14305238 9.1943455 1.9180551 491 0 0 0 24.98398
-0.082813658 9.6593485 1.7746348 45 0 0 0 24.584909
0.15712401 9.7487783 1.6715571 282.5 0 0 0 24.98398
0.6527071 9.9498796 1.5872415 268 0 0 0 25.76897
23.567064 9.7844553 1.5208428 127 0 0 0 43.347561
-8.5642242 11.422343 1.8672222 128 0 0 0 14.44149
-13.207359 11.887897 1.87255 153 0 0 0 11.31575
-8.7682505 12.324044 1.6071295 193 0 0 0 14.83907
-3.6854482 12.408831 1.7115364 69 0 0 0 20.101784
-1.5918418 12.219598 1.638543 183 0 0 0 22.636549
-7.3204422 12.76499 1.7485595 108 0 0 0 16.39253
-13.163026 13.072337 1.9555964 86 0 0 0 12.10022
-2.0500565 13.244224 1.7774807 85 0 0 0 22.24354
-12.479622 13.669577 1.953413 100 0 0 0 12.86871
-10.343651 13.8267 1.8288088 90 0 0 0 14.44149
-8.2398062 13.600948 1.6909173 119 0 0 0 15.99865
-7.0656347 13.864911 1.6585065 262 0 0 0 17.16951
-3.5226567 13.715333 1.8707328 46 0 0 0 20.68861
-11.774794 14.238326 1.952183 43 0 0 0 13.65363
-6.7139945 14.012928 1.6573787 159 0 0 0 17.553909
-9.9061842 14.69329 1.8780686 76 0 0 0 15.22716
-3.3690665 14.623047 1.7972085 29 0 0 0 21.074169
-8.2585239 15.287738 1.8464888 82 0 0 0 16.77994
-3.1818912 15.577233 1.7086422 45 0 0 0 21.464621
-7.4031358 17.667377 1.5739356 60 0 0 0 18.344601
-4.7584987 -11.489622 2.2688353 143 0 0 0 80.876793
-4.2377195 -11.395306 2.3669574 189 0 0 0 80.288834
-4.8027835 -10.602173 2.2207181 298.66666 0 0 0 81.395927
-1.5461783 -10.397013 2.4388762 256 0 0 0 76.96315
-1.154886 -10.357885 2.4188042 179.5 0 0 0 76.383896
-0.77002424 -10.362263 2.4116793 261 0 0 0 75.798225
0.21331532 -9.0282879 2.1009593 244 0 0 0 74.234398
3.460238 -9.009881 2.246098 413 0 0 0 68.753571
3.7178407 -9.0136013 2.2689822 441 0 0 0 68.356468
4.1540642 -9.1032791 2.3282046 412.5 0 0 0 67.776939
4.7471437 -9.1811438 2.4042335 376 0 0 0 66.986618
0.42468747 -8.8262596 2.0566375 462 0 0 0 73.840431
0.733657 -8.6340256 2.0178273 554.5 0 0 0 73.250732
1.2608203 -8.5735178 2.018687 486.33334 0 0 0 72.272697
1.8141158 -8.6222029 2.0522177 461.5 0 0 0 71.295044
2.3020396 -8.7817135 2.1139119 437.5 0 0 0 70.513824
2.8006048 -8.8825808 2.1682515 507.5 0 0 0 69.730576
3.1774709 -8.9218931 2.2044654 477 0 0 0 69.140381
11.599321 -8.6220255 2.285126 219 0 0 0 59.750031
12.583318 -8.8806858 2.4330249 137 0 0 0 59.355862
15.935159 -8.5314941 2.4037676 104 0 0 0 57.400608
4.6111541 -8.1720066 2.1861234 264 0 0 0 66.405167
5.347537 -8.0352316 2.0119684 208 0 0 0 65.2295
10.148805 -8.3499889 2.0806723 282 0 0 0 60.5252
10.792661 -8.4429073 2.1681397 252 0 0 0 60.143353
13.541247 -8.132143 2.1045117 210 0 0 0 58.187519
14.542063 -8.2529078 2.2260349 207 0 0 0 57.794151
18.098888 -8.0373096 2.1441646 135 0 0 0 56.224041
19.672802 -8.1625481 2.303767 111 0 0 0 55.841278
21.343634 -8.2461348 2.4726689 138 0 0 0 55.443581
3.9904492 -7.4994321 2.191071 57 0 0 0 66.790192
4.2209311 -7.1528306 2.2675512 248.8 0 0 0 66.089371
26.402254 -7.3153844 2.2900333 39 0 0 0 53.892273
4.4113369 -6.7513108 2.2814772 267.33334 0 0 0 65.358284
4.6049843 -6.6847248 2.2947867 225.66667 0 0 0 64.969055
4.7175303 -6.3236413 2.1173606 341.20001 0 0 0 64.36805
5.2393923 -6.1585827 2.1696746 362.39999 0 0 0 63.350536
5.7372899 -6.149004 2.3118041 323.33334 0 0 0 62.617214
6.1976447 -6.068121 2.1319747 298 0 0 0 61.894661
6.5921893 -6.2985702 2.3526158 229 0 0 0 61.698727
-3.6739411 -5.7476039 2.1643431 205.2 0 0 0 83.691574
-4.2003961 -5.2174425 2.3356216 400.33334 0 0 0 85.437645
-3.8022971 -5.2446642 2.2811751 220.60001 0 0 0 84.62645
-4.3430076 -4.7265735 2.1889179 217.66667 0 0 0 86.489624
-3.8484769 -4.6998549 2.0967243 185.5 0 0 0 85.571312
15.535894 -4.7200365 2.1682289 141 0 0 0 54.27639
21.189676 -4.7655482 2.3537047 103 0 0 0 53.103409
27.035017 -4.6958966 2.2973273 55 0 0 0 52.319759
34.65023 -4.2819753 2.0441141 39 0 0 0 51.542938
-10.001087 2.4800284 2.3416641 106 0 0 0 3.5170701
-12.012794 2.9859607 2.2086895 124 0 0 0 3.5170701
-11.656444 2.5971251 2.4215736 25 0 0 0 3.1215401
-9.77882 2.6782525 2.3051074 117 0 0 0 3.9119301
-11.250437 3.2345328 2.3760755 86.5 0 0 0 4.1025448
-9.5321951 3.374145 2.301105 72 0 0 0 5.0724201
-14.40823 3.9613955 2.295882 48 0 0 0 3.9119301
-11.237408 3.6806226 2.2552724 173 0 0 0 4.6865301
-10.685429 3.7886515 2.3034804 26 0 0 0 5.0724201
-6.6125159 3.6885481 2.4682388 117 0 0 0 7.8130398
-6.3353262 3.7347965 2.1314757 100 0 0 0 8.1965647
-6.8711333 4.056181 2.4067702 137 0 0 0 8.1948099
-6.0972991 4.0075874 2.0266478 280 0 0 0 8.9799604
-5.755271 4.1945372 2.3262355 87 0 0 0 9.76124
7.3241811 4.1883388 2.2001722 124 0 0 0 41.39296
-5.5252709 4.9184551 2.4195893 262 0 0 0 11.31575
2.3016343 4.7266049 2.0324612 60 0 0 0 32.005661
3.5502739 4.8893757 2.3340154 207 0 0 0 34.735619
-6.1041365 5.1807375 2.0300922 199 0 0 0 10.93121
-5.7624321 5.1328087 2.2398713 204 0 0 0 11.31575
-5.4070721 5.1805458 2.1764531 132 0 0 0 11.904235
-4.4348741 5.2828956 2.4299424 100 0 0 0 13.65363
-6.8207059 5.7977223 2.4875102 437 0 0 0 10.93121
-5.7644377 5.9526658 2.1038713 240 0 0 0 12.48071
-5.2532682 5.6882181 2.2546625 211.5 0 0 0 12.86871
-4.3251104 5.7016735 2.1740975 112 0 0 0 14.44149
12.406235 5.9003825 2.1959007 97 0 0 0 42.569649
-7.35498 6.2595673 2.2886312 203.33333 0 0 0 10.929427
-6.5517015 6.1436329 2.4975994 213 0 0 0 11.70825
-5.3780847 6.4357548 2.3382163 167 0 0 0 13.65363
-4.7671232 6.2994046 2.2055023 131 0 0 0 14.44149
11.159697 6.360899 2.3755767 149 0 0 0 41.39296
12.223619 6.1876287 2.190233 185 0 0 0 42.180832
-8.8102331 6.9142737 2.1956608 221.66667 0 0 0 10.282287
-5.6737423 6.7961159 2.2491283 176 0 0 0 13.65363
-4.7662177 6.6326604 2.280479 191 0 0 0 14.83907
9.1544237 6.666254 2.1000185 309.5 0 0 0 39.635262
12.261802 6.5911212 2.2249308 109 0 0 0 41.786846
20.456711 6.7793684 2.3517361 200 0 0 0 44.512119
1.288464 7.2012362 2.1397088 504 0 0 0 27.588013
1.5447612 7.2422972 2.1964927 389.5 0 0 0 28.111219
7.9495902 7.2690148 2.2652178 347 0 0 0 37.880219
18.803276 7.2781053 2.20386 34 0 0 0 43.738911
33.050793 7.4318438 2.0002334 51 0 0 0 46.07188
36.502998 7.2690377 2.1925871 12 0 0 0 46.465721
1.3038409 7.9984012 2.4982357 499 0 0 0 27.326799
1.888104 7.8644018 2.3963056 217.5 0 0 0 28.492849
7.7310348 7.8025093 2.3085527 334 0 0 0 37.09042
17.155272 7.6330004 2.055999 92 0 0 0 42.961273
18.115978 7.5306087 2.1459413 100 0 0 0 43.347561
-0.15277979 8.2730188 2.2010648 446.66666 0 0 0 24.455748
0.25623187 8.3137589 2.2831707 383 0 0 0 25.243906
0.73077804 8.249959 2.2630081 385.60001 0 0 0 26.159374
1.1536118 8.3361692 2.3848081 424 0 0 0 26.940941
2.4441326 8.3215542 2.2469828 163 0 0 0 29.277479
17.061998 8.1003485 2.068135 98 0 0 0 42.569649
0.12861085 8.674407 2.0236757 316 0 0 0 24.98398
0.98492199 8.6563206 2.0362811 487 0 0 0 26.54907
-8.9366732 9.2867889 2.0012765 108 0 0 0 12.48071
-0.61564064 9.2017288 2.2198517 395.66666 0 0 0 23.680292
0.81388205 9.1158066 2.3606184 152 0 0 0 26.160789
1.3015708 9.3348017 2.315984 298 0 0 0 26.940941
-7.6940899 10.791907 2.3891158 169 0 0 0 14.83907
-6.6797738 10.990623 2.3222532 197 0 0 0 15.99865
-9.0582809 11.486512 2.2715449 144 0 0 0 14.04442
-8.4327669 11.244158 2.184696 70 0 0 0 14.44149
-7.1034155 11.071033 2.373373 195 0 0 0 15.61009
-1.1958531 11.270788 2.34921 81 0 0 0 23.02598
0.47709712 11.398441 2.0913923 134 0 0 0 25.373871
-6.7237124 11.706443 2.4371083 170 0 0 0 16.39253
-6.4911051 11.972377 2.4593489 181 0 0 0 16.77994
-12.864676 12.768541 2.3550186 44 0 0 0 12.10022
-8.2610035 12.898978 2.3813972 152 0 0 0 15.61009
-3.7273474 13.148009 2.4798551 23 0 0 0 20.293329
-79.100586 13.74359 2.3529677 11 0 0 0 2.3475201
-7.0958586 13.91728 2.0474908 253 0 0 0 17.16951
-6.998755 13.722878 2.3992076 116 0 0 0 17.16951
-3.5007455 13.624952 2.2058568 40 0 0 0 20.68861
-12.207643 14.041629 2.4200788 46 0 0 0 13.27026
-11.819941 14.28703 2.4130702 101 0 0 0 13.65363
-9.0872927 14.204402 2.2028167 105 0 0 0 15.61009
-2.1843073 14.141872 2.2487166 56 0 0 0 22.24354
-8.9916286 14.847793 2.2677155 112 0 0 0 15.99865
-12.461128 15.852828 2.128576 60 0 0 0 14.04442
-1.2740893 16.114834 2.1405907 43 0 0 0 23.412899
-1.7918152 17.317364 2.3009386 78 0 0 0 23.02598
-7.5754247 18.080812 2.0847826 28 0 0 0 18.344601
-8.4493675 18.866497 2.1947351 33 0 0 0 17.948481
-6.2449398 18.645432 2.0959353 23 0 0 0 19.51449
-3.3307002 -12.026917 2.5837076 222 0 0 0 78.926643
-4.7740026 -11.52705 2.5827882 309 0 0 0 80.876793
-4.4384403 -11.506213 2.5534105 351 0 0 0 80.487312
-3.5171576 -11.588267 2.5081463 285 0 0 0 79.314781
-3.7971735 -11.490273 2.5062785 303 0 0 0 79.70005
0.80670452 -11.054764 2.8433433 331 0 0 0 73.445557
-0.53784132 -10.82465 2.5141895 67 0 0 0 75.404488
1.050806 -10.764075 2.7753773 393 0 0 0 73.055901
-1.5140737 -10.179877 2.6410372 199 0 0 0 76.96315
-1.1282148 -10.130683 2.7432356 194 0 0 0 76.383896
-0.76063377 -10.233837 2.7607272 211.5 0 0 0 75.798225
1.4798219 -10.047791 2.6087205 210 0 0 0 72.271873
2.7082109 -10.319496 2.8714163 132 0 0 0 70.513824
12.209093 -10.040807 2.8863101 134 0 0 0 60.5252
12.907537 -10.093376 2.990864 156 0 0 0 60.143353
1.4605564 -9.918396 2.8244197 278 0 0 0 72.271873
1.7936993 -9.8208981 2.7606673 259.20001 0 0 0 71.72876
2.2702444 -9.7850599 2.6643317 232.66667 0 0 0 70.971916
2.9054568 -9.6232243 2.7079244 242.5 0 0 0 69.929619
3.3125892 -9.6688843 2.6271081 312 0 0 0 69.335953
3.7338643 -9.7187767 2.8040895 91 0 0 0 68.753571
11.174749 -9.661335 2.6993899 152 0 0 0 60.914101
16.119122 -9.677268 2.9631245 109 0 0 0 58.187519
3.2331324 -9.4402704 2.8135557 135 0 0 0 69.335953
10.179284 -9.2487555 2.5155342 242 0 0 0 61.315887
13.504387 -9.0409918 2.5656266 140 0 0 0 58.969872
14.764415 -9.3662119 2.7578831 129 0 0 0 58.577766
19.478912 -9.2247066 2.8599844 102 0 0 0 56.608887
17.777788 -8.9615421 2.6442323 127 0 0 0 57.008831
4.273355 -8.0284433 2.569191 128 0 0 0 66.790192
4.2554064 -7.5415273 2.6610634 206 0 0 0 66.405167
14.179296 -7.593832 2.9408114 101 0 0 0 57.400608
22.118595 -7.9262552 2.5387928 153 0 0 0 55.05978
23.104708 -7.6439648 2.6289721 41 0 0 0 54.672539
-50.422638 -7.4887614 2.9201634 11 0 0 0 97.296387
4.4011974 -7.3733215 2.7466483 227 0 0 0 66.010323
4.5838757 -7.1394868 2.7485578 240.66667 0 0 0 65.487083
14.283467 -7.2037396 2.9256961 42 0 0 0 57.008831
29.807142 -7.4742713 2.5647337 35 0 0 0 53.496101
4.8554587 -6.9233546 2.8098929 191 0 0 0 64.838829
5.1973438 -6.7710519 2.7847042 221.5 0 0 0 64.152718
5.7772632 -6.7232008 2.9451187 75 0 0 0 63.274487
5.2342868 -6.4002533 2.5449944 259.33334 0 0 0 63.662033
5.7946205 -6.416059 2.6595917 309 0 0 0 62.882633
6.2655292 -6.2887673 2.5120726 43 0 0 0 62.090591
13.370864 -6.3371897 2.7098238 23 0 0 0 56.608887
13.593802 -6.0381136 2.7244527 27 0 0 0 56.224041
-33.602322 -5.8446231 2.8146806 5 0 0 0 96.905006
15.465201 -4.6992221 2.9601572 164 0 0 0 54.27639
15.503542 -4.7105379 2.565531 166 0 0 0 54.27639
21.113909 -4.7450581 2.8783646 87 0 0 0 53.103409
26.947042 -4.6811228 2.9552453 47 0 0 0 52.319759
34.571152 -4.2667041 2.9077075 19 0 0 0 51.542938
-10.660854 1.8328202 2.9831085 146 0 0 0 2.3475201
-11.108285 2.1897092 2.8446946 18 0 0 0 2.7319701
-10.733505 2.2528276 2.8893294 21.5 0 0 0 2.926755
-10.841348 2.8311799 2.8174882 42 0 0 0 3.7145
-10.463781 2.8671682 2.9949958 110 0 0 0 3.9119301
-8.0963774 2.8568735 2.9991176 128 0 0 0 5.0724201
-6.7690258 2.5691934 2.617357 74.5 0 0 0 5.4635
-10.784824 3.3826308 2.8435719 207 0 0 0 4.4898453
-11.75137 3.5332484 2.7872033 127 0 0 0 4.29316
-10.776981 3.5261617 2.5775797 229 0 0 0 4.6865301
-9.5550766 3.9148605 2.8550308 27 0 0 0 5.8583698
-6.7628613 3.557091 2.8588979 89 0 0 0 7.4113998
-6.2385621 3.6754737 2.7109733 65 0 0 0 8.1948099
-10.929694 4.1759787 2.6607561 132 0 0 0 5.4635
-7.0451736 4.3955021 2.505125 102 0 0 0 8.5800896
-8.0246248 4.7486167 2.5840757 165 0 0 0 8.1948099
-5.3834763 4.7864127 2.5308273 309 0 0 0 11.31575
-7.7431817 5.3820157 2.6157451 90 0 0 0 9.3684502
-7.328908 5.0891323 2.802494 135 0 0 0 9.3684502
-5.4537573 5.2252073 2.6522841 140 0 0 0 11.904235
-6.7157583 5.7048769 2.6631379 106 0 0 0 10.93121
-4.5270681 5.6730576 2.7330368 82 0 0 0 14.04442
-4.3112941 5.9815631 2.5998061 255 0 0 0 14.83907
11.268272 5.8236423 2.7620146 245.66667 0 0 0 42.049503
12.281882 5.8415051 2.5120757 106 0 0 0 42.569649
-7.4974427 6.0704942 2.6783557 492 0 0 0 10.54132
-5.5802927 6.354073 2.5623376 140 0 0 0 13.27026
11.089558 6.3211689 2.6760838 233 0 0 0 41.39296
-8.8147392 6.6295118 2.7871156 220.5 0 0 0 9.9570045
-6.2987838 6.5099244 2.7412839 164 0 0 0 12.48071
-5.6249433 6.7349911 2.8741951 105 0 0 0 13.65363
10.160364 6.8352685 2.5693049 221 0 0 0 40.219769
20.419828 6.7709823 2.8778682 98 0 0 0 44.512119
-7.5728445 7.1151872 2.6308942 307 0 0 0 11.70825
-5.3416715 7.2557898 2.8429537 167 0 0 0 14.64028
16.284847 7.25038 2.8357646 112 0 0 0 42.961273
16.902878 7.0313191 2.9107797 139 0 0 0 43.347561
17.583157 7.3133798 2.5536656 82 0 0 0 43.347561
19.198877 7.4344931 2.7568517 66 0 0 0 43.738911
33.139812 7.4575119 2.8524342 68 0 0 0 46.07188
42.065315 7.3050222 2.5078616 29 0 0 0 46.863998
1.7587522 7.6186943 2.6714146 307.66666 0 0 0 28.365639
2.2544632 7.7046685 2.8114128 311.33334 0 0 0 29.271658
2.7448003 7.9051747 2.9983237 143 0 0 0 30.049669
9.1933928 7.731565 2.619446 251 0 0 0 38.529209
9.7948732 7.701889 2.9194572 148 0 0 0 39.050499
10.911259 7.7341046 2.8018746 89 0 0 0 39.835419
17.385136 7.7385035 2.5521648 70 0 0 0 42.961273
0.78327143 8.403965 2.7633643 327.20001 0 0 0 26.237738
1.208449 8.2356958 2.703269 355.66666 0 0 0 27.069559
2.4284291 8.2736015 2.8744552 182 0 0 0 29.277479
2.7263846 8.152792 2.8676336 228 0 0 0 29.854984
3.4177482 8.4477386 2.8136699 375 0 0 0 30.84297
3.7319067 8.0575142 2.9647236 127 0 0 0 31.61516
7.3419166 8.3195066 2.6936529 225.33333 0 0 0 36.176498
10.874093 8.11728 2.8421106 88 0 0 0 39.435101
33.163742 8.3244371 2.8718481 64 0 0 0 45.68354
-6.0862393 8.5050278 2.6559422 82 0 0 0 14.83907
-0.52568948 8.9358692 2.5247078 204 0 0 0 23.81399
-0.3056843 8.8972397 2.6215348 245.5 0 0 0 24.19742
1.6573126 8.7508574 2.9632823 110 0 0 0 27.71862
2.9236612 8.7433224 2.7276716 143.5 0 0 0 29.854984
3.1312361 8.6455078 2.72295 271 0 0 0 30.247929
5.747263 8.7170525 2.9666762 82 0 0 0 33.957008
-7.1851454 9.0812397 2.9359782 87 0 0 0 14.04442
-0.086925775 9.0380983 2.9965534 139 0 0 0 24.584909
2.7585983 9.3708982 2.7663956 200 0 0 0 29.271658
3.0534804 9.4878187 2.5770361 177 0 0 0 29.660299
8.513834 9.0221291 2.9055293 92 0 0 0 36.703728
3.7174172 9.8469896 2.9828312 210 0 0 0 30.44619
-10.672502 10.067926 2.9917138 167 0 0 0 11.70825
5.1815748 10.141596 2.8056917 173 0 0 0 32.20364
33.247223 10.106224 2.9195895 63 0 0 0 44.900318
3.7034402 10.578231 2.8936558 296 0 0 0 30.049669
-9.6080046 11.026554 2.9866955 151 0 0 0 13.27026
-9.2704124 11.179976 2.6119182 79 0 0 0 13.65363
1.0448442 11.474768 2.6793518 148 0 0 0 26.160789
3.6207981 11.208117 2.7483048 170 0 0 0 29.660299
-8.6622543 11.551303 2.9522467 69 0 0 0 14.44149
-7.8407764 11.594639 2.5224743 119 0 0 0 15.22716
-6.239953 11.501616 2.6845982 289 0 0 0 16.77994
-7.9070406 12.337909 2.9994321 65 0 0 0 15.61009
-7.1037827 12.37549 2.9237165 138 0 0 0 16.39253
-6.2854261 12.304672 2.6633463 72 0 0 0 17.16951
-5.5926852 12.410561 2.7955737 138 0 0 0 17.948481
-6.0195293 12.533694 2.6834612 257.5 0 0 0 17.553909
-5.835444 12.959283 2.5691464 14 0 0 0 17.948481
-11.886356 13.008335 2.7264605 67 0 0 0 12.86871
-1.0639454 13.251698 2.7507279 198 0 0 0 23.412899
-2.7309127 15.230179 2.8093472 32 0 0 0 21.857861
-9.1152964 15.926475 2.8491142 61 0 0 0 16.39253
-3.0196798 16.895187 2.6882124 48 0 0 0 21.857861
-1.7850888 17.239937 2.719167 106 0 0 0 23.02598
-8.5236845 17.828459 2.5825558 35 0 0 0 17.553909
-7.4291553 17.716549 2.5149038 21 0 0 0 18.344601
-8.2714844 18.454159 2.643806 19 0 0 0 17.948481
-2.3648524 18.460281 2.9153848 19 0 0 0 22.636549
-0.0068112533 -12.05179 3.3872244 6 0 0 0 74.623055
0.28867263 -12.058256 3.2397912 47 0 0 0 74.234398
0.27472892 -11.419695 3.4931161 253 0 0 0 74.234398
0.53966254 -11.132742 3.272284 197.5 0 0 0 73.840431
12.235786 -11.112658 3.4222984 70 0 0 0 61.315887
1.0476234 -10.722785 3.1648231 193.5 0 0 0 73.055901
2.8975096 -10.517187 3.0717156 132 0 0 0 70.315155
15.096056 -10.650381 3.368367 125 0 0 0 59.355862
2.5442379 -10.200035 3.2194784 96 0 0 0 70.712494
13.942913 -10.360159 3.1688569 96 0 0 0 59.750031
18.120667 -10.280088 3.2798469 75 0 0 0 57.794151
1.4582601 -9.8973446 3.1885478 195.5 0 0 0 72.271873
1.857687 -9.8063879 3.2216539 172.66667 0 0 0 71.621956
2.2783165 -9.6407709 3.1588073 187 0 0 0 70.907059
2.8144443 -9.5986071 3.1488934 186 0 0 0 70.058136
3.3138266 -9.7993355 3.2544405 147.33333 0 0 0 69.401146
3.7045557 -9.6405258 3.2925076 112.5 0 0 0 68.753571
2.597312 -9.4338465 3.2412164 129 0 0 0 70.315155
3.3325963 -9.3554125 3.2901371 275 0 0 0 69.140381
20.871042 -9.2623701 3.0283365 80 0 0 0 56.224041
22.338358 -9.2627077 3.2055929 84 0 0 0 55.841278
23.646357 -9.1302605 3.3589365 34 0 0 0 55.443581
24.586308 -8.8049974 3.4602935 26 0 0 0 55.05978
13.053159 -8.2833548 3.2071602 22 0 0 0 58.577766
12.561661 -7.9693546 3.4523382 32 0 0 0 58.577766
13.303208 -7.9903917 3.2198267 43 0 0 0 58.187519
13.516039 -7.6727147 3.2252917 26 0 0 0 57.794151
22.997061 -7.6044068 3.2132103 62 0 0 0 54.672539
13.151056 -7.0446081 3.0982976 148 0 0 0 57.400608
14.266227 -7.1953797 3.3159804 170 0 0 0 57.008831
12.382219 -6.6311975 3.2638078 22 0 0 0 57.400608
12.510178 -6.3091049 3.256423 54 0 0 0 57.008831
13.66036 -6.4743857 3.1401618 45 0 0 0 56.608887
14.101186 -6.2632818 3.2048571 22 0 0 0 56.224041
13.31948 -5.9143238 3.386745 151 0 0 0 56.224041
13.881738 -5.7618275 3.1235719 72 0 0 0 55.841278
15.434709 -4.6902833 3.3521049 140 0 0 0 54.27639
21.018217 -4.7239857 3.3995035 51 0 0 0 53.103409
-11.701311 2.6044769 3.3064129 22 0 0 0 3.1215401
-11.253634 2.7929749 3.1992583 166 0 0 0 3.5170701
-10.847275 2.689141 3.3554659 10 0 0 0 3.5170701
-10.228171 2.6666131 3.3047442 67 0 0 0 3.7145
-9.8093481 2.9439971 3.3273633 44 0 0 0 4.29316
-10.516248 3.1585677 3.0317941 183 0 0 0 4.29316
-10.490049 3.4310071 3.0481853 58 0 0 0 4.6865301
-9.7955465 3.4673333 3.3776212 30 0 0 0 5.0724201
-10.951844 3.5810297 3.461982 19 0 0 0 4.6865301
-9.6830044 3.9655738 3.1472006 87 0 0 0 5.8583698
-11.824327 4.193089 3.1558394 39 0 0 0 5.0724201
-8.3931284 4.8267584 3.3890541 26.5 0 0 0 8.0039253
-8.2110691 5.1321149 3.2716012 102 0 0 0 8.5800896
-7.3291469 5.9293714 3.1918094 307 0 0 0 10.54132
-6.8869591 5.8493934 3.1706493 101 0 0 0 10.93121
11.768269 5.6008964 3.0510812 269 0 0 0 42.569649
11.256393 6.4183855 3.0341163 239 0 0 0 41.39296
11.866137 6.3822169 3.4849041 217 0 0 0 41.786846
18.754757 6.2203364 3.1369691 128 0 0 0 44.512119
-8.4706364 6.8652825 3.2906625 169 0 0 0 10.54132
-6.1861882 6.7135086 3.2631452 100 0 0 0 12.872097
-5.9447851 6.7720814 3.2783971 92 0 0 0 13.27026
-5.1207767 6.7682066 3.1947899 43 0 0 0 14.44149
9.7744122 6.9356728 3.2540126 75.5 0 0 0 39.835419
11.201865 6.7583923 3.0630174 140 0 0 0 41.00259
11.583987 6.9877377 3.4990709 90 0 0 0 41.00259
12.163695 6.5414295 3.2307208 147 0 0 0 41.786846
17.572416 6.8064332 3.4622278 116 0 0 0 43.738911
18.454502 6.6295257 3.1138771 108 0 0 0 44.131474
-9.2557211 7.1430249 3.2414272 120 0 0 0 10.15277
9.2806005 7.3002262 3.0599718 202 0 0 0 39.050499
9.6908741 7.2419629 3.1340909 151 0 0 0 39.435101
10.927758 7.3513107 3.2457404 110 0 0 0 40.219769
11.25738 7.1756887 3.2885923 144.5 0 0 0 40.604519
15.976632 7.1136093 3.2170234 94 0 0 0 42.961273
17.174976 7.1440306 3.4185123 60 0 0 0 43.347561
18.132664 7.0228004 3.0885978 65 0 0 0 43.738911
36.771576 7.3286366 3.1431589 34 0 0 0 46.465721
40.981525 7.1239123 3.4811971 39 0 0 0 46.863998
-6.4573245 7.7456255 3.0531237 86 0 0 0 13.65363
3.6763492 7.9477091 3.1394949 106 0 0 0 31.61516
9.1276579 7.6792464 3.2901685 192 0 0 0 38.529209
10.325697 7.7131925 3.0182614 103 0 0 0 39.435101
11.033262 7.8231058 3.1651144 90 0 0 0 39.835419
-8.1127987 8.00877 3.4443309 102 0 0 0 12.10022
-6.4055619 8.0814419 3.375947 39 0 0 0 14.04442
-5.9506278 8.3104019 3.3487248 140 0 0 0 14.83907
0.6410737 8.4757595 3.2410626 287.5 0 0 0 25.96488
1.1623544 8.42451 3.0374358 344 0 0 0 26.940941
2.4716203 8.429738 3.3588428 265 0 0 0 29.277479
3.1923416 8.194438 3.2574522 223 0 0 0 30.644581
3.6086349 8.3205643 3.0261941 188 0 0 0 31.23126
4.9093447 8.328186 3.4649196 190 0 0 0 33.176971
6.0235219 8.2255354 3.4037342 99 0 0 0 34.735619
7.9310856 8.2094078 3.3826694 190 0 0 0 36.897072
8.2734451 8.2124138 3.2142775 229 0 0 0 37.221539
9.0166216 8.2404661 3.4679298 167 0 0 0 37.880219
9.7306175 8.4587183 3.336653 71 0 0 0 38.265339
-6.8729577 8.6770744 3.3507066 60 0 0 0 14.04442
-0.19871368 8.7950859 3.1323767 288 0 0 0 24.391165
0.19611402 8.7282028 3.1818826 264.33334 0 0 0 25.113943
0.56845552 8.9148264 3.1846766 111 0 0 0 25.76897
1.7950907 8.7091608 3.3215554 223 0 0 0 27.980354
2.2985122 8.6170282 3.4081721 179 0 0 0 28.87719
5.0255475 8.5152502 3.2996368 261 0 0 0 33.176971
5.8536868 8.6469193 3.2250495 205 0 0 0 34.154266
6.1344018 8.8197536 3.0518672 120 0 0 0 34.351528
7.8689713 8.7662697 3.3448086 169 0 0 0 36.304111
8.0449047 8.5292645 3.0375223 129 0 0 0 36.703728
9.3454237 8.9700518 3.3516936 118 0 0 0 37.483768
9.7671165 8.9210558 3.0960708 120 0 0 0 37.880219
-0.091003157 9.0288153 3.4354069 235 0 0 0 24.584909
0.24874529 9.0844297 3.0149312 285 0 0 0 25.178925
0.80450869 9.0716076 3.2474475 133 0 0 0 26.160789
1.4954627 9.124794 3.3004775 193 0 0 0 27.326799
1.7564552 9.2710915 3.3685799 168 0 0 0 27.71862
2.4871268 9.3006458 3.439779 254 0 0 0 28.87719
2.788373 9.4686327 3.0400341 113 0 0 0 29.277479
3.850137 9.4910612 3.410912 171 0 0 0 30.84297
9.4642525 9.0830631 3.0704315 80 0 0 0 37.483768
2.5841713 9.6431847 3.0732064 95 0 0 0 28.87719
4.9175696 9.9333448 3.4158149 143 0 0 0 32.005661
5.2494106 9.6868935 3.3972619 200 0 0 0 32.595695
7.7502475 9.5376635 3.1801858 116 0 0 0 35.523918
8.3138351 9.7275686 3.3099525 87 0 0 0 35.921272
20.830357 9.8875322 3.0834644 68 0 0 0 42.569649
27.284241 9.7861948 3.1488724 81 0 0 0 44.131474
-10.554903 10.457314 3.0304503 110 0 0 0 12.10022
4.1698904 10.262691 3.1380699 141 0 0 0 30.84297
20.711004 10.462814 3.1030071 116 0 0 0 42.180832
37.032825 10.267658 3.2234492 6 0 0 0 45.301208
-13.82305 11.26283 3.1906078 128 0 0 0 10.54132
-6.386517 11.769321 3.072686 87 0 0 0 16.77994
-5.329453 11.809551 3.1347792 212 0 0 0 17.948481
-1.5353233 11.717894 3.1710219 48 0 0 0 22.636549
-8.6253052 12.112068 3.0407195 69 0 0 0 14.83907
-7.5083408 12.364496 3.3147237 84 0 0 0 15.99865
-5.8570232 12.182714 3.1042752 226 0 0 0 17.553909
-8.7303848 12.923816 3.1892281 99 0 0 0 15.22716
-7.6095223 12.539309 3.00332 108 0 0 0 15.99865
-7.2281957 12.588453 3.3273931 58 0 0 0 16.39253
-6.421514 12.567121 3.2382009 178 0 0 0 17.16951
-1.7119938 13.149147 3.0648322 58 0 0 0 22.636549
-1.0686584 13.264913 3.4049006 163 0 0 0 23.412899
-2.5771699 16.770624 3.4956541 62 0 0 0 22.24354
-1.7839128 17.218676 3.1437883 110 0 0 0 23.02598
-7.8972635 17.608246 3.0006666 42 0 0 0 17.948481
-8.9291468 18.682808 3.2154775 18 0 0 0 17.553909
-1.1984133 -12.143536 3.7283397 172 0 0 0 76.192238
-0.15091448 -11.722024 3.7274675 141.5 0 0 0 74.819588
0.8565712 -11.715116 3.7371919 135.5 0 0 0 73.445557
1.146431 -11.732826 3.8960707 165 0 0 0 73.055901
-1.6376314 -11.040911 3.9620624 85 0 0 0 76.96315
-1.3807809 -11.160041 3.7161224 255 0 0 0 76.575554
0.26498175 -11.109175 3.6737068 326 0 0 0 74.234398
14.975322 -11.126068 3.8598983 36 0 0 0 59.750031
16.936623 -11.334303 3.7121046 54 0 0 0 58.969872
18.083015 -11.46771 3.8990138 35 0 0 0 58.577766
-2.1739194 -10.935754 3.9575839 98 0 0 0 77.746323
-1.83992 -10.606364 3.822125 88 0 0 0 77.363022
-1.3568643 -10.997003 3.9335761 85 0 0 0 76.575554
0.77902937 -10.632569 3.7874811 183 0 0 0 73.445557
2.3462329 -10.502051 3.5605714 140 0 0 0 71.101616
12.036171 -10.928188 3.7649503 86 0 0 0 61.315887
21.359505 -10.764439 3.7612386 70 0 0 0 57.008831
-3.4583614 -10.482003 3.9177082 47 0 0 0 79.70005
19.614029 -10.497846 3.5003562 66 0 0 0 57.400608
