# .PCD v0.7 - Point Cloud Data file format
VERSION 0.7
FIELDS x y z intensity normal_x normal_y normal_z curvature
SIZE 4 4 4 4 4 4 4 4
TYPE F F F F F F F F
COUNT 1 1 1 1 1 1 1 1
WIDTH 942
HEIGHT 1
VIEWPOINT 0 0 0 1 0 0 0
POINTS 942
DATA ascii
4.5038357 4.786274 0.56508249 290 0 0 0 36.691231
-6.1945701 5.0246019 0.85878509 5501 0 0 0 10.53332
-4.6825948 5.3384528 0.93915838 157 0 0 0 13.2644
-3.6777306 5.1103644 0.6830464 310.66666 0 0 0 14.830768
-3.3093014 5.1005578 0.95695454 203 0 0 0 15.61409
-2.7813118 5.3676186 0.89292133 220 0 0 0 17.164501
-2.4451048 5.0032992 0.60755473 250 0 0 0 17.55077
-1.6633251 5.1381035 0.7769143 195.60001 0 0 0 19.821455
-1.2025148 5.0104461 0.69204146 261 0 0 0 21.063879
-0.71164632 5.1625576 0.67574561 129 0 0 0 22.625166
-0.44966489 5.0789204 0.81258518 178 0 0 0 23.412149
0.21511617 5.1505966 0.79150647 169.5 0 0 0 25.461323
0.6724335 5.0070243 0.55981034 62 0 0 0 26.92083
1.16149 5.0873504 0.79233736 142.66667 0 0 0 28.35425
1.8016232 5.3578458 0.71695405 188.33333 0 0 0 29.919447
2.0417178 5.0875592 0.74239594 105 0 0 0 30.826839
2.6174893 5.3232651 0.58083057 161 0 0 0 31.99625
3.500879 5.3265338 0.54711157 147 0 0 0 33.948833
-9.9267635 5.9204273 0.6723249 79 0 0 0 8.1937799
-4.6823454 5.6123762 0.87660873 166.5 0 0 0 13.65717
-4.2236357 5.5890007 0.84123111 362.5 0 0 0 14.43772
-3.8034859 5.5761542 0.81267929 284.5 0 0 0 15.22202
-2.1122961 5.6878495 0.95708817 269 0 0 0 19.11533
-1.5481347 5.8774881 0.8842243 146.5 0 0 0 20.67889
0.3600691 5.8465095 0.93103218 134 0 0 0 25.75205
1.1768756 5.5425668 0.62438673 110 0 0 0 28.08917
1.7343714 5.6760082 0.65375412 220.5 0 0 0 29.460064
2.5837104 5.96875 0.55546576 107 0 0 0 31.220539
3.321939 5.6374874 0.56022441 156.5 0 0 0 33.169983
3.9813802 5.7334995 0.76610738 541 0 0 0 34.34708
15.202891 5.8587437 0.94796038 108 0 0 0 43.72197
-11.907752 6.3465424 0.7815643 299 0 0 0 7.4154301
-6.4093475 6.0347757 0.73255742 81 0 0 0 11.69851
-2.2136726 6.2084184 0.63228738 123.5 0 0 0 19.310276
0.99395531 6.1251025 0.83239758 136 0 0 0 27.32081
1.74927 6.2453766 0.63446188 198.5 0 0 0 29.06987
14.260418 6.3197951 0.90793002 236 0 0 0 42.939846
14.855634 6.1496172 0.93533963 105 0 0 0 43.340321
15.558295 6.4387136 0.56452411 211 0 0 0 43.340321
25.390062 6.3305969 0.86335903 44 0 0 0 45.679642
-8.9909296 6.6261125 0.648274 87 0 0 0 9.7507296
-0.071296066 6.5605516 0.87550074 160 0 0 0 24.57724
0.098958798 6.8954268 0.91886657 407 0 0 0 24.969931
1.6294547 6.7642889 0.58971637 144 0 0 0 28.48679
13.977733 6.6114025 0.89977366 240 0 0 0 42.553879
15.548733 6.8877864 0.56913441 109 0 0 0 42.939846
17.785402 6.849577 0.63488179 242 0 0 0 43.72197
24.460449 6.7423377 0.83718044 55 0 0 0 45.287998
-1.3108755 7.1372375 0.72560501 191.33333 0 0 0 21.844917
-0.62213945 7.4902821 0.63059962 223 0 0 0 23.412149
-0.4241322 7.2048955 0.7843616 319.33334 0 0 0 23.793869
0.10296815 7.0037742 0.5909763 240 0 0 0 24.969931
0.65885174 7.3689756 0.62310475 95 0 0 0 26.145041
12.282269 7.3711643 0.83422518 272 0 0 0 40.987049
12.630325 7.1622419 0.8456049 219 0 0 0 41.382801
13.249529 7.086587 0.87429947 138 0 0 0 41.768742
14.149243 7.1232305 0.72384107 215.5 0 0 0 42.163761
14.924244 7.056602 0.55293137 103 0 0 0 42.553879
22.215309 7.3179479 0.77267939 69 0 0 0 44.504459
-0.62723273 7.56212 0.82014745 148 0 0 0 23.412149
0.31244236 7.7399302 0.83343333 143.5 0 0 0 25.36516
4.5757403 7.7256846 0.97329795 113 0 0 0 33.165371
11.868272 7.9435487 0.83084172 229 0 0 0 40.212231
12.326044 7.8162384 0.84878421 210 0 0 0 40.59531
21.110495 7.5354023 0.741108 156 0 0 0 44.107689
25.05748 7.5742478 0.86146748 38 0 0 0 44.894512
3.5810196 8.2090683 0.96895951 89 0 0 0 31.220539
13.476396 8.0837126 0.52585089 109 0 0 0 40.987049
-0.066458553 8.5464449 0.92047107 231 0 0 0 24.57724
1.6811523 8.7654514 0.9625687 413 0 0 0 27.70322
4.4021749 8.8504066 0.57921922 237 0 0 0 31.99625
10.214874 8.618947 0.77808523 203.5 0 0 0 38.448265
11.27548 8.8192234 0.83130211 281 0 0 0 39.039181
1.6768143 9.3360214 0.79021955 160.5 0 0 0 27.512016
10.433883 9.48417 0.81811816 215 0 0 0 37.868382
2.1045589 9.6401644 0.82097352 270 0 0 0 28.08917
17.063335 9.6635132 0.64776021 102 0 0 0 41.382801
18.080969 9.6584816 0.67619962 71 0 0 0 41.768742
16.576956 10.497884 0.64677441 212 0 0 0 40.59531
-15.094147 10.612917 0.60301548 126 0 0 0 9.3658895
-13.668698 11.189488 0.57572591 61 0 0 0 10.53332
16.507732 11.032082 0.65336972 124 0 0 0 40.212231
-17.72084 11.834344 0.6926648 49 0 0 0 8.9716902
-84.442162 12.714344 0.66499537 7 0 0 0 1.95518
15.919785 15.168364 0.71511024 122 0 0 0 37.473793
-37.925308 -9.4985533 1.2849159 15 0 0 0 95.700737
-6.8925905 -8.382329 1.4508172 281 0 0 0 85.535324
-6.4590073 -8.2585564 1.4030823 475 0 0 0 85.13884
-4.6914501 -7.5840921 1.1998022 494.5 0 0 0 83.38446
-3.174216 -7.615098 1.3182178 259 0 0 0 80.852951
-2.9228776 -7.5242872 1.2908174 608 0 0 0 80.450439
-1.7628762 -7.7370625 1.4680891 630 0 0 0 78.115868
-1.2679362 -7.7245669 1.4494767 627.5 0 0 0 77.139603
-0.78007859 -7.6441169 1.4245352 720.33331 0 0 0 76.159096
-0.40108657 -7.6080608 1.4131804 376 0 0 0 75.384674
-37.411308 -7.4418011 1.2548048 21 0 0 0 96.466782
-8.1475973 -7.3761821 1.467121 287 0 0 0 87.878975
-3.3291287 -7.2258458 1.075479 123.5 0 0 0 81.432236
-2.6699212 -7.2193961 1.1078205 618.33331 0 0 0 80.191902
-2.2865248 -7.3038774 1.1809021 655 0 0 0 79.384735
-1.7510848 -7.273387 1.2007201 595 0 0 0 78.309921
-1.281933 -7.244287 1.1823577 610 0 0 0 77.335655
-0.73168993 -7.1541877 1.1576003 555.33331 0 0 0 76.159096
0.23372297 -7.1486435 1.33002 270 0 0 0 74.008804
2.6184442 -7.4199767 1.464096 576 0 0 0 69.119606
3.3993604 -7.0445261 1.2632585 576.5 0 0 0 67.364311
3.8292053 -7.0295877 1.2923808 609 0 0 0 66.58889
4.3171706 -7.0725012 1.336568 664 0 0 0 65.799744
4.7493739 -7.1730533 1.3861991 826 0 0 0 65.212883
5.2474689 -7.3190594 1.4494977 693 0 0 0 64.627594
6.3592925 -7.0706391 1.2923408 503 0 0 0 62.863327
6.7195883 -7.1106572 1.3283249 662 0 0 0 62.476681
7.126904 -7.1785121 1.3719994 452 0 0 0 62.085442
7.7413683 -7.2388668 1.4355464 562.5 0 0 0 61.499199
11.001209 -7.0119686 1.4340889 392 0 0 0 58.564919
11.678281 -7.0447373 1.4970549 387 0 0 0 58.174
-8.3999567 -6.547801 1.1606363 156 0 0 0 89.056236
-7.9651761 -6.8635325 1.4047633 145 0 0 0 88.274765
0.38463613 -6.7134414 1.2914792 389.5 0 0 0 73.620354
0.80801535 -6.7877941 1.1894878 611 0 0 0 72.641182
1.2772262 -6.7583704 1.1798991 633.20001 0 0 0 71.54998
1.8292093 -6.736824 1.2659109 570.40002 0 0 0 70.296036
2.2001786 -6.7642045 1.1937945 685.25 0 0 0 69.513298
2.7335927 -6.9257693 1.2034461 463 0 0 0 68.539108
3.2412829 -6.7293687 1.1173136 570.5 0 0 0 67.370056
3.7767806 -6.5498395 1.0353787 701 0 0 0 66.195755
4.2394662 -6.5805941 1.070706 597 0 0 0 65.40789
4.7868118 -6.6819773 1.1224096 609 0 0 0 64.627594
5.2183032 -6.7452497 1.1630033 670 0 0 0 64.037392
5.7731876 -6.9139252 1.2262614 632.5 0 0 0 63.457718
6.7195234 -6.6060119 1.0484102 720.5 0 0 0 61.890244
7.374362 -6.7348294 1.1085658 495 0 0 0 61.303352
7.7407441 -6.7271833 1.1371341 491 0 0 0 60.909321
8.2001762 -6.7787547 1.1780404 537 0 0 0 60.518921
8.589098 -6.7510238 1.2083515 483 0 0 0 60.121361
9.043745 -6.7544298 1.2469406 629 0 0 0 59.735081
9.6262379 -6.8260307 1.3015735 508 0 0 0 59.351089
10.301705 -6.9293675 1.3670112 383 0 0 0 58.951351
-7.75702 -6.204689 1.3287593 219.5 0 0 0 88.858795
0.28855243 -6.4611912 1.3648096 421 0 0 0 73.811447
0.74751574 -6.3121538 1.4051203 396.60001 0 0 0 72.641724
1.248458 -6.2705131 1.3505825 315 0 0 0 71.394516
1.7204577 -6.2165179 1.3629099 420.39999 0 0 0 70.21492
2.2866061 -6.4903369 1.4540887 597 0 0 0 69.119606
10.090343 -6.0910206 1.0118918 420 0 0 0 58.174
10.848909 -6.1886716 1.0696189 355 0 0 0 57.779808
11.438828 -6.1564846 1.1104748 460 0 0 0 57.394539
12.176677 -6.1712394 1.1645187 336 0 0 0 56.997311
12.988496 -6.1847935 1.2245498 307 0 0 0 56.60342
14.969672 -6.2421732 1.3740574 202 0 0 0 55.822258
16.553865 -6.427784 1.4999033 170 0 0 0 55.443081
-8.2661724 -5.6668458 1.0938158 310 0 0 0 90.041595
-7.7311521 -5.6311994 1.2020526 368 0 0 0 89.583763
-8.1323786 -5.2890148 1.1803709 289.5 0 0 0 90.434784
-7.8174291 -5.2206249 1.3752469 395.5 0 0 0 90.237419
17.614204 -5.3867555 1.0918229 260 0 0 0 54.261921
18.884251 -5.2700295 1.1586453 98 0 0 0 53.878807
20.847795 -5.2677283 1.2659411 137 0 0 0 53.48423
34.670288 -5.20509 1.1732973 14 0 0 0 51.925419
-21.578634 -4.8457575 1.283553 100 0 0 0 96.078011
-7.9571157 -4.7676692 1.2422413 39 0 0 0 91.015923
-0.026754268 -4.756794 1.0118394 549 0 0 0 74.595619
11.087204 -4.9517398 1.1865965 324 0 0 0 56.219471
12.683271 -4.573576 1.1471301 201 0 0 0 55.049019
16.917944 -4.7188025 1.4800084 202 0 0 0 53.878807
21.566301 -4.8881531 1.2995552 47 0 0 0 53.088886
23.875999 -4.7965755 1.4260231 54 0 0 0 52.70216
-21.789421 -4.3347569 1.2893512 16 0 0 0 96.466782
37.112686 -3.7184284 1.2416688 17 0 0 0 51.138161
36.900291 -2.7834101 1.230113 19 0 0 0 50.752861
36.426971 -0.95246816 1.2078148 14 0 0 0 49.968552
36.420929 -0.057037078 1.205224 16 0 0 0 49.574352
36.493843 0.83987164 1.2058976 18 0 0 0 49.186314
30.896954 1.4715368 1.0257866 65 0 0 0 48.804241
30.628761 2.2144885 1.0170193 232 0 0 0 48.404087
30.552795 2.9655495 1.0150292 197 0 0 0 48.015202
30.533867 3.7234237 1.0154868 177 0 0 0 47.633472
-2.1750693 4.4271874 1.2622813 321 0 0 0 17.55077
-1.6558892 4.3558302 1.2264289 176.375 0 0 0 19.068571
-1.2790004 4.2558465 1.2152606 206.25 0 0 0 20.224516
-0.77856725 4.2334695 1.1944369 120 0 0 0 21.975334
-0.23361531 4.224092 1.0690718 134.5 0 0 0 23.993866
0.18440276 4.2350717 1.1353983 93.166664 0 0 0 25.558266
0.74714637 4.3460131 1.2014221 113.8 0 0 0 27.548971
1.3993303 4.3562884 1.1334834 134.25 0 0 0 29.754719
1.65929 4.3698788 1.2152839 173.66667 0 0 0 30.569626
2.4052165 4.3588662 1.0497034 206 0 0 0 32.784241
2.7082679 4.328536 1.1264875 355.79999 0 0 0 33.634899
3.1855001 4.2153053 1.1479639 458.75 0 0 0 35.023888
3.8723445 4.4445534 1.3124883 486.5 0 0 0 36.104805
4.227983 4.0779986 1.0909255 576 0 0 0 37.473793
30.501066 4.482893 1.0161134 146 0 0 0 47.238602
-6.25383 4.7935534 1.2329049 5531.875 0 0 0 10.093715
-4.3500452 4.7120643 1.007392 153 0 0 0 12.87008
-3.7538161 4.9546313 1.1295493 208 0 0 0 14.44185
-3.0164967 4.6358318 1.1421545 242.5 0 0 0 15.61409
-2.7570624 4.5883245 1.3641686 189.5 0 0 0 16.186634
-2.3882699 4.5843019 1.4482551 444 0 0 0 17.162649
-1.6191033 4.662117 1.0256321 352 0 0 0 19.50522
-1.2259712 4.5718727 1.372335 243.66667 0 0 0 20.678244
-0.66383028 4.5582871 1.323275 126.2 0 0 0 22.546101
-0.30902138 4.7203913 1.1018641 140.8 0 0 0 23.800116
0.15989065 4.8101568 1.1255189 89 0 0 0 25.360991
0.79051787 4.5592165 1.2902769 88 0 0 0 27.544643
1.3017592 4.7208982 1.3914549 183.5 0 0 0 29.06987
1.8562424 4.6452708 1.1755649 143 0 0 0 30.83078
2.6583135 4.8064213 1.2889276 269 0 0 0 32.784241
3.1230609 4.6023965 1.3980976 402.33334 0 0 0 34.214329
3.766784 4.7557573 1.273806 436.20001 0 0 0 35.356941
4.2317104 4.7782636 1.1480728 470.20001 0 0 0 36.222092
4.6593289 4.9518456 1.2554537 457 0 0 0 36.691231
-6.2186699 5.0438457 1.2526231 5490 0 0 0 10.53332
-2.6301696 5.2825642 1.3128397 307.66666 0 0 0 17.421396
-2.3916357 5.2165422 1.3258024 389 0 0 0 17.944811
-1.7008197 5.3524017 1.1638278 228 0 0 0 19.902439
-1.1377926 5.3327432 1.2651707 131 0 0 0 21.45635
-0.72754204 5.3077688 1.1117909 330 0 0 0 22.623535
-0.32728887 5.1108036 1.2888796 207 0 0 0 23.798851
1.6207991 5.1104445 1.0568197 154 0 0 0 29.658659
3.4827888 5.3024716 1.1713368 453 0 0 0 33.948833
3.7844594 5.4572906 1.0597095 222 0 0 0 34.34708
4.5249734 5.0544634 1.4200099 398 0 0 0 36.299606
30.43165 5.240149 1.0162344 29 0 0 0 46.845726
-8.383976 5.5617113 1.0781204 42 0 0 0 8.9716902
-5.7230783 5.9334121 1.0863841 349 0 0 0 12.4803
-4.7298369 5.9637246 1.1913247 134 0 0 0 14.04701
-4.0779519 5.6804719 1.0965506 119 0 0 0 14.82843
-2.2559526 5.6485195 1.2569509 203 0 0 0 18.732309
-0.072769567 5.6636147 1.040055 153 0 0 0 24.57724
3.3752646 5.7328076 1.225526 667 0 0 0 33.165371
-11.731391 6.2500482 1.0987568 111 0 0 0 7.4154301
-4.7775841 6.024641 1.0147104 191 0 0 0 14.04701
-2.8412118 6.2386007 1.4125816 235 0 0 0 17.944811
18.082457 6.4581184 1.1112083 157 0 0 0 44.107689
18.864794 6.2177386 1.1490215 113 0 0 0 44.504459
-13.186109 6.6236076 1.2176992 24 0 0 0 7.0198102
-12.216737 6.899631 1.1574485 53 0 0 0 7.7978001
-11.700356 6.9889865 1.4529552 373 0 0 0 8.1937799
0.77516031 6.841433 1.4287603 85 0 0 0 26.53437
8.4587927 6.9772415 1.4569663 394 0 0 0 38.644447
14.132082 6.6877713 1.2996862 192 0 0 0 42.553879
16.143044 6.6845708 1.4492509 715 0 0 0 43.340321
25.026024 6.8989749 1.4922531 124 0 0 0 45.287998
34.154041 6.7483358 1.1395204 27 0 0 0 46.458408
0.6362735 7.1563902 1.2230713 145 0 0 0 26.145041
3.2319341 7.4292941 1.4815038 263 0 0 0 31.220539
6.951767 7.3503227 1.0958846 206 0 0 0 36.691231
7.3353891 7.3801918 1.1264751 366 0 0 0 37.078072
7.7394676 7.2907891 1.3269978 308.66666 0 0 0 37.605324
8.1470041 7.0659027 1.4332193 422 0 0 0 38.252079
13.899112 7.0018129 1.2933255 330 0 0 0 42.163761
33.000202 7.3677912 1.1063225 64 0 0 0 46.066849
-12.367348 7.8068027 1.2037132 65 0 0 0 8.5778799
-0.25897729 7.7133245 1.3104589 156.5 0 0 0 24.19121
3.298682 7.5790219 1.3057282 114 0 0 0 31.220539
3.7621782 7.5923853 1.3384585 183 0 0 0 31.99625
4.1397347 7.8537378 1.1807982 301 0 0 0 32.383129
10.288515 7.8509126 1.07863 385 0 0 0 39.236214
14.232881 7.6140666 1.3393492 201 0 0 0 41.768742
24.958677 7.5455179 1.497595 65 0 0 0 44.894512
-9.5489178 8.1884336 1.0355108 75 0 0 0 10.91757
-0.068620689 8.1020384 1.2734041 74 0 0 0 24.57724
9.8075333 8.2832079 1.069401 443 0 0 0 38.448265
10.327206 8.292038 1.4251571 457 0 0 0 38.841812
13.363763 8.0208616 1.2934511 159 0 0 0 40.987049
4.0535779 8.6892443 1.0351177 97 0 0 0 31.613661
9.8205118 8.9336929 1.1039249 305 0 0 0 37.868382
13.248519 8.866601 1.3209689 93 0 0 0 40.212231
-16.579762 9.3880959 1.0902665 88 0 0 0 7.7978001
2.304817 9.441103 1.0456213 89 0 0 0 28.48679
12.923703 9.1183786 1.3103671 160 0 0 0 39.81406
-17.166439 10.865152 1.1580685 69 0 0 0 8.5778799
-17.81839 11.901438 1.2185324 98 0 0 0 8.9716902
-13.272872 11.998039 1.0167937 61 0 0 0 11.31602
16.373356 11.535651 1.1494102 210 0 0 0 39.81406
16.287245 12.085052 1.1627553 194 0 0 0 39.433247
-17.933794 12.625069 1.2452505 88 0 0 0 9.3658895
13.166151 12.561138 1.4983679 80 0 0 0 37.473793
-16.386623 13.432817 1.2006221 90 0 0 0 10.53332
-16.164925 13.926475 1.2077111 30 0 0 0 10.91757
15.874321 15.126029 1.2508394 89 0 0 0 37.473793
-10.311722 -10.818084 1.9843 589 0 0 0 86.71302
-9.2514935 -10.709516 1.8815514 172 0 0 0 85.932175
-5.4582028 -8.5932436 1.6161838 434 0 0 0 83.57843
-2.8367865 -8.8801498 1.9463215 507 0 0 0 79.483124
-2.3277431 -8.7406111 1.8903148 621.5 0 0 0 78.699104
-1.8337448 -8.5427256 1.8279178 450 0 0 0 77.920944
-5.0094037 -8.3292561 1.5448829 555 0 0 0 83.190498
-4.6622386 -8.1990728 1.50047 423 0 0 0 82.808189
-3.3136916 -8.2304497 1.6347411 455 0 0 0 80.651695
-2.8050871 -8.0872774 1.5790625 636 0 0 0 79.871429
-1.2544084 -8.2732496 1.7532606 677 0 0 0 76.944466
-0.73985076 -8.2728844 1.7413714 457 0 0 0 75.961548
-0.32854736 -8.1521797 1.7118998 549.5 0 0 0 75.183594
3.2562647 -8.2368832 1.8624144 405.5 0 0 0 68.539108
3.7757168 -8.3256283 1.9218168 480 0 0 0 67.758232
4.190186 -8.4052382 1.9737513 327 0 0 0 67.169403
5.6448078 -8.0791569 1.8271015 369 0 0 0 64.828499
6.1909208 -8.1958122 1.9026606 432.5 0 0 0 64.23204
6.7542477 -8.2887926 1.97888 427 0 0 0 63.655151
9.2745476 -8.0493078 1.9613969 294 0 0 0 60.909321
-2.3283176 -7.9492636 1.5298383 556 0 0 0 79.089256
2.8822725 -7.5685234 1.5062541 468 0 0 0 68.733391
3.2027323 -7.5594792 1.5270174 503 0 0 0 68.151031
3.6872802 -7.6348848 1.5764357 563 0 0 0 67.364311
4.1812592 -7.6706066 1.6236863 582 0 0 0 66.58889
4.7250519 -7.7354741 1.6834188 537.5 0 0 0 65.799744
5.2738571 -7.9590554 1.7711505 446 0 0 0 65.212883
6.1500149 -7.5516911 1.5642812 455 0 0 0 63.655151
6.7081509 -7.6395073 1.6312946 526 0 0 0 63.061806
7.36728 -7.7917032 1.7182298 485 0 0 0 62.476681
7.8468499 -7.8992624 1.7824885 412 0 0 0 62.085442
8.2923737 -7.9461937 1.8372619 405 0 0 0 61.695042
8.7352867 -7.9672236 1.8899851 385 0 0 0 61.303352
9.5754337 -7.5192986 1.6423739 474 0 0 0 60.121361
10.086049 -7.5259676 1.6960037 393 0 0 0 59.735081
10.759743 -7.6228352 1.7749257 397 0 0 0 59.351089
11.53377 -7.7510791 1.8680145 257 0 0 0 58.951351
12.476806 -7.9450054 1.9854403 307 0 0 0 58.564919
-8.0126667 -7.2537198 1.7103667 206 0 0 0 87.878975
-0.38846016 -7.3745728 1.9138529 55 0 0 0 75.384674
5.7380414 -7.4120522 1.5070126 532 0 0 0 64.037392
8.3819895 -7.2785187 1.5013756 486 0 0 0 60.909321
8.9351387 -7.3801618 1.5654309 266 0 0 0 60.518921
12.358115 -7.045361 1.5593159 281 0 0 0 57.779808
13.329567 -7.1693377 1.6560632 253 0 0 0 57.394539
14.216434 -7.2003317 1.7410202 235 0 0 0 56.997311
15.517677 -7.3839793 1.8737537 229 0 0 0 56.60342
-7.7499571 -6.6777377 1.6203816 300 0 0 0 88.274765
-0.092956662 -6.7038803 1.7742949 343.60001 0 0 0 74.750381
0.18769503 -6.5850315 1.7660409 275.33334 0 0 0 74.074593
0.81084424 -6.8145185 1.9538445 198 0 0 0 72.638489
-8.4781294 -6.2830262 1.9306233 209 0 0 0 89.453514
-7.798533 -6.2883401 1.7527262 215.33333 0 0 0 88.792976
0.305078 -6.3673983 1.7168455 371.875 0 0 0 73.765251
0.73623818 -6.2081966 1.7483444 301.44446 0 0 0 72.64119
1.222044 -6.1374836 1.7226665 335.39999 0 0 0 71.391647
1.6954825 -6.2357626 1.737507 377.77777 0 0 0 70.29538
2.15137 -6.3475366 1.7458177 404.83334 0 0 0 69.316132
19.256819 -6.4045734 1.7064482 163 0 0 0 54.655289
21.038988 -6.4260011 1.8453636 82 0 0 0 54.261921
-7.7457695 -5.7404914 1.6081676 306 0 0 0 89.451332
1.1568373 -5.9677935 1.8102252 514.5 0 0 0 71.476791
-8.6744957 -5.4907384 1.6250137 149 0 0 0 90.6306
-8.1569252 -5.4471617 1.6749191 309.5 0 0 0 90.23896
28.726231 -5.0376806 1.6987441 59 0 0 0 52.313072
-21.573092 -4.8484988 1.8335336 101 0 0 0 96.078011
11.037624 -4.9262471 1.7763853 345.5 0 0 0 56.219471
30.21125 -4.5354118 1.7759204 10 0 0 0 51.925419
-21.473896 -4.2759428 1.8161274 10 0 0 0 96.466782
30.588284 2.9703078 1.7695553 68 0 0 0 48.015202
-2.4495673 4.3666749 1.6761183 189 0 0 0 16.679089
-1.9264663 4.1628695 1.5122025 65 0 0 0 17.944811
0.13376996 4.2781487 1.6349181 56 0 0 0 25.36516
3.0585785 4.4359293 1.9341737 161 0 0 0 34.34708
4.5550647 4.3911605 1.7982064 349 0 0 0 37.473793
-1.6375654 4.7162662 1.7689755 189.60001 0 0 0 19.51141
-1.3192347 4.9485559 1.8155389 243 0 0 0 20.67889
-0.67736232 4.8705926 1.6281226 325 0 0 0 22.620489
3.1898167 4.7413387 1.7318363 312.75 0 0 0 34.149242
3.7037442 4.682498 1.6354637 259 0 0 0 35.356941
4.1834836 4.6806664 1.6264828 295 0 0 0 36.299606
4.5231333 4.8112917 1.5461926 495 0 0 0 36.691231
-2.0602317 5.136518 1.5512967 252 0 0 0 18.732309
-1.291335 5.1154513 1.8064145 200.5 0 0 0 20.874155
-0.77450514 5.128479 1.7800543 119 0 0 0 22.431475
3.9459713 5.4018826 1.5634637 236 0 0 0 34.734272
4.0060458 5.4832087 1.9232012 212 0 0 0 34.734272
4.789372 5.0906549 1.8064382 277 0 0 0 36.691231
30.584694 5.2677627 1.7819805 18 0 0 0 46.845726
-9.8159342 5.8523226 1.7812549 57 0 0 0 8.1937799
-9.0766363 5.7124672 1.9353967 234 0 0 0 8.5778799
-0.93720227 5.8030314 1.7954357 113 0 0 0 22.23126
2.8410616 5.7710605 1.5810235 262 0 0 0 31.998394
3.3358402 5.6699386 1.5362464 418 0 0 0 33.165371
14.46656 5.993402 1.6842822 286 0 0 0 43.340321
15.214952 5.8677635 1.7530186 156 0 0 0 43.72197
-9.766511 6.4889536 1.5383414 191 0 0 0 8.9716902
7.0755377 6.4566159 1.7530235 218 0 0 0 37.868382
14.063596 6.2371035 1.6548644 345 0 0 0 42.939846
-0.41259658 6.9262576 1.9469929 186 0 0 0 23.793869
0.26018009 6.7462783 1.5650413 120 0 0 0 25.36516
0.76679647 6.7841592 1.5839951 50 0 0 0 26.53437
3.4422274 6.9612551 1.8038068 369 0 0 0 31.99625
3.6689024 6.976644 1.6382502 424 0 0 0 32.383129
6.7834396 6.8332515 1.7611597 409 0 0 0 37.078072
7.2680087 6.9652963 1.5897883 215 0 0 0 37.473793
7.731782 6.8775053 1.6337609 348.5 0 0 0 38.06023
8.8081732 6.6764216 1.8341442 233 0 0 0 39.301891
12.818334 6.861021 1.564409 179 0 0 0 41.768742
17.909491 6.9023867 1.5889639 129 0 0 0 43.72197
18.320812 6.5474105 1.610911 145 0 0 0 44.107689
33.306038 6.5824399 1.9443395 27 0 0 0 46.458408
-4.1473703 7.4029083 1.7416172 318.5 0 0 0 16.57902
-3.8082249 7.4213009 1.7127166 246 0 0 0 17.162649
-3.1228409 7.3597918 1.838042 158 0 0 0 18.344509
-2.9448168 7.4419942 1.840395 186 0 0 0 18.732309
1.8020034 7.4574795 1.6847701 139.5 0 0 0 28.48679
3.0103807 7.4174008 1.6610671 204 0 0 0 30.826839
3.5191779 7.1152048 1.8436894 318 0 0 0 31.99625
9.0919409 7.1272783 1.5332828 257 0 0 0 39.039181
12.698496 7.2048097 1.5702584 87 0 0 0 41.382801
15.368638 7.271256 1.8239936 68 0 0 0 42.553879
21.297045 7.0221753 1.8517598 131 0 0 0 44.504459
28.720715 7.1605997 1.6974746 77 0 0 0 45.679642
-12.015501 7.5819144 1.8598548 451 0 0 0 8.5778799
-4.0905881 7.5172148 1.5471927 335 0 0 0 16.77916
-3.9230959 7.650135 1.5544175 314 0 0 0 17.162649
0.48515484 7.5216274 1.9287385 90 0 0 0 25.75205
2.7145894 7.7617869 1.704191 297 0 0 0 30.046869
7.491879 7.5396509 1.6759089 205 0 0 0 37.078072
12.260658 7.7791224 1.5608311 119 0 0 0 40.59531
14.930914 7.5200891 1.7935283 84 0 0 0 42.163761
-11.7734 8.2597857 1.8810097 36 0 0 0 9.3658895
-5.0016208 8.2272968 1.5004963 563 0 0 0 15.99439
2.3421106 8.295104 1.8875744 303 0 0 0 29.06987
3.5595798 8.1659689 1.8446363 240 0 0 0 31.220539
8.0804377 8.1263885 1.5193278 200 0 0 0 37.078072
12.137646 8.1271276 1.5694218 100 0 0 0 40.212231
13.346404 8.011096 1.6709648 128 0 0 0 40.987049
-13.541732 8.5557079 1.7024765 34 0 0 0 8.5778799
-5.0931602 8.8697681 1.8440388 68 0 0 0 16.37888
3.0406606 8.668664 1.6732131 200 0 0 0 30.046869
17.015768 9.6421509 1.6139058 115 0 0 0 41.382801
-16.764261 10.040356 1.6002718 119 0 0 0 8.1937799
16.478294 10.441198 1.6084908 174 0 0 0 40.59531
-13.098783 11.266659 1.8293175 124 0 0 0 10.91757
-17.775061 11.869429 1.7453262 46 0 0 0 8.9716902
-16.392078 11.530559 1.6371266 70 0 0 0 9.3658895
-13.269213 12.291702 1.912842 105 0 0 0 11.507265
-11.620517 12.772855 1.8250049 66 0 0 0 12.87008
13.151369 13.179052 1.5316615 60 0 0 0 37.078072
-14.357685 14.324762 1.6495961 28 0 0 0 12.0837
-8.1545162 -11.555054 2.2317142 205 0 0 0 84.360092
-7.9234614 -11.832509 2.2474146 220 0 0 0 83.973595
-8.9239292 -11.415439 2.2846963 352 0 0 0 85.13884
-8.4921494 -11.428946 2.2461431 223 0 0 0 84.750862
-11.214992 -10.667416 2.2442837 355 0 0 0 87.504066
-10.741137 -10.729702 2.2024038 485.5 0 0 0 87.109421
-10.305555 -10.811301 2.3523126 420 0 0 0 86.71302
-9.1486778 -10.590039 2.2068594 241 0 0 0 85.932175
-5.080286 -10.697624 2.4609485 166 0 0 0 81.628166
-5.6966343 -10.315133 2.3020911 203.5 0 0 0 82.614502
-5.2772379 -10.44431 2.4315553 175 0 0 0 82.023117
-2.5283885 -10.002367 2.4040031 290 0 0 0 78.505714
-2.1873145 -10.211027 2.4338932 241 0 0 0 77.920944
-1.8088263 -10.28237 2.4339759 180 0 0 0 77.335693
-2.8780367 -9.852478 2.3912747 259.5 0 0 0 79.089256
-1.3411508 -9.688118 2.2830813 556.5 0 0 0 76.748856
3.9124305 -9.5360022 2.4142203 428 0 0 0 68.344818
4.1897058 -9.5379133 2.4400284 418 0 0 0 67.957245
-0.83634448 -9.3973656 2.2043738 357.5 0 0 0 75.961548
-0.4762871 -9.1485863 2.1419001 523 0 0 0 75.384674
3.5877464 -9.3962421 2.3562346 333 0 0 0 68.733391
6.7168508 -9.1200676 2.3734009 314 0 0 0 64.426689
7.2849021 -9.3966618 2.4895229 272 0 0 0 64.037392
9.890296 -9.0152941 2.4662409 137 0 0 0 61.303352
-0.24784371 -8.982502 2.1020317 276 0 0 0 74.982521
4.8457966 -8.6288919 2.07827 446 0 0 0 66.39492
5.1959081 -8.7410688 2.1345172 424 0 0 0 65.99659
5.7174959 -8.8547325 2.2113624 443 0 0 0 65.40789
6.2233391 -8.9016256 2.2774472 368 0 0 0 64.828499
7.6555371 -8.5024071 2.1146419 398 0 0 0 62.863327
8.12918 -8.5928259 2.1848807 328 0 0 0 62.476681
8.681942 -8.7352629 2.2731199 317 0 0 0 62.085442
9.3297176 -8.9349699 2.3822069 231 0 0 0 61.695042
9.9725904 -8.6519308 2.4332979 215 0 0 0 60.909321
12.135867 -8.5932293 2.3654606 244 0 0 0 59.351089
4.4859681 -8.4703617 2.0139129 490 0 0 0 66.78286
7.1618891 -8.3597794 2.0361464 389 0 0 0 63.260281
9.7008133 -8.0091448 2.008004 484 0 0 0 60.518921
10.562544 -8.290494 2.14043 232 0 0 0 60.121361
11.334921 -8.4533262 2.2515895 231 0 0 0 59.735081
13.372978 -8.059247 2.0931172 209 0 0 0 58.174
14.366366 -8.1820011 2.2134891 218 0 0 0 57.779808
15.403107 -8.2764902 2.3381975 152 0 0 0 57.394539
16.565063 -8.3814793 2.4793534 192 0 0 0 56.997311
9.6106291 -7.9344764 2.2987926 321 0 0 0 60.518921
21.227867 -7.6416183 2.4431119 108 0 0 0 55.049019
-0.32212964 -7.2672763 2.1873941 199.66667 0 0 0 75.250618
17.68404 -7.3694921 2.0824637 210 0 0 0 55.822258
19.04707 -7.3920712 2.21719 148 0 0 0 55.443081
-0.067709029 -6.7096863 2.2410131 317.5 0 0 0 74.692345
0.2983703 -6.6298075 2.3797941 230.5 0 0 0 73.815628
0.65043586 -6.8769183 2.4759762 109 0 0 0 73.030464
1.4417753 -6.5508151 2.4074821 280 0 0 0 71.080574
1.6245794 -6.6093469 2.3597951 171.5 0 0 0 70.685822
2.2737446 -6.9856768 2.4553142 203 0 0 0 69.512657
26.490097 -6.6835394 2.279526 45 0 0 0 53.48423
0.31734976 -6.3804011 2.1347699 308.60001 0 0 0 73.73584
0.77625555 -6.2711425 2.1761227 238.60001 0 0 0 72.563332
1.1862907 -6.2458911 2.2324159 275.33334 0 0 0 71.537781
1.857179 -6.4166846 2.1802862 261.33334 0 0 0 70.036194
2.1560104 -6.4449177 2.2176878 193 0 0 0 69.381645
28.605639 -6.4729986 2.4426556 56 0 0 0 53.088886
-22.366507 -5.6062927 2.4703481 46 0 0 0 95.700737
-8.6652765 -5.7866774 2.1624272 116 0 0 0 90.23896
-8.1943979 -5.767076 2.0808654 41 0 0 0 89.844238
-8.5723782 -5.4258618 2.1061699 410 0 0 0 90.6306
-8.3289719 -5.2736487 2.2883658 118 0 0 0 90.6306
25.803167 -5.1769099 2.1942632 81 0 0 0 52.70216
-21.729328 -4.8836393 2.3873265 112 0 0 0 96.078011
10.99953 -4.9084663 2.2189577 311 0 0 0 56.219471
38.006996 1.8116037 2.1859522 8 0 0 0 48.804241
-14.261466 2.4900725 2.2650054 33 0 0 0 2.3512001
37.64497 2.722872 2.1666307 83 0 0 0 48.404087
3.0952051 4.2614923 2.0219293 135 0 0 0 34.734272
-6.4765129 4.7507901 2.037838 394 0 0 0 9.7507296
-8.9717751 5.3436494 2.3929467 32 0 0 0 8.1937799
-1.3178332 5.2154455 2.0372341 205.5 0 0 0 20.871384
4.6359568 5.1812754 2.141855 211 0 0 0 36.299606
-9.6457729 5.911149 2.3168976 90 0 0 0 8.3858299
-9.1658268 5.7686176 2.4809349 120 0 0 0 8.5778799
-8.8092709 5.8475842 2.2964385 125.5 0 0 0 8.9716902
6.6739016 5.8022981 2.4964073 451 0 0 0 38.252079
8.0262165 5.8366218 2.3056226 311 0 0 0 39.623653
-10.119849 6.0363817 2.1252208 37 0 0 0 8.1937799
-9.7333651 6.468399 2.1069956 431 0 0 0 8.9716902
0.083830439 6.3534732 2.1001921 55 0 0 0 24.969931
4.9554434 6.4246769 2.2900603 214 0 0 0 35.118839
7.28969 6.3323421 2.3612008 348.75 0 0 0 38.254246
7.8010387 6.2842846 2.3260248 270 0 0 0 38.841812
8.222393 6.4515204 2.1682153 366 0 0 0 39.039181
14.456682 6.4143991 2.0901213 258 0 0 0 42.939846
15.081274 6.2508426 2.1567981 127 0 0 0 43.340321
-0.4057619 6.7586684 2.0666549 109 0 0 0 23.793869
0.099394575 6.9976263 2.1372049 133 0 0 0 24.969931
5.6489449 6.78269 2.3773758 228.5 0 0 0 35.7104
6.6562095 6.5999146 2.3326077 307 0 0 0 37.20998
7.0127292 6.7262516 2.2559268 330 0 0 0 37.473793
8.0769157 6.8358355 2.1941676 280 0 0 0 38.448265
14.017348 6.6379375 2.0498314 339 0 0 0 42.553879
24.411213 6.735497 2.0882013 66 0 0 0 45.287998
-3.0149322 7.0974579 2.2462506 378 0 0 0 18.344509
-0.24538441 7.0211053 2.1439285 256 0 0 0 24.19121
2.2023029 7.4819613 2.3858924 179 0 0 0 29.266479
3.4218349 7.3676677 2.2873344 465 0 0 0 31.613661
3.8613002 7.3391004 2.1289632 421 0 0 0 32.383129
7.7716856 7.2644892 2.2048581 338 0 0 0 37.671089
12.810537 7.2722158 2.3127873 265 0 0 0 41.382801
13.901231 7.4423838 2.4733374 107 0 0 0 41.768742
14.012014 7.0627728 2.0727634 218 0 0 0 42.163761
23.967171 7.2520213 2.0642436 128 0 0 0 44.894512
-11.765192 7.8324413 2.1970098 207 0 0 0 8.9716902
1.8035759 7.7303252 2.2270052 272.33334 0 0 0 28.35425
2.084517 7.7704105 2.0613339 213 0 0 0 28.87326
3.2635353 7.8486819 2.3197362 225.66667 0 0 0 30.958075
4.0069828 7.6112251 2.4208183 93 0 0 0 32.383129
4.9834757 7.9624147 2.4079173 166 0 0 0 33.555729
7.7492366 7.7972088 2.2761486 196 0 0 0 37.078072
12.656649 7.6031055 2.3174624 180 0 0 0 40.987049
13.283762 7.9774318 2.0455737 312 0 0 0 40.987049
14.247997 7.6266036 2.1329286 194 0 0 0 41.768742
-13.027968 8.2276278 2.3940392 47 0 0 0 8.5778799
-4.6854849 8.1448078 2.2678559 297.5 0 0 0 16.37888
-4.366735 8.195735 2.2806385 394.33334 0 0 0 16.90699
-3.6644616 8.1038046 2.2585845 335 0 0 0 17.944811
3.7505295 8.3214493 2.2250586 222 0 0 0 31.417099
4.7709475 8.2848997 2.4492617 190 0 0 0 32.974808
12.370316 8.2864304 2.335525 208 0 0 0 40.212231
12.632967 8.0184546 2.3474317 191 0 0 0 40.59531
2.8196275 8.7273397 2.3459339 65 0 0 0 29.658659
12.147464 8.578208 2.3321629 191 0 0 0 39.81406
-10.422286 9.3988714 2.1784494 87 0 0 0 11.31602
1.5237652 9.1599808 2.1431763 99 0 0 0 27.32081
-11.58104 10.981628 2.4737623 83 0 0 0 11.69851
-16.006969 11.259328 2.0723925 105 0 0 0 9.3658895
-12.396386 11.195406 2.1773553 122 0 0 0 11.31602
-10.90824 11.405422 2.4454968 197 0 0 0 12.4803
16.275551 11.472795 2.1244011 190 0 0 0 39.81406
-13.396937 11.522342 2.3026955 119 0 0 0 10.91757
-12.456703 11.818014 2.2369366 110 0 0 0 11.69851
16.179029 12.010995 2.148567 193 0 0 0 39.433247
-11.692643 12.849551 2.2612655 90 0 0 0 12.87008
-13.856734 13.82284 2.0663671 77 0 0 0 12.0837
15.914608 13.744544 2.2384701 170 0 0 0 38.252079
-13.569218 14.215442 2.07392 52 0 0 0 12.4803
15.881301 14.411926 2.2814794 139 0 0 0 37.868382
-3.7018733 -11.140196 2.7293968 304 0 0 0 79.680222
-10.736395 -10.724519 2.7642601 478 0 0 0 87.109421
-3.5871093 -10.792543 2.9241982 234 0 0 0 79.680222
4.4094677 -10.737653 2.9997373 116 0 0 0 68.344818
4.6472111 -10.571373 2.9848204 271 0 0 0 67.957245
6.3254442 -10.624289 2.8908031 144 0 0 0 65.99659
-5.6743441 -10.278735 2.7260704 99 0 0 0 82.614502
-5.2818384 -10.457531 2.7208035 119 0 0 0 82.023117
-2.0167899 -10.017534 2.6330683 134 0 0 0 77.72776
-1.8398093 -10.459595 2.7359278 152 0 0 0 77.335693
-0.7711755 -10.089805 2.7352736 250 0 0 0 75.768127
5.7254968 -10.180077 2.7325888 216 0 0 0 66.39492
9.9722328 -10.027084 2.9531341 219 0 0 0 62.085442
-2.849824 -9.7487488 2.7412949 247.75 0 0 0 79.089256
-2.3502798 -9.801281 2.7212851 195.5 0 0 0 78.309921
-1.9240489 -9.5514393 2.7538557 148 0 0 0 77.72776
-1.2278785 -9.7589111 2.6201527 224.33333 0 0 0 76.550896
-0.86152911 -9.7032633 2.7542408 253.5 0 0 0 75.961548
4.7704611 -9.8499966 2.5624232 349.5 0 0 0 67.364311
5.2945232 -9.9813528 2.6445408 284 0 0 0 66.78286
8.1465788 -9.5026903 2.6186166 307 0 0 0 63.260281
8.6029243 -9.5488873 2.6877573 248 0 0 0 62.863327
9.2013044 -9.720211 2.7972505 226 0 0 0 62.476681
12.20973 -9.5775909 2.8525939 153 0 0 0 60.121361
-1.6567545 -9.4106216 2.8182607 200.5 0 0 0 77.335693
-1.2987654 -9.3792715 2.6786435 261 0 0 0 76.748856
7.6798348 -9.4180155 2.5435817 270 0 0 0 63.655151
14.17954 -9.0246954 2.6676159 187 0 0 0 58.564919
15.253428 -9.1879139 2.8232567 175 0 0 0 58.174
16.257458 -9.254776 2.9633451 155 0 0 0 57.779808
13.22108 -8.8800316 2.5302665 226 0 0 0 58.951351
20.440132 -8.509675 2.9461241 41 0 0 0 55.822258
17.551046 -8.3439474 2.5927129 183 0 0 0 56.60342
20.870884 -8.0928183 2.9769785 100 0 0 0 55.443081
8.4096346 -7.6674948 2.6626751 78 0 0 0 61.303352
9.3191719 -7.6911378 2.8242984 178 0 0 0 60.518921
9.6301804 -7.7511559 2.737493 424.5 0 0 0 60.320141
20.933136 -7.5305996 2.9575794 42 0 0 0 55.049019
23.974865 -7.9684448 2.7297952 89 0 0 0 54.655289
0.23913009 -7.1904516 2.7527246 170.5 0 0 0 74.008804
1.7734654 -7.2002387 2.7504702 156 0 0 0 70.68631
8.1154661 -7.0439439 2.5162544 119 0 0 0 60.909321
8.5627251 -7.429738 2.9314668 93 0 0 0 60.909321
9.5553637 -7.1269836 2.7863469 79 0 0 0 59.735081
0.47818875 -6.8409743 2.6258016 325 0 0 0 73.425087
0.72531641 -6.7921677 2.6165502 228.5 0 0 0 72.834473
1.1299598 -6.6754684 2.5947235 248 0 0 0 71.85788
1.8476706 -6.7925558 2.6138515 195 0 0 0 70.297043
8.1999187 -6.7708287 2.8827171 35 0 0 0 60.518921
0.93338376 -6.4798927 2.509557 297 0 0 0 72.254601
8.8645172 -6.1729813 2.6166785 48.666668 0 0 0 59.217846
9.4055071 -6.3213034 2.9293234 28 0 0 0 58.951351
10.132569 -6.1083598 2.7646511 38 0 0 0 58.174
51.467442 -6.4320617 2.9861448 19 0 0 0 51.5275
8.7152843 -5.5537233 2.6746864 50 0 0 0 58.564919
-21.165747 -5.3092961 2.8760831 5 0 0 0 95.700737
25.740046 -5.1630807 2.8276982 80 0 0 0 52.70216
-21.798979 -4.9033175 2.9442151 87 0 0 0 96.078011
10.990595 -4.9024992 2.6617165 247 0 0 0 56.219471
16.841358 -4.6919026 2.7634244 21 0 0 0 53.878807
30.192831 -4.525847 2.535965 27 0 0 0 51.925419
-22.107664 -4.4062223 2.9702816 99 0 0 0 96.466782
-15.18463 1.8965298 2.7711716 65 0 0 0 1.5619
-15.135159 2.2662532 2.7703984 12 0 0 0 1.95518
-15.178389 2.6526496 2.7882199 28 0 0 0 2.3512001
-11.216777 2.5215385 2.6410167 75 0 0 0 3.12221
-10.159601 5.7287712 2.9555869 59 0 0 0 7.7978001
-8.5761595 5.998147 2.6519184 112 0 0 0 9.3658895
6.7649655 5.7367868 2.8320384 346.75 0 0 0 38.448265
7.2279501 5.6814628 2.7067881 324 0 0 0 39.039181
7.686666 5.7398715 2.9424307 227 0 0 0 39.433247
5.5423141 6.4915628 2.8305917 166 0 0 0 35.910007
6.4799032 6.2230716 2.756264 216 0 0 0 37.473793
6.6291523 6.0576515 2.6440043 336.5 0 0 0 37.868382
7.2835298 6.0193467 2.6646593 280 0 0 0 38.644447
7.7747951 6.105938 2.5397296 247 0 0 0 39.039181
5.5779262 6.5347571 2.6355765 359 0 0 0 35.910007
6.1762896 6.7074804 2.5704165 311 0 0 0 36.495419
6.6348262 6.6887012 2.6551316 292 0 0 0 37.078072
8.8312893 6.5844679 2.8253667 143 0 0 0 39.433247
12.792752 6.8525915 2.9980388 98 0 0 0 41.768742
16.047535 6.6505618 2.7232857 107 0 0 0 43.340321
1.7007462 7.4422655 2.5235639 330.5 0 0 0 28.287979
4.8931546 7.4145775 2.720423 277 0 0 0 33.948833
6.679934 7.0758824 2.9803965 147 0 0 0 36.691231
12.978198 7.3675494 2.7129424 104 0 0 0 41.382801
13.285728 7.1148505 2.7398918 115 0 0 0 41.768742
29.515692 7.365211 2.5020232 59 0 0 0 45.679642
31.968132 7.1463294 2.6926146 44 0 0 0 46.066849
-11.374264 7.9792824 2.5010164 92 0 0 0 9.3658895
-3.1235719 7.9057374 2.5783515 286 0 0 0 18.732309
-2.7006643 7.6340885 2.6574662 310.5 0 0 0 19.310276
-2.4033773 7.6832018 2.6428552 282 0 0 0 19.902439
-1.8328447 7.8285537 2.837837 308 0 0 0 21.063879
-0.073239289 7.5168414 2.6619418 23 0 0 0 24.57724
1.4281411 7.5201149 2.5289531 494 0 0 0 27.70322
4.6825948 7.7693195 2.7758653 160 0 0 0 33.29549
12.67478 7.8285818 2.7076037 121.5 0 0 0 40.79118
-3.7948785 8.4002552 2.5676267 411 0 0 0 17.944811
-3.3854551 8.287735 2.9344537 316.5 0 0 0 18.53841
-2.1200242 8.1778564 2.7737181 71 0 0 0 20.67889
-1.7921052 8.1237869 2.8351552 158 0 0 0 21.260115
-1.3047311 8.2989912 2.9663956 199 0 0 0 22.23126
-0.88555384 8.2463779 2.9305015 203 0 0 0 23.01581
2.2230716 8.2746162 2.616607 73 0 0 0 28.87326
2.9026334 8.2930555 2.7921114 349 0 0 0 30.046869
3.0967693 8.194767 2.7847867 314 0 0 0 30.441019
-4.7810874 8.8147888 2.7901101 87 0 0 0 16.77916
1.2523401 8.8911457 2.9588177 126 0 0 0 26.92083
2.8683813 8.6410513 2.6301148 303.66666 0 0 0 29.788063
3.6286938 8.9142799 2.9381425 188 0 0 0 30.826839
-2.1964164 9.4722786 2.7117269 100 0 0 0 21.063879
-1.2242607 9.3536854 2.8653834 79 0 0 0 22.620489
-0.067681529 9.4700832 2.6476579 77 0 0 0 24.57724
-0.79513574 9.8376408 2.9980254 195 0 0 0 23.412149
0.66278803 9.8816023 2.7695293 125 0 0 0 25.75205
17.016874 9.6482458 2.5725002 87 0 0 0 41.382801
0.95425177 10.349504 2.9055269 53 0 0 0 26.145041
1.1733394 10.041692 2.8279588 142 0 0 0 26.53437
16.403107 10.399261 2.552959 132 0 0 0 40.59531
-14.987025 10.535945 2.8407998 76 0 0 0 9.3658895
16.307636 10.910149 2.5779793 175 0 0 0 40.212231
-19.002758 11.388372 2.8887701 50 0 0 0 8.1937799
-13.049838 11.22277 2.6673172 158 0 0 0 10.91757
-10.39047 11.408548 2.7711823 142 0 0 0 12.87008
16.218807 11.437957 2.6064677 173 0 0 0 39.81406
-10.387433 11.984083 2.8471439 117 0 0 0 13.2644
16.132975 11.982079 2.638037 182 0 0 0 39.433247
-10.767827 12.425961 2.5459623 79 0 0 0 13.2644
-10.296802 12.486096 2.9046872 175 0 0 0 13.65717
-10.218602 12.705366 2.7256117 38.5 0 0 0 13.852091
-10.31318 13.839569 2.6701746 56 0 0 0 14.44185
-83.469719 14.688501 2.7669969 18 0 0 0 2.3512001
-14.543139 14.508966 2.6706598 30 0 0 0 12.0837
-5.7985978 -12.219258 3.4687233 49 0 0 0 81.628166
6.9203572 -11.617745 3.4906852 110 0 0 0 65.99659
-4.0233808 -11.18439 3.3491852 112 0 0 0 80.062637
7.3430538 -11.255394 3.2480252 112.66666 0 0 0 65.342888
7.9175797 -11.306537 3.2228127 106 0 0 0 64.828499
-3.5504909 -10.684019 3.3124781 265 0 0 0 79.680222
-1.6149046 -10.725259 3.3299696 83 0 0 0 76.943504
4.3930869 -10.697849 3.2763648 224 0 0 0 68.344818
4.6502833 -10.578094 3.2741165 223 0 0 0 67.957245
11.747935 -10.701072 3.3131478 158 0 0 0 61.303352
12.612069 -10.931842 3.4774971 107 0 0 0 60.909321
-2.2902312 -10.095663 3.3056531 89.5 0 0 0 78.114128
10.888932 -10.421276 3.1446862 171 0 0 0 61.695042
13.422415 -10.003597 3.0737736 126 0 0 0 59.735081
14.379799 -10.175741 3.2320528 143 0 0 0 59.351089
15.534821 -10.428134 3.4298282 112 0 0 0 58.951351
-3.0436783 -9.966198 3.1970093 307 0 0 0 79.286018
-2.6919916 -9.6518574 3.0758421 239 0 0 0 78.892494
-2.4812236 -9.8156128 3.2329435 194.5 0 0 0 78.505714
-1.8534074 -9.6125603 3.2483578 183 0 0 0 77.597069
-1.3415589 -9.7024117 3.2508235 194.75 0 0 0 76.748856
-0.90893584 -9.7718439 3.1782484 150.33333 0 0 0 76.026024
-1.6647068 -9.4502439 3.1861713 192 0 0 0 77.335693
17.507807 -9.4031134 3.1448729 127 0 0 0 57.394539
19.523018 -9.277916 3.4153447 63 0 0 0 56.60342
17.73638 -8.9715405 3.1445782 59 0 0 0 56.997311
7.9922838 -8.0399132 3.2141254 15 0 0 0 62.085442
8.8049259 -8.0252132 3.3754807 46 0 0 0 61.303352
26.700689 -8.1497526 3.010761 57 0 0 0 54.261921
29.80958 -8.3020115 3.3313174 39 0 0 0 53.878807
9.7040939 -7.6145272 3.1857173 252 0 0 0 60.121361
18.599964 -7.7444382 3.1839855 64 0 0 0 55.822258
20.399521 -7.9094443 3.4530301 81 0 0 0 55.443081
7.8640747 -7.3474903 3.3187914 75.5 0 0 0 61.499199
7.8335218 -6.7967663 3.1992021 35 0 0 0 60.909321
8.3699942 -6.5717416 3.0189137 70 0 0 0 60.121361
9.0618477 -6.7595377 3.2044971 58 0 0 0 59.735081
10.82936 -6.5259976 3.2630055 12 0 0 0 58.174
-22.478386 -6.2280917 3.0718203 34 0 0 0 95.311272
8.337162 -6.2187772 3.2079682 59 0 0 0 59.735081
8.9013233 -6.3034477 3.3619435 138 0 0 0 59.351089
9.1704655 -6.3296347 3.1589594 94.5 0 0 0 59.151222
9.314887 -5.8245816 3.2946224 128.66667 0 0 0 58.434612
10.751659 -5.4425597 3.4111478 29 0 0 0 56.997311
25.646757 -5.1385431 3.4617634 63 0 0 0 52.70216
10.978292 -4.8947573 3.2518692 134.5 0 0 0 56.219471
16.72122 -4.6577253 3.1746302 31 0 0 0 53.878807
30.094219 -4.5097222 3.2680483 31 0 0 0 51.925419
-21.295771 -4.2444882 3.3996408 17 0 0 0 96.466782
-22.506544 -3.9145737 3.0098186 30 0 0 0 96.870247
-16.008095 2.0013585 3.3149114 43 0 0 0 1.5619
-15.951958 2.390686 3.3133206 77 0 0 0 1.95518
-15.329605 2.6803081 3.1959996 8 0 0 0 2.3512001
-14.725984 2.9438765 3.4483175 44 0 0 0 2.7386701
-16.274036 3.2579088 3.4067254 11 0 0 0 2.7386701
7.7202597 5.472261 3.1386292 58 0 0 0 39.81406
42.213703 5.1569128 3.4921067 12 0 0 0 47.633472
-11.700384 5.872654 3.3173978 186 0 0 0 7.0198102
-10.344596 5.8350806 3.3020084 164 0 0 0 7.7978001
-9.5304985 5.6820726 3.0849888 87 0 0 0 8.1937799
7.473268 5.5801306 3.0936379 320 0 0 0 39.433247
6.4809213 6.227212 3.4227171 281 0 0 0 37.473793
6.7616158 6.3347521 3.2996449 275 0 0 0 37.671089
8.0430517 6.3161016 3.3870058 145 0 0 0 39.039181
13.838553 6.1465645 3.4997458 79 0 0 0 42.939846
14.106417 6.2614784 3.1874547 118 0 0 0 42.939846
-12.84826 6.8512964 3.3331249 107 0 0 0 7.4154301
-10.689457 6.7397056 3.2005544 116 0 0 0 8.5778799
-10.325212 6.8665924 3.2910986 73 0 0 0 8.9716902
5.3803625 6.9743686 3.3513784 247 0 0 0 35.118839
6.7149844 6.6604218 3.2099752 244.66667 0 0 0 37.20998
7.207212 6.580183 3.2328587 156 0 0 0 37.868382
8.7967844 6.5593481 3.0881228 131 0 0 0 39.433247
12.226897 6.5541725 3.2083623 152 0 0 0 41.768742
13.121163 6.6173701 3.0358706 98 0 0 0 42.163761
13.729071 6.7116718 3.3415246 124 0 0 0 42.358818
16.004622 6.6335483 3.1460729 65 0 0 0 43.340321
4.7903414 7.4603939 3.2621469 317 0 0 0 33.752281
5.2917252 7.2193975 3.1842091 184 0 0 0 34.734272
5.5361323 7.173419 3.2235563 216 0 0 0 35.118839
6.4600768 7.1888161 3.1997364 207 0 0 0 36.299606
6.9103975 7.3154249 3.3303864 169 0 0 0 36.691231
7.1032119 7.1591239 3.0878727 205 0 0 0 37.078072
11.728683 7.2507658 3.1880546 200 0 0 0 40.79118
12.770512 7.2507682 3.0326321 107 0 0 0 41.382801
28.708059 7.1652446 3.1545153 106 0 0 0 45.679642
36.298794 7.1812105 3.0381508 20 0 0 0 46.458408
41.951378 7.2318463 3.4913516 45 0 0 0 46.845726
4.7557468 7.6079855 3.2997794 171 0 0 0 33.557102
5.0821085 7.6942935 3.0508397 151 0 0 0 33.948833
5.7995882 7.6973057 3.1886499 173 0 0 0 34.926556
6.4943471 7.9814034 3.4022074 129 0 0 0 35.510792
12.781787 7.6791039 3.0779943 104 0 0 0 40.987049
28.650747 7.9039879 3.1671772 74 0 0 0 45.287998
-10.53931 8.1858768 3.377702 118 0 0 0 10.14363
-3.7894461 8.381958 3.2376163 232 0 0 0 17.944811
-1.2887912 8.1915998 3.1314094 254.66667 0 0 0 22.232964
-0.67006481 8.0907669 3.0682328 239 0 0 0 23.412149
3.2844634 8.381012 3.4151349 190 0 0 0 30.63393
3.697907 8.2176714 3.3081992 230 0 0 0 31.417101
4.283783 8.2922964 3.3120258 203.33333 0 0 0 32.254169
4.9752879 8.4067411 3.4678996 141 0 0 0 33.165371
5.2674575 8.4137754 3.0340459 155 0 0 0 33.555729
6.1655378 8.1822653 3.1327085 151.5 0 0 0 34.926556
12.15239 8.142314 3.0192013 125 0 0 0 40.212231
12.662849 8.0385122 3.0952418 116 0 0 0 40.59531
-4.5236778 8.8453465 3.0076981 353 0 0 0 17.162649
-4.346159 8.7614279 3.2000546 210.75 0 0 0 17.356709
-3.596406 8.5041933 3.250396 262 0 0 0 18.344509
-3.4817824 8.8361311 3.3434565 189 0 0 0 18.732309
-2.9686923 8.764327 3.485014 122 0 0 0 19.50522
-2.451267 8.5916042 3.3671162 222 0 0 0 20.29196
-1.1711444 8.9063492 3.1709116 107 0 0 0 22.620489
0.85300469 8.648572 3.1468954 207 0 0 0 26.274818
1.290067 8.6807089 3.2509196 258 0 0 0 27.054155
1.7345098 8.6881075 3.2099771 211 0 0 0 27.831869
2.395051 8.8876305 3.0360191 172 0 0 0 28.87326
2.5328121 8.5731058 3.1696064 331 0 0 0 29.266479
3.9832098 8.5517273 3.1158645 175 0 0 0 31.613661
4.3844409 8.8386192 3.4998074 111 0 0 0 31.99625
4.794672 8.5722895 3.0011513 91 0 0 0 32.784241
12.557886 8.8677645 3.1702225 58 0 0 0 39.81406
-11.039578 9.0195723 3.2592669 43 0 0 0 10.53332
-4.0776391 9.0380554 3.0028071 267 0 0 0 17.944811
-1.4374422 9.2239285 3.0653131 119 0 0 0 22.23126
-0.76357341 9.4029541 3.2139964 162 0 0 0 23.412149
2.8064382 9.4600649 3.2526941 184 0 0 0 29.266479
3.4908423 9.220623 3.4941888 142 0 0 0 30.441019
3.8297088 9.0819798 3.249891 192 0 0 0 31.023689
4.2925205 9.2107067 3.2292736 110.5 0 0 0 31.608395
4.8439884 9.4512806 3.3717706 152.5 0 0 0 32.18969
6.1257663 9.2520905 3.1137733 296 0 0 0 33.948833
19.937126 9.4307013 3.4445877 18 0 0 0 42.553879
0.28917468 9.7336597 3.4408326 141 0 0 0 25.167545
0.78691411 9.893095 3.264806 140 0 0 0 25.948545
1.1506466 9.8599977 3.266634 151 0 0 0 26.53437
1.63806 9.8139629 3.2757041 129 0 0 0 27.32081
3.0900898 9.5435104 3.3067915 192 0 0 0 29.658659
3.8806953 9.5166054 3.3892589 177 0 0 0 30.826839
4.5023899 9.6502342 3.2480526 153 0 0 0 31.613661
5.5246277 9.8537474 3.1671681 82 0 0 0 32.784241
19.029839 9.5824194 3.3282206 187 0 0 0 42.163761
27.568035 9.8434944 3.1163621 50 0 0 0 44.107689
29.540852 9.7347736 3.3100548 23 0 0 0 44.504459
-0.57153398 10.275087 3.3794539 209 0 0 0 23.793869
-0.15004428 10.163387 3.2550685 140 0 0 0 24.448563
0.42805827 10.094545 3.0721192 132 0 0 0 25.36516
0.67790097 10.105721 3.0803537 238 0 0 0 25.75205
1.1460524 10.931339 3.3413811 86 0 0 0 26.339706
-9.6743345 11.725132 3.1016967 222 0 0 0 13.65717
-13.67407 12.361502 3.3084588 97 0 0 0 11.31602
-11.836367 12.386635 3.2832255 97.5 0 0 0 12.4803
-9.4652758 12.06187 3.1280956 151 0 0 0 14.04701
-14.524715 12.50255 3.4396253 78 0 0 0 10.91757
-12.930727 12.891829 3.2762156 49 0 0 0 12.0837
-11.257169 12.680671 3.4582934 91.5 0 0 0 13.06724
15.883237 13.056452 3.2065122 196 0 0 0 38.644447
-10.243479 14.477104 3.1798604 48 0 0 0 14.82843
-9.9460392 14.813553 3.1988723 42 0 0 0 15.22202
-5.6794105 -13.660681 3.7926705 19 0 0 0 80.852951
-5.365068 -13.852267 3.8088017 86 0 0 0 80.450439
-5.9318113 -13.336214 3.7415712 60 0 0 0 81.236305
-5.0933027 -13.147675 3.9667599 22 0 0 0 80.450439
-6.7811332 -12.285853 3.9449277 57.5 0 0 0 82.614502
-6.2833142 -12.444982 3.9199216 37 0 0 0 82.023117
-7.5602493 -11.913547 3.6144342 22 0 0 0 83.57843
-5.3339386 -11.98783 3.6921949 47 0 0 0 81.236305
-4.939682 -11.878261 3.7782779 128.5 0 0 0 80.852951
7.2749324 -11.55745 3.5248694 105 0 0 0 65.602898
14.701163 -11.524449 3.8864608 63 0 0 0 60.121361
-6.696692 -11.148711 3.9766655 106 0 0 0 83.190498
-4.5959473 -11.045403 3.9593382 231 0 0 0 80.852951
-4.1585727 -11.130686 3.7862649 112.5 0 0 0 80.256538
8.0029707 -11.427482 3.6000915 44 0 0 0 64.828499
10.466294 -11.046501 3.5482919 166 0 0 0 62.476681
-3.5402796 -10.649118 3.7175114 134 0 0 0 79.680222
3.8963208 -10.992771 3.8789728 120 0 0 0 69.119606
4.2869473 -10.813965 3.7258296 116.5 0 0 0 68.539108
4.6367459 -10.542321 3.5470304 242 0 0 0 67.957245
10.381525 -10.956786 3.8911352 166 0 0 0 62.476681
10.882441 -10.933693 3.9757648 21 0 0 0 62.085442
16.800129 -10.68652 3.6467509 132 0 0 0 58.564919
17.834669 -10.737233 3.8102524 114 0 0 0 58.174
-5.9230394 -10.424434 3.9651604 114 0 0 0 82.808189
-5.2021132 -10.297455 3.8175259 112 0 0 0 82.023117
4.6060381 -10.477695 3.8087902 244 0 0 0 67.957245
-4.236896 -9.5224409 3.7077839 113 0 0 0 81.236305
-2.0019774 -9.958086 3.619235 48 0 0 0 77.72776
-4.0943065 -9.2003241 3.8298895 46 0 0 0 81.236305
2.8068943 -9.3561058 3.7325962 118 0 0 0 69.908272
5.642518 -9.2167454 3.865644 59 0 0 0 65.799744
17.489136 -9.39219 3.633812 59 0 0 0 57.394539
18.39834 -9.304534 3.7716558 40 0 0 0 56.997311
35.593121 -8.9739408 3.9424303 36 0 0 0 53.48423
45.990631 -8.0487967 3.8606813 14 0 0 0 52.313072
7.9911542 -7.647377 3.9558337 34 0 0 0 61.695042
8.023983 -7.684444 3.7001436 61 0 0 0 61.695042
9.5629005 -7.5004773 3.7418389 63 0 0 0 60.121361
18.839314 -7.842875 3.7304976 39 0 0 0 55.822258
7.9931092 -7.2877765 3.6034021 61 0 0 0 61.303352
8.3117599 -7.2061081 3.9344077 99 0 0 0 60.909321
8.7169199 -7.3133416 3.8799293 122.66666 0 0 0 60.649052
9.0392046 -7.4569712 3.6094086 57 0 0 0 60.518921
9.9818039 -6.7032371 3.7016795 38 0 0 0 58.951351
8.2662201 -6.3209505 3.8510029 53 0 0 0 59.928223
9.0023355 -6.3765101 3.6736708 79 0 0 0 59.351089
10.847798 -6.3550162 3.5580986 17 0 0 0 57.976906
-22.117352 -5.5479836 3.5679398 7 0 0 0 95.700737
8.7673283 -5.7877102 3.6726286 63.333332 0 0 0 58.82254
9.731123 -5.5440574 3.7280788 8 0 0 0 57.779808
10.265125 -5.5164146 3.7326853 19.5 0 0 0 57.394539
8.5223475 -5.424942 3.8643529 27 0 0 0 58.564919
10.376631 -5.2507181 3.5803044 19 0 0 0 56.997311
-21.860643 -4.9172196 3.5067494 112 0 0 0 96.078011
10.9885 -4.5773363 3.9579136 163 0 0 0 55.822258
11.068766 -4.6089182 3.6886311 75 0 0 0 55.822258
16.617702 -4.6262188 3.7917464 25.5 0 0 0 53.878807
-22.053043 -3.835783 3.5036314 17 0 0 0 96.870247
-21.632347 -3.2183955 3.9654584 73 0 0 0 97.255035
-15.071817 2.2569122 3.8726668 16 0 0 0 1.95518
-15.145434 2.6461101 3.5312123 29 0 0 0 2.3512001
-13.70393 3.0883245 3.7396483 17 0 0 0 3.12221
-10.500414 4.9470682 3.5115261 164 0 0 0 6.6255198
-10.322868 4.5594273 3.8270168 45 0 0 0 6.23563
-9.8389816 4.9284964 3.8656597 39 0 0 0 7.0198102
-11.893312 5.2592483 3.9344366 23 0 0 0 6.23563
-9.6825123 5.1484571 3.8519714 58 0 0 0 7.4154301
-12.299529 5.8053598 3.7821536 23 0 0 0 6.6255198
-11.660721 5.8535209 3.627821 168 0 0 0 7.0198102
-10.687589 5.6928329 3.9592221 34 0 0 0 7.4154301
