# .PCD v0.7 - Point Cloud Data file format
VERSION 0.7
FIELDS x y z intensity normal_x normal_y normal_z curvature
SIZE 4 4 4 4 4 4 4 4
TYPE F F F F F F F F
COUNT 1 1 1 1 1 1 1 1
WIDTH 899
HEIGHT 1
VIEWPOINT 0 0 0 1 0 0 0
POINTS 899
DATA ascii
4.6678362 -0.23348168 -0.7331233 72.199997 0 0 0 50.409554
5.4711576 -0.33936781 -0.73113418 155.5 0 0 0 50.602791
5.5062113 -0.13626315 -0.7349053 172 0 0 0 50.02002
6.6214833 -0.3263292 -0.72497791 218.66667 0 0 0 50.408535
8.3288879 -0.20664538 -0.71235353 229 0 0 0 50.020233
11.121916 -0.13752674 -0.68520993 172.5 0 0 0 49.825378
14.912629 -0.36761692 -0.56352437 110 0 0 0 50.02002
-7.0242205 0.16045226 -0.94471294 165 0 0 0 0
-6.943604 0.40965778 -0.93453145 182 0 0 0 0.58162498
-5.7690463 0.27111813 -0.90276718 97 0 0 0 0.38775
-4.8996096 0.28731918 -0.87879604 43.25 0 0 0 0.58122998
-4.2802258 0.20189245 -0.86524755 18.799999 0 0 0 20.406231
4.0846596 0.25427744 -0.74312407 29 0 0 0 48.652424
4.6578994 0.28821641 -0.73244041 62.75 0 0 0 48.652424
5.4659615 0.20356056 -0.73022342 159.25 0 0 0 49.04229
6.6302853 0.24850459 -0.72615767 219.25 0 0 0 49.04229
8.3086309 0.30808848 -0.71103394 232.5 0 0 0 49.039162
11.093442 0.27373302 -0.68367201 191 0 0 0 49.233879
14.910536 0.18398301 -0.56355345 114 0 0 0 49.432312
-6.9509573 0.74848086 -0.93927777 161.5 0 0 0 1.361395
-5.7806234 0.76313347 -0.91185397 111.25 0 0 0 1.7525251
-4.9148688 0.76549923 -0.89137954 53.5 0 0 0 2.1431224
-4.2781119 0.71705538 -0.87286645 23.6 0 0 0 2.338068
3.9719765 0.85424352 -0.73801458 29.5 0 0 0 46.303295
4.0231462 0.60547948 -0.73891956 26 0 0 0 47.280445
4.5818987 0.74642873 -0.72896159 53 0 0 0 47.086403
5.3815184 0.73967558 -0.72551483 131.75 0 0 0 47.478157
6.5699539 0.82047564 -0.72488785 222 0 0 0 47.674564
8.2872763 0.71871376 -0.71165907 276 0 0 0 48.265686
11.107479 0.68626922 -0.68599522 173.5 0 0 0 48.652264
14.937302 0.73717743 -0.56549704 105 0 0 0 48.844448
-7.0623851 1.1964068 -0.96349865 189.66667 0 0 0 2.3371232
-5.8331132 1.2779732 -0.93490785 154.33333 0 0 0 3.1179435
-4.9174008 1.2588339 -0.91099185 76.25 0 0 0 3.7031524
-4.2282772 1.1319014 -0.88136083 28.333334 0 0 0 3.8982534
3.9115002 1.2071418 -0.7443909 36.200001 0 0 0 44.938126
4.5576501 1.2194015 -0.74160796 93 0 0 0 45.522118
5.3813744 1.2244964 -0.73779821 159 0 0 0 46.107052
6.5843515 1.2406012 -0.73415852 244 0 0 0 46.696602
8.3004875 1.2418175 -0.71878022 256.33334 0 0 0 47.280445
11.132057 1.2420504 -0.69099307 179 0 0 0 47.872566
14.963949 1.1088514 -0.56765211 89 0 0 0 48.460079
15.081783 1.4922065 -0.57387418 133 0 0 0 48.071289
-7.1832204 1.6680439 -0.99310386 209.5 0 0 0 3.3148851
-5.8937559 1.6683812 -0.96029472 174 0 0 0 4.0914202
-3.5767717 1.8989224 -0.90902376 58.5 0 0 0 7.6048999
3.8564854 1.7417748 -0.77044463 86.599998 0 0 0 42.986698
4.4711494 1.8799708 -0.76303154 132 0 0 0 43.381378
4.5319328 1.6457652 -0.7584756 148.33333 0 0 0 44.157654
5.3634462 1.7226923 -0.75399095 227 0 0 0 44.744015
6.6237774 1.6792051 -0.74961442 261 0 0 0 45.716564
8.361496 1.7847316 -0.73302317 243 0 0 0 46.303295
11.227299 1.8179843 -0.70249337 200.5 0 0 0 47.083748
15.168922 1.8794652 -0.57927632 103 0 0 0 47.67384
-4.0117774 2.0769193 -0.91293621 60 0 0 0 7.4075899
-3.8346477 2.2753913 -0.92054397 62.599998 0 0 0 8.3465137
-3.350982 2.2739818 -0.91076118 32.599998 0 0 0 9.3589401
2.9645252 2.4949105 -0.79805797 33 0 0 0 38.679352
3.6767335 2.2484183 -0.78498369 93 0 0 0 41.023407
4.3928108 2.2475038 -0.77720064 223.2 0 0 0 42.199799
5.3073044 2.2289965 -0.77102786 415.33334 0 0 0 43.379444
6.5991955 2.2062819 -0.76399899 306 0 0 0 44.547749
8.399826 2.2324338 -0.74579513 252 0 0 0 45.523685
11.336417 2.2685935 -0.71480322 194 0 0 0 46.50428
15.3311 2.2845385 -0.58814502 93 0 0 0 47.278568
-4.619771 2.7690783 -0.9711417 119.5 0 0 0 8.382
-4.4834495 2.9121857 -0.96364218 150 0 0 0 8.9763803
-3.675251 2.7746892 -0.9338001 80.800003 0 0 0 10.140148
-3.1393178 2.6053572 -0.91878629 42.666668 0 0 0 10.923797
-2.8762879 2.8279836 -0.90914005 42 0 0 0 12.285748
2.7537727 2.7629116 -0.80382854 89.333336 0 0 0 37.308372
3.366143 2.8259962 -0.80018121 71.333336 0 0 0 38.67979
3.521102 2.6001511 -0.79695344 59 0 0 0 39.656334
4.2189856 2.7177794 -0.79044598 166.66667 0 0 0 40.633881
5.1924949 2.7353587 -0.78679746 345.5 0 0 0 42.002632
6.5365434 2.7407694 -0.77887058 433 0 0 0 43.379444
8.4075317 2.6861424 -0.75794125 271.5 0 0 0 44.741943
11.394262 2.7231169 -0.72491336 180.5 0 0 0 45.908436
15.509028 2.7033286 -0.59811461 77 0 0 0 46.888927
-4.356843 3.2221985 -0.97821653 149.5 0 0 0 9.9440947
-3.2666528 3.2295086 -0.93299991 121.83334 0 0 0 12.287192
-2.629884 3.0646503 -0.91138095 45.666668 0 0 0 13.650531
-2.2790456 3.2780528 -0.90269488 71.400002 0 0 0 15.298866
-1.9643972 3.4700792 -0.90224874 36 0 0 0 16.77733
2.2779124 3.2673099 -0.82008797 56.666668 0 0 0 34.564114
2.7970018 3.2789421 -0.81537318 99.333336 0 0 0 36.061974
3.1477087 3.1493068 -0.81067789 99.75 0 0 0 37.31036
3.9121265 3.3564091 -0.81208086 177 0 0 0 38.482323
4.1039248 3.0985825 -0.81041688 167.66667 0 0 0 39.462463
4.9899211 3.3860316 -0.80875939 295 0 0 0 40.244221
5.0699291 3.1712663 -0.80190933 286.5 0 0 0 40.828712
6.4870386 3.205132 -0.7956512 296.5 0 0 0 42.397583
8.408494 3.1527123 -0.77177799 267.5 0 0 0 43.96394
11.468605 3.193532 -0.73721683 150 0 0 0 45.332809
15.659913 3.1292942 -0.60739094 106 0 0 0 46.50428
-4.14077 3.6443706 -0.99719024 153 0 0 0 11.31349
-3.9661162 3.8472617 -0.99900782 169 0 0 0 12.0923
-2.7712355 3.6785395 -0.93734723 124 0 0 0 14.631322
-2.3336716 3.9243953 -0.92960835 124.33334 0 0 0 16.392723
-1.8452344 3.7862325 -0.90286028 54.5 0 0 0 17.759621
-1.4246867 3.6863759 -0.8963154 33 0 0 0 19.126431
-0.19459054 3.9360144 -0.89895183 65 0 0 0 24.203659
1.4468026 3.9793892 -0.87026745 53 0 0 0 30.46229
1.7442064 3.7561004 -0.85221171 43.666668 0 0 0 31.826744
2.0358655 3.5369329 -0.83944976 55 0 0 0 33.190681
2.7077584 3.7668979 -0.84511173 194.60001 0 0 0 34.758976
3.6975217 3.6860843 -0.82281184 203.25 0 0 0 37.310364
4.9183459 3.7071848 -0.82670254 231.66667 0 0 0 39.462463
6.4667535 3.7106438 -0.82085943 266.66666 0 0 0 41.414871
8.422966 3.6430094 -0.78944367 225.5 0 0 0 43.18491
11.63211 3.7094598 -0.75703824 142 0 0 0 44.741943
15.766912 3.7631149 -0.61720002 103 0 0 0 45.908436
-6.0498652 4.3925877 -0.64129502 277 0 0 0 9.7443895
-4.7647419 4.315865 -0.7738657 453.5 0 0 0 11.508785
-4.3436112 4.2251964 -0.95047212 476.33334 0 0 0 12.090793
-3.8071451 4.2786055 -0.96416897 389 0 0 0 13.26521
-3.2088001 4.1682715 -0.87266415 464.60001 0 0 0 14.435285
-2.7206328 4.2723551 -0.76622742 426 0 0 0 15.872531
-2.2045116 4.2371984 -0.8582471 207 0 0 0 17.282879
-1.7266906 4.111412 -0.86167973 168 0 0 0 18.623795
-1.2631264 4.189147 -0.83780134 176.8 0 0 0 20.300426
-0.69670993 4.1394525 -0.83830214 67.833336 0 0 0 22.313696
-0.24942523 4.1222939 -0.84304726 104.5 0 0 0 24.006851
0.25323915 4.2171998 -0.8469786 75 0 0 0 25.898527
0.73458552 4.2814102 -0.84334409 178.44444 0 0 0 27.638878
1.2290311 4.2663202 -0.85147691 191.11111 0 0 0 29.368134
1.7766578 4.3472395 -0.8538838 215.25 0 0 0 31.043753
2.3128071 4.355958 -0.89914733 282.5 0 0 0 32.609608
2.6903918 4.3800073 -0.83890307 225.5 0 0 0 33.587055
3.0825424 4.4947982 -0.85912079 324 0 0 0 34.368698
3.5532963 4.2160525 -0.87006217 251 0 0 0 35.933197
4.888288 4.289536 -0.87436014 332.33334 0 0 0 38.288219
6.486896 4.1592975 -0.84919101 253 0 0 0 40.628181
6.593617 4.4605684 -0.87825376 349 0 0 0 40.244221
8.464613 4.0386162 -0.80744666 182 0 0 0 42.593319
8.5713463 4.3522696 -0.82841784 205 0 0 0 42.201847
11.722913 4.2209654 -0.77324474 132 0 0 0 44.159367
15.945658 4.4334846 -0.63094175 105 0 0 0 45.332809
-23.483385 4.6255631 -0.99238968 72 0 0 0 2.7240601
-20.733774 4.6092224 -0.87541854 71 0 0 0 3.1178501
-19.038744 4.7203288 -0.804726 58 0 0 0 3.51192
-17.731081 4.8559895 -0.75109106 178 0 0 0 3.8961
-15.025066 4.5057821 -0.63448596 205 0 0 0 4.2867398
-7.7799225 4.751513 -0.79137355 360.66666 0 0 0 8.4521132
-7.185204 4.7746472 -0.74829698 450.25 0 0 0 9.066721
-6.8703847 4.7491922 -0.82510376 308 0 0 0 9.3603849
-6.4047275 4.8992953 -0.69498128 251 0 0 0 10.14167
-5.6124496 4.7340803 -0.6285724 463 0 0 0 10.92436
-5.4497781 4.8275113 -0.62276083 280 0 0 0 11.31495
-4.7257695 4.7592492 -0.62509698 418.66666 0 0 0 12.351737
-4.2082133 4.7379284 -0.69035685 190 0 0 0 13.26521
-3.1130726 4.5658603 -0.77567655 559 0 0 0 15.350307
-2.6755362 4.6440907 -0.72254115 476.22223 0 0 0 16.565071
-2.3529725 4.6419854 -0.64559555 311.33334 0 0 0 17.432861
-1.6211338 4.5855837 -0.69749963 221 0 0 0 19.5207
-1.2551029 4.7778902 -0.67919141 182.75 0 0 0 20.836205
-0.81144267 4.7697864 -0.75272721 112.5 0 0 0 22.249201
-0.32739869 4.6392832 -0.74805468 154 0 0 0 23.81312
0.22736341 4.7527676 -0.75558472 122.11111 0 0 0 25.681129
0.78939855 4.7342997 -0.75008202 117.25 0 0 0 27.530941
1.3295507 4.8949175 -0.79528493 280 0 0 0 29.089445
1.8321543 4.8079901 -0.80822873 313.5 0 0 0 30.650553
2.2364104 4.6883802 -0.75046831 308.5 0 0 0 31.926712
2.5689728 4.6887398 -0.70700991 148.5 0 0 0 32.801861
3.3502269 4.5105467 -0.88683182 513.5 0 0 0 34.951664
3.833189 4.6556244 -0.80799448 268.5 0 0 0 35.738045
4.2321348 4.6437626 -0.84317124 471.5 0 0 0 36.522511
4.6952124 4.6607952 -0.88961095 681.5 0 0 0 37.309952
5.4027853 4.8509398 -0.79815149 331.5 0 0 0 38.092655
5.8270249 4.8506341 -0.83480591 424 0 0 0 38.679352
6.3309889 4.8781872 -0.88183695 396 0 0 0 39.267063
6.5367227 4.6618686 -0.8859933 339 0 0 0 39.853271
8.6993008 4.6904783 -0.85259563 194 0 0 0 41.80167
11.80413 4.5821767 -0.78639376 118 0 0 0 43.768513
16.06468 4.8961616 -0.64079762 84 0 0 0 44.938793
-8.1536846 5.0787797 -0.60229331 328 0 0 0 8.5740204
-6.7142081 5.138062 -0.72848463 337.66666 0 0 0 10.13938
-6.4513593 5.3208356 -0.92619622 444.5 0 0 0 10.72822
-5.2881875 5.4268665 -0.64950579 547 0 0 0 12.47746
-4.7625575 5.1190381 -0.76638269 648 0 0 0 12.87061
-4.2397566 5.1437311 -0.64425874 518 0 0 0 13.84319
-3.8322439 5.1420827 -0.54272628 329 0 0 0 14.63575
-1.2515868 5.1056762 -0.69581878 56 0 0 0 21.08663
-0.68902469 5.2155871 -0.74221253 121.4 0 0 0 22.796841
-0.46907833 5.0122418 -0.78622019 203 0 0 0 23.41976
0.36124566 5.3283138 -0.64345634 90.5 0 0 0 25.961784
0.72823262 5.1318727 -0.65570915 78.5 0 0 0 27.139656
1.3766847 5.316781 -0.59455127 368 0 0 0 28.89259
1.6563045 5.2207527 -0.70597863 581.83331 0 0 0 29.734701
2.2837164 5.2563977 -0.66227996 356 0 0 0 31.350691
7.4669819 5.041337 -0.774396 214 0 0 0 40.244221
8.6827774 5.1049156 -0.86957473 176 0 0 0 41.221474
12.170439 5.2518291 -0.82487136 122.5 0 0 0 43.18491
16.425695 5.4517102 -0.66145289 58 0 0 0 44.54509
-6.3210182 5.6125937 -0.93646705 177 0 0 0 11.31495
-5.8451834 5.7224646 -0.90476513 414.5 0 0 0 12.09004
-4.7235575 5.6067886 -0.76038176 475.75 0 0 0 13.649905
-4.3584976 5.6195302 -0.89639014 601.33331 0 0 0 14.308517
-3.9738913 5.7727337 -0.94028598 424 0 0 0 15.21854
-2.0838466 5.5198298 -0.7853961 177 0 0 0 19.126431
-0.8203038 5.814292 -0.78231114 104 0 0 0 22.637501
-0.37900558 5.6308179 -0.61101031 109 0 0 0 23.81406
0.32315543 5.6850929 -0.89527106 149 0 0 0 25.76309
0.85749239 5.5013785 -0.60278994 50 0 0 0 27.33758
1.0088831 5.5516043 -0.75164258 101 0 0 0 27.725069
1.5783548 5.5141101 -0.62252432 146 0 0 0 29.286301
8.7256603 5.5749669 -0.8947491 382 0 0 0 40.628181
11.591876 5.6951952 -0.80293953 277.5 0 0 0 42.397583
16.497011 5.930521 -0.67050624 103 0 0 0 44.159367
-4.3864574 6.0582142 -0.82267118 531 0 0 0 14.8279
-3.0337849 6.1766758 -0.92276394 290 0 0 0 17.565121
-2.9675915 6.442235 -0.95249236 205 0 0 0 17.954121
-2.3278532 6.1999264 -0.72446662 107 0 0 0 19.12693
-1.1552143 6.2760077 -0.65745306 236 0 0 0 21.955236
-0.71434033 6.2331133 -0.52925694 100.5 0 0 0 23.028629
-0.2177525 6.2765484 -0.71983677 250.75 0 0 0 24.299389
0.16284887 6.3713632 -0.58945566 368.66666 0 0 0 25.248678
8.3897228 6.2816648 -0.90598249 258 0 0 0 39.4594
8.6893435 6.1757941 -0.92208111 125 0 0 0 39.853271
10.763463 6.4988523 -0.78079885 394 0 0 0 41.029247
11.168529 6.1891809 -0.79349309 399 0 0 0 41.607685
15.125096 6.2974133 -0.62452024 220 0 0 0 43.381378
15.50036 6.0091295 -0.63414395 131 0 0 0 43.768513
-3.0384426 6.5979095 -0.79749823 294 0 0 0 17.954121
-2.7932851 6.7023153 -0.79721314 142 0 0 0 18.539894
-2.311202 6.9484224 -0.7147733 234.5 0 0 0 19.713097
-1.4602711 6.8086562 -0.93483371 102 0 0 0 21.466459
-0.68181813 6.7260046 -0.90673852 186 0 0 0 23.226334
-0.18286984 6.6620522 -0.64586866 172.5 0 0 0 24.39679
0.22851576 6.7112188 -0.73410559 122 0 0 0 25.37467
0.88413453 6.6267824 -0.73077935 62 0 0 0 26.94525
8.2796135 6.6919312 -0.92077839 520 0 0 0 38.877037
10.387302 6.8094854 -0.77097154 427.5 0 0 0 40.436203
12.994926 6.9885445 -0.55920243 274 0 0 0 41.80167
14.02246 6.6694646 -0.59020168 311 0 0 0 42.593319
14.651111 6.5292454 -0.61075646 274 0 0 0 42.988441
-2.7675867 7.4206123 -0.87314218 98 0 0 0 19.126431
-2.2158747 7.261075 -0.743029 425 0 0 0 20.101706
-1.028599 7.4785995 -0.83005804 70 0 0 0 22.637501
7.8650184 7.3834414 -0.93334836 530 0 0 0 37.700752
8.1122847 7.0685821 -0.93084937 402 0 0 0 38.28529
9.9169321 7.415432 -0.76847535 448 0 0 0 39.4594
10.009304 7.1063342 -0.76153237 445 0 0 0 39.853271
13.12391 7.4802594 -0.57334387 320 0 0 0 41.4137
14.041265 7.1079116 -0.59868199 235 0 0 0 42.201847
-2.0529823 7.7675319 -0.68869227 122 0 0 0 20.69141
7.6729856 7.7570977 -0.9442268 411 0 0 0 37.11842
9.624218 7.7702913 -0.76765603 502 0 0 0 38.877037
12.815731 7.7300744 -0.56776375 306 0 0 0 41.029247
7.4734702 8.340168 -0.96999705 460 0 0 0 36.323502
7.5544205 8.0237398 -0.95397288 492 0 0 0 36.721519
9.4601307 8.2324848 -0.77865189 402 0 0 0 38.28529
11.453803 8.1247044 -0.53068095 304 0 0 0 39.853271
12.906704 8.2250156 -0.58137894 240 0 0 0 40.628181
5.9235449 8.5357504 -0.76931202 298 0 0 0 34.368698
7.4830289 8.7750635 -0.99994576 369 0 0 0 35.93121
8.6622715 8.7475863 -0.76371104 359 0 0 0 37.11842
13.105589 8.8123121 -0.60102588 218 0 0 0 40.244221
10.377973 9.4833174 -0.87685549 92 0 0 0 37.900021
8.4534998 9.9016027 -0.8097856 79 0 0 0 35.93121
8.9370546 9.9569254 -0.8329711 117 0 0 0 36.323502
9.3121843 9.8720884 -0.84525555 174 0 0 0 36.721519
10.746449 9.8178759 -0.55136019 68 0 0 0 37.900021
11.814937 9.7661791 -0.58242226 139 0 0 0 38.679352
7.7882681 10.352428 -0.80600178 178 0 0 0 34.951664
8.2110643 10.112726 -0.81037688 171 0 0 0 35.54488
9.3964224 10.46463 -0.53173029 123 0 0 0 36.323502
11.961212 10.39216 -0.60319346 68 0 0 0 38.28529
13.983727 10.43437 -0.667597 125 0 0 0 39.4594
-1.1805705 10.908765 -0.68218017 99 0 0 0 23.032909
8.0534945 10.980381 -0.5144158 113 0 0 0 34.754368
8.791626 10.821303 -0.52717489 186 0 0 0 35.54488
9.0062761 10.543468 -0.52394205 195 0 0 0 35.93121
11.430994 10.966486 -0.60303247 50 0 0 0 37.501488
10.528438 11.151196 -0.58274215 188 0 0 0 36.721519
11.479999 11.01286 -0.99656576 81 0 0 0 37.501488
14.32274 11.245117 -0.69825816 185 0 0 0 39.074726
7.7599397 11.750123 -0.87928027 140 0 0 0 33.977982
7.2712431 12.286057 -0.71461171 109.5 0 0 0 33.190681
7.5137587 12.011169 -0.53714669 138 0 0 0 33.589779
8.4014912 12.712018 -0.58009362 132 0 0 0 33.977982
8.2280741 13.140085 -0.97165775 82 0 0 0 33.589779
-18.183556 -4.553772 -0.28993115 153 0 0 0 95.803741
-7.2483387 -4.6691923 -0.18581729 429.33334 0 0 0 90.603371
-6.9411573 -4.7581644 -0.21559033 593.5 0 0 0 90.141762
-6.3618712 -4.7135277 -0.10500419 631 0 0 0 89.549438
-5.8351669 -4.7824192 -0.098741233 649.66669 0 0 0 88.765831
-5.2360945 -4.855041 -0.091906518 911.5 0 0 0 87.791069
-4.9434347 -4.9341025 -0.089323968 451 0 0 0 87.211662
-4.0936131 -4.5790524 -0.12445464 626.33331 0 0 0 86.289856
-3.7374804 -4.5921736 -0.14294501 653.5 0 0 0 85.536766
-3.272579 -4.6247258 -0.13477083 651.16669 0 0 0 84.45063
-2.7655151 -4.7164555 -0.06297671 655.25 0 0 0 83.087975
-2.2753482 -4.7258215 -0.24520157 254.53847 0 0 0 81.780571
-1.7629392 -4.689692 -0.23827809 336.375 0 0 0 80.350372
-1.3238791 -4.7032185 -0.22543105 142.36363 0 0 0 78.976463
-0.67111611 -4.6160722 -0.19906785 95.166664 0 0 0 76.895012
-0.20349774 -4.6226039 -0.07881806 85 0 0 0 75.292603
0.29381645 -4.6396999 -0.1593601 106.45454 0 0 0 73.570099
0.76872575 -4.5727715 -0.24144927 99.590912 0 0 0 71.918076
1.287941 -4.5500593 -0.22003689 126.75 0 0 0 70.172501
1.7291349 -4.5690074 -0.22741599 115.66666 0 0 0 68.803719
2.2017896 -4.6456885 -0.22140591 214.57143 0 0 0 67.51577
2.7999783 -4.6045208 -0.054782491 371 0 0 0 65.866287
3.3346555 -4.5783362 -0.24862032 436.75 0 0 0 64.545609
3.7470965 -4.6141067 -0.16539517 667.14288 0 0 0 63.711845
4.369863 -4.6807494 -0.19477661 317.79999 0 0 0 62.61134
4.8553314 -4.6653037 -0.23867479 762.42859 0 0 0 61.748722
5.2714882 -4.5844269 -0.077000208 939.66669 0 0 0 60.970551
5.7456307 -4.520112 -0.08153367 1223 0 0 0 60.190567
6.4422755 -4.5719399 -0.28405073 310 0 0 0 59.410767
6.9528756 -4.677803 -0.097612232 852 0 0 0 59.018833
7.1072321 -4.5313568 -0.098035902 701 0 0 0 58.624153
10.207926 -4.5477962 -0.13937598 445 0 0 0 56.274529
-17.819111 -4.0004568 -0.28102919 109 0 0 0 96.19664
-6.1685057 -4.3385687 -0.37344599 410 0 0 0 89.941956
-5.7041092 -4.2951646 -0.32395557 606.33331 0 0 0 89.420952
-5.3156295 -4.3543177 -0.33755618 616.25 0 0 0 88.76442
-4.7822485 -4.3666449 -0.33274657 566.40002 0 0 0 87.907516
-4.2788892 -4.3945627 -0.25350517 330.20001 0 0 0 86.973358
-3.738929 -4.3232484 -0.3687934 392 0 0 0 86.026131
-3.3130898 -4.2696166 -0.40399122 327.60001 0 0 0 85.16169
-2.7371829 -4.2758794 -0.31402051 262.63635 0 0 0 83.706985
-2.4089272 -4.3482943 -0.35692707 230.5 0 0 0 82.696899
-1.0993522 -4.3813224 -0.39644864 48.5 0 0 0 78.521255
-0.78965354 -4.3405147 -0.26792341 57.4375 0 0 0 77.462875
-0.25798544 -4.385149 -0.32972205 47.833332 0 0 0 75.526512
0.20238474 -4.4207211 -0.39227739 58.777779 0 0 0 73.84494
0.57561946 -4.4394813 -0.48273793 51 0 0 0 72.51947
2.3984354 -4.4688826 -0.38209414 117 0 0 0 66.711113
2.7418725 -4.4753957 -0.29867423 206 0 0 0 65.81292
3.2058949 -4.4902315 -0.46329296 152.5 0 0 0 64.691093
3.7105551 -4.4229107 -0.43773523 349.66666 0 0 0 63.447479
4.1226892 -4.4836783 -0.3627713 262 0 0 0 62.729984
5.1688199 -4.3871889 -0.32277638 304.75 0 0 0 60.773521
5.7827811 -4.4115114 -0.29341605 374.60001 0 0 0 59.9562
6.3754706 -4.4461179 -0.34278998 547.33331 0 0 0 59.280121
6.7817822 -4.4048605 -0.35640037 475 0 0 0 58.755711
7.284255 -4.2757626 -0.20076564 550 0 0 0 58.032684
8.6973982 -4.2700601 -0.2347538 553.25 0 0 0 56.859859
9.9353561 -4.4288077 -0.40150371 250 0 0 0 56.274529
10.361963 -4.3145294 -0.27702022 369.5 0 0 0 55.885231
10.729414 -4.1598792 -0.28819728 264 0 0 0 55.493881
12.244964 -4.2862821 -0.27260828 267 0 0 0 54.978588
13.477928 -4.1040611 -0.18448327 109 0 0 0 54.321327
14.694837 -4.0805874 -0.20256793 88 0 0 0 53.936661
18.505547 -4.1660218 -0.26052272 72 0 0 0 53.154911
-13.576209 -3.7564151 -0.20927829 238 0 0 0 95.41407
-13.033584 -3.9530494 -0.20152193 104 0 0 0 95.03257
-11.165348 -3.6879258 -0.16935681 446 0 0 0 94.647949
-4.1589284 -3.8533359 -0.48177117 386.5 0 0 0 87.791069
-3.833261 -3.9180763 -0.46470684 242.5 0 0 0 87.013077
7.4192839 -3.9933662 -0.20024955 685.5 0 0 0 57.446392
15.134339 -3.8034344 -0.20804903 168 0 0 0 53.53793
19.871674 -3.9614601 -0.2806989 74 0 0 0 52.757858
19.748569 -3.4339616 -0.27729782 52 0 0 0 52.361809
19.68194 -2.9252965 -0.27502528 64 0 0 0 51.97094
19.664886 -2.4296603 -0.27375573 53 0 0 0 51.58522
19.619516 -1.9350358 -0.27226356 49 0 0 0 51.191433
19.595705 -1.4465755 -0.27132502 58 0 0 0 50.795639
19.560822 -0.96048033 -0.27041742 60 0 0 0 50.409939
19.458979 -0.47560689 -0.26867396 63 0 0 0 50.02002
19.434441 0.24333449 -0.26847541 63 0 0 0 49.432312
19.447344 0.96253538 -0.26927125 65 0 0 0 48.844448
19.463144 1.4445963 -0.27018464 57 0 0 0 48.460079
19.456059 1.9269586 -0.27094883 70 0 0 0 48.071289
19.493586 2.4168651 -0.2726315 67 0 0 0 47.67384
19.535582 2.9122941 -0.27460071 68 0 0 0 47.278568
19.598482 3.4170797 -0.27712187 79 0 0 0 46.888927
19.571892 3.9116688 -0.27834523 57 0 0 0 46.50428
-20.220461 4.4898973 -0.34942386 75 0 0 0 3.1178501
-6.3195024 4.4331594 -0.1652195 411.66666 0 0 0 9.4869566
-5.7826443 4.4100046 -0.35568315 368.5 0 0 0 10.138235
-5.150424 4.1222639 -0.081592634 494 0 0 0 10.53208
-4.6556854 4.2626047 -0.34190881 397.5 0 0 0 11.606205
-4.2614617 4.3486052 -0.21821529 591.75 0 0 0 12.480326
-3.1130869 4.3341298 -0.22935657 560.66669 0 0 0 14.960227
-2.7891092 4.4134068 -0.30601326 318.20001 0 0 0 15.926386
-2.2723958 4.2930455 -0.14609294 257.5 0 0 0 17.171003
-1.7208945 4.393949 -0.23769748 157.33333 0 0 0 18.99534
-1.3244115 4.4001393 -0.19067173 94.666664 0 0 0 20.298273
-0.78359056 4.3982754 -0.14750504 94.25 0 0 0 22.151794
0.33968818 4.4204335 -0.036724955 129 0 0 0 26.15691
0.67704868 4.453651 -0.037580132 88 0 0 0 27.33758
1.2600547 4.4600568 -0.039309245 233 0 0 0 29.286301
1.634748 4.4716415 -0.21665883 192.5 0 0 0 30.46229
19.595173 4.4210081 -0.28044927 67 0 0 0 46.10231
-23.761908 4.6755919 -0.41562548 61 0 0 0 2.7240601
-18.768776 4.6487365 -0.32306889 101 0 0 0 3.51192
-17.668243 4.8346639 -0.30348164 174 0 0 0 3.8961
-7.8164349 4.6031904 -0.23547398 365 0 0 0 8.1899796
-7.284677 4.6116433 -0.18834943 515 0 0 0 8.7081404
-6.7709322 4.5536547 -0.4043414 552 0 0 0 9.1673107
-6.1138072 4.7925162 -0.19808878 518.5 0 0 0 10.336875
-5.7783098 4.8162279 -0.23363569 418.25 0 0 0 10.826336
-5.4660978 4.6076298 -0.43630826 329 0 0 0 10.92436
-4.6967201 4.6834545 -0.081031278 483.5 0 0 0 12.28488
-4.2702241 4.6346917 -0.18947063 573 0 0 0 12.969623
-3.8366196 4.6833739 -0.21700877 523.33331 0 0 0 13.910732
-3.1632297 4.5603352 -0.28566137 572.66669 0 0 0 15.219317
-2.7964509 4.6016955 -0.27351382 515.83331 0 0 0 16.19842
-2.206445 4.6944704 -0.29119939 322.33334 0 0 0 17.910728
-1.8338501 4.7696428 -0.19166519 264.14285 0 0 0 19.070536
-1.1458994 4.6390386 -0.39398205 125 0 0 0 21.08663
-0.62705171 4.716629 -0.099541701 86.5 0 0 0 22.835205
-0.32886791 4.718936 -0.21743368 165 0 0 0 23.81171
0.38166451 4.5708871 -0.40539473 58.75 0 0 0 26.256258
0.75395811 4.8967953 -0.22788864 60.5 0 0 0 27.335159
1.2199751 4.7431712 -0.18693678 147.66667 0 0 0 28.893753
1.7318767 4.726274 -0.21599376 195 0 0 0 30.455225
2.3565743 4.7579713 -0.2918101 228.66667 0 0 0 32.158432
2.6123977 4.7658081 -0.25289863 275.25 0 0 0 32.801861
19.644024 4.9435816 -0.28318051 43 0 0 0 45.714561
-17.645157 5.2945037 -0.30478403 58 0 0 0 4.2867398
-6.6898007 5.120605 -0.31811744 267 0 0 0 10.14167
-5.6681743 5.2784815 -0.28825471 283 0 0 0 11.70262
-5.3780446 5.2550983 -0.27845961 325 0 0 0 12.0923
-2.5069225 5.0659895 -0.33468139 477 0 0 0 17.565121
-1.5791713 5.3224969 -0.3275471 188 0 0 0 20.29792
-1.1611909 5.3031878 -0.36118421 115.66666 0 0 0 21.471407
-0.81188357 5.2188044 -0.11673211 168 0 0 0 22.442089
-0.42948282 5.3118544 -0.052435197 96 0 0 0 23.616909
0.12533702 5.1975336 -0.27318457 131.5 0 0 0 25.278872
0.97917241 5.3991795 -0.32363197 155 0 0 0 27.725069
1.259445 5.2847037 -0.31880856 81.400002 0 0 0 28.581158
1.7109432 5.2395344 -0.28951761 319.5 0 0 0 29.866024
2.2062352 5.1801338 -0.26106554 252.89999 0 0 0 31.237469
2.7701778 5.3489065 -0.13453741 191.5 0 0 0 32.416489
-4.7701559 5.8116813 -0.45990136 459 0 0 0 13.854404
-4.0651412 5.6044407 -0.16774876 537 0 0 0 14.8279
-3.8176875 5.5370045 -0.080684379 353 0 0 0 15.21854
-3.2967203 5.9549613 -0.24598347 326 0 0 0 16.77733
-2.7171373 5.6837931 -0.29869649 436.5 0 0 0 17.759621
-1.5876077 5.9146252 -0.36510116 479 0 0 0 20.69141
-1.2599859 5.7948227 -0.25676277 134.33333 0 0 0 21.471407
-0.6649071 5.7164755 -0.48223713 72 0 0 0 23.032909
-0.10090782 5.5521841 -0.055644911 102 0 0 0 24.58992
0.31472781 5.645977 -0.26012114 146.5 0 0 0 25.767574
0.68938053 5.7686796 -0.2745522 83.5 0 0 0 26.74799
1.0069565 5.5394001 -0.3314876 90 0 0 0 27.725069
1.7334781 5.5300961 -0.057874963 380 0 0 0 29.66885
19.835072 5.5144782 -0.28845754 152 0 0 0 45.332809
-5.0395174 6.3013277 -0.10494524 135 0 0 0 14.03835
-2.2526324 6.4900336 -0.41452545 202 0 0 0 19.5207
-1.9906005 6.2016044 -0.074170515 94 0 0 0 19.905491
-1.0567896 6.4238434 -0.39004874 145 0 0 0 22.246679
-0.88461703 6.3355422 -0.38251522 191 0 0 0 22.637501
-0.25056919 6.2184753 -0.37081608 247.33333 0 0 0 24.202545
0.054731499 6.2838035 -0.37448516 97 0 0 0 24.99147
0.67155361 6.241158 -0.18835624 208 0 0 0 26.552856
1.1496298 6.2721949 -0.30323258 212 0 0 0 27.726725
18.504461 6.1426692 -0.27145934 73 0 0 0 44.54509
19.821285 6.0404701 -0.29063618 93 0 0 0 44.938793
-1.4931082 6.9739571 -0.25716928 102 0 0 0 21.466459
-0.18405911 6.7372208 -0.23968582 331 0 0 0 24.39679
0.067448623 6.8881178 -0.077304266 146 0 0 0 24.99147
0.80122989 6.6196423 -0.31796226 147.5 0 0 0 26.74799
12.922342 6.9527869 -0.19591804 280 0 0 0 41.80167
14.072432 6.6962814 -0.21016897 75 0 0 0 42.593319
17.891138 6.9357848 -0.26672685 146 0 0 0 43.768513
18.244864 6.5601149 -0.2698105 159 0 0 0 44.159367
-3.8646419 7.0116916 -0.10171231 125 0 0 0 16.77733
-2.2695889 7.449275 -0.19002913 130 0 0 0 20.101706
-1.9253154 7.2506948 -0.090305202 664 0 0 0 20.69141
17.707458 7.3716536 -0.26666152 137 0 0 0 43.381378
-1.4467367 7.7179742 -0.095328145 154 0 0 0 21.86113
8.2670183 7.9542012 -0.14577365 566 0 0 0 37.501488
17.536955 7.8132615 -0.26700211 121 0 0 0 42.988441
-1.9297661 8.1067505 -0.10395733 66 0 0 0 21.08663
5.8652139 8.4551029 -0.25454301 390.5 0 0 0 34.368698
7.9052482 8.3963184 -0.14675708 600 0 0 0 36.721519
8.0537853 8.1418457 -0.14547937 507 0 0 0 37.11842
11.382536 8.0776625 -0.18479645 266 0 0 0 39.853271
7.8543801 8.764801 -0.15064305 462 0 0 0 36.323502
8.662035 8.7476187 -0.46105897 382 0 0 0 37.11842
17.382763 8.7951889 -0.27154925 153 0 0 0 42.201847
16.201658 9.229125 -0.25849071 174 0 0 0 41.4137
10.892672 9.9543028 -0.19751006 183 0 0 0 37.900021
11.709213 9.6830387 -0.20436445 78 0 0 0 38.679352
14.537374 9.7737207 -0.24083872 303 0 0 0 40.244221
15.080913 9.6068745 -0.24652337 153 0 0 0 40.628181
15.960131 9.6202965 -0.2583684 150 0 0 0 41.029247
2.166384 10.093538 -0.13130617 143 0 0 0 28.11587
7.8512716 10.174503 -0.48341161 263 0 0 0 35.14896
11.698855 10.169507 -0.2092236 71 0 0 0 38.28529
0.67478645 10.53023 -0.39436701 65 0 0 0 25.76309
8.3107443 10.768224 -0.18014334 121 0 0 0 35.14896
8.5357828 10.513329 -0.17899556 142 0 0 0 35.54488
14.358239 10.716546 -0.24719363 204 0 0 0 39.4594
-0.65903318 11.266428 -0.42601061 95 0 0 0 23.81406
8.241991 11.239386 -0.18565074 144 0 0 0 34.754368
9.4835606 11.101675 -0.19551931 150 0 0 0 35.93121
14.297381 11.22964 -0.25138333 136 0 0 0 39.074726
7.7362041 12.368262 -0.19662473 107 0 0 0 33.589779
8.2879105 13.991133 -0.22345169 77 0 0 0 33.190681
9.0900717 13.749665 -0.22645333 82 0 0 0 33.977982
-9.041337 -6.3634453 0.38432696 408 0 0 0 89.941956
-5.1948137 -6.1581621 0.48424423 696.5 0 0 0 85.8293
-4.6408143 -6.0815439 0.46126342 870 0 0 0 85.044952
-8.312067 -5.8520069 0.10294756 287 0 0 0 89.941956
-5.269475 -5.8025241 0.28097984 526 0 0 0 86.419792
-4.8267069 -5.7208319 0.26970041 808 0 0 0 85.8293
-3.6362875 -5.8761902 0.41960418 853 0 0 0 83.479065
-3.3161049 -5.6668119 0.32128337 794 0 0 0 83.087982
-1.5692478 -5.5964499 0.35821787 231 0 0 0 78.975922
-1.411824 -5.5523629 0.35363555 177 0 0 0 78.591232
-0.095087931 -5.664896 0.49210232 555.5 0 0 0 74.871552
0.24705191 -5.591496 0.48734465 396.33334 0 0 0 73.887474
-5.4512715 -5.1834188 0.084389694 694 0 0 0 87.597031
-3.5425203 -5.0113287 0.37678128 350 0 0 0 84.447914
-3.2007301 -5.221365 0.22783773 739.33331 0 0 0 83.410408
-2.7377076 -5.2797937 0.16404709 783.20001 0 0 0 82.268936
-2.2328944 -5.0009055 0.06990137 487 0 0 0 81.323639
-0.12069871 -5.1432929 0.29162079 366.5 0 0 0 74.970238
0.198576 -5.1152692 0.27244562 222.8 0 0 0 73.965858
0.50971353 -5.460175 0.47874248 266 0 0 0 73.112701
1.044293 -5.4024878 0.4815926 121 0 0 0 71.54435
2.3454347 -5.0366306 0.35151562 269 0 0 0 67.631241
3.2803936 -5.2385354 0.38916862 452 0 0 0 65.670616
3.7250566 -5.2094536 0.40299785 697.5 0 0 0 64.691093
4.7113447 -5.1160932 0.43685049 660 0 0 0 62.729984
5.2912478 -5.2043457 0.46463269 661 0 0 0 61.941437
5.6343827 -5.1482477 0.4774234 839 0 0 0 61.364601
-7.1976004 -4.6798096 0.20103207 397.5 0 0 0 90.537918
-6.573452 -4.788631 0.2901859 444.66666 0 0 0 89.680275
-5.7857599 -4.6481733 0.22845833 645.79999 0 0 0 88.921707
-4.2434635 -4.6717496 0.12803687 647 0 0 0 86.421417
-3.6674237 -4.7308779 0.13299324 705 0 0 0 85.16169
-3.2970262 -4.8636961 0.13179314 637.59998 0 0 0 84.137535
-2.5912199 -4.8203721 0.26633695 373 0 0 0 82.503761
-2.1869309 -4.8611345 0.2782855 410.60001 0 0 0 81.366478
-1.7192439 -4.8406811 0.22454032 398 0 0 0 80.06498
-1.307336 -4.878108 0.25484478 144 0 0 0 78.780655
-0.7446093 -4.7328153 0.23489165 133.42857 0 0 0 77.079185
-0.28243801 -4.7657056 0.16982371 155.22223 0 0 0 75.548492
0.32466668 -4.7855115 0.13531995 148.42857 0 0 0 73.499435
0.714122 -4.68998 0.23212928 209.66667 0 0 0 72.169426
1.2472751 -4.6259241 0.2482883 178.35001 0 0 0 70.369461
1.7548256 -4.6607566 0.24058147 169.63637 0 0 0 68.839706
2.2746911 -4.8829107 0.19320525 208.875 0 0 0 67.628044
2.705132 -4.7597589 0.18684997 290 0 0 0 66.335281
3.2224653 -4.7524948 0.15426117 466.75 0 0 0 65.079674
3.7573767 -4.774683 0.23635903 735.875 0 0 0 63.957966
4.1841555 -4.77951 0.20829184 633.25 0 0 0 63.11882
4.7034879 -4.7910008 0.15786205 816.79999 0 0 0 62.219135
5.312036 -4.7365823 0.18505786 1006.1667 0 0 0 61.165451
5.8116193 -4.7621522 0.3977499 737.40002 0 0 0 60.500969
6.3523664 -4.746655 0.30173588 324 0 0 0 59.799953
6.9242396 -4.6572404 0.1074549 779 0 0 0 59.018833
7.238955 -4.6977839 0.25561544 378.33334 0 0 0 58.755718
7.5037541 -4.5276337 0.33129212 881 0 0 0 58.232079
8.4164038 -4.7965608 0.36271203 496 0 0 0 57.833286
8.7381363 -4.6980634 0.37099543 775 0 0 0 57.446392
9.5956516 -4.8561649 0.39947343 249 0 0 0 57.061192
10.345918 -4.7618861 0.27902055 351.5 0 0 0 56.46653
10.691978 -4.7629175 0.4321852 547 0 0 0 56.274529
-16.927961 -4.2424946 0.15866452 74 0 0 0 95.803741
-12.209866 -4.0341091 0.28450835 196 0 0 0 94.647949
-5.7454758 -4.3655682 0.43903148 526.5 0 0 0 89.356705
-4.2334151 -4.2251487 0.22287887 477.16666 0 0 0 87.207726
-3.9806283 -4.3802967 0.36522603 454 0 0 0 86.419792
-1.118268 -4.1641197 0.11599223 55.5 0 0 0 78.783577
-0.79310727 -4.1776395 0.23551482 70.666664 0 0 0 77.576141
-0.36701569 -4.2359099 0.31772467 93 0 0 0 75.965416
3.4190881 -4.4323392 0.08018025 510 0 0 0 64.109154
5.8669701 -4.3415117 0.20767286 577.20001 0 0 0 59.722401
7.3441162 -4.1874604 0.10950639 846 0 0 0 57.837254
8.879673 -4.3568225 0.12286852 433.5 0 0 0 56.859859
10.469772 -4.2065525 0.13563135 373.5 0 0 0 55.689556
10.597973 -4.2600632 0.42291862 431 0 0 0 55.689556
12.125793 -4.3564501 0.31098917 316.5 0 0 0 55.109821
13.320837 -4.0541425 0.15923792 157 0 0 0 54.321327
14.843207 -4.1190906 0.17237227 192 0 0 0 53.936661
18.613131 -4.1870203 0.20492464 89 0 0 0 53.154911
21.059761 -4.1940298 0.22610903 58 0 0 0 52.757858
24.329445 -4.223875 0.25456083 41 0 0 0 52.361809
-17.223553 -3.869915 0.16058733 160 0 0 0 96.19664
-14.252851 -3.9462881 0.13949622 204 0 0 0 95.41407
-13.147529 -3.987606 0.47440022 251 0 0 0 95.03257
-12.940785 -3.9273696 0.13024312 182 0 0 0 95.03257
-4.5540667 -3.9214654 0.29735768 445.5 0 0 0 88.373322
-4.3003855 -3.8895786 0.27109289 625.20001 0 0 0 87.98513
-3.9715729 -3.9620335 0.34826347 391 0 0 0 87.211662
-0.71249652 -3.9752824 0.16152276 64 0 0 0 77.418976
11.932323 -3.9583259 0.3051737 358.5 0 0 0 54.716122
14.867494 -3.7341146 0.17178179 182 0 0 0 53.53793
24.3372 -3.6108468 0.25377023 30 0 0 0 51.97094
24.321676 -2.9989922 0.25288451 51 0 0 0 51.58522
24.332661 -2.3941538 0.252336 33 0 0 0 51.191433
24.353605 -1.7923894 0.25197941 33 0 0 0 50.795639
24.276834 -1.1869806 0.25087145 35 0 0 0 50.409939
24.207113 -0.58692777 0.24992886 43 0 0 0 50.02002
24.198652 0.009042385 0.24963106 39 0 0 0 49.630741
24.15756 0.60382444 0.24914406 30 0 0 0 49.233879
24.120895 1.1975578 0.24880482 36 0 0 0 48.844448
24.158443 1.7964653 0.2492263 46 0 0 0 48.460079
24.162201 2.3960931 0.24945219 39 0 0 0 48.071289
24.231459 3.0069687 0.25035635 29 0 0 0 47.67384
-2.3180616 3.8910289 0.2876153 287 0 0 0 16.39278
24.303049 3.6253552 0.25139272 38 0 0 0 47.278568
-22.278456 4.3771071 0.16409706 69 0 0 0 2.7240601
-20.219681 4.4852819 0.15338746 47 0 0 0 3.1178501
-6.6719775 4.3678927 0.28091893 158 0 0 0 8.9763803
-6.43154 4.4349518 0.18088363 519.5 0 0 0 9.3582401
-4.7760472 4.1782203 0.25638506 482.83334 0 0 0 11.249366
-4.2986236 4.1308947 0.18976177 472.79999 0 0 0 12.01346
-3.6640315 4.2260232 0.28467882 516.28571 0 0 0 13.485037
-3.2695122 4.2748828 0.30326441 451.5 0 0 0 14.483783
-2.8290722 4.324286 0.23910534 458.91666 0 0 0 15.677808
-2.2289188 4.1193337 0.24160855 175.16667 0 0 0 17.041006
-1.7516994 4.2930851 0.29642794 209 0 0 0 18.7841
-1.208087 4.2826271 0.2063075 89.5 0 0 0 20.594168
-0.68697941 4.2957916 0.28268051 98 0 0 0 22.442089
-0.33781499 4.3549995 0.26153904 148.8 0 0 0 23.73332
0.22084951 4.3429928 0.21414529 104 0 0 0 25.770811
0.76732028 4.4087815 0.23954484 88.125 0 0 0 27.676855
1.1525865 4.2492337 0.27671468 88.375 0 0 0 29.137264
1.5733842 4.3169231 0.24295872 165 0 0 0 30.46229
24.297754 4.2384505 0.25186449 35 0 0 0 46.888927
-19.912758 4.9297333 0.15299864 75 0 0 0 3.51192
-15.120877 4.5278559 0.12659957 161 0 0 0 4.2867398
-7.8670244 4.8931851 0.20537412 248 0 0 0 8.5740204
-6.7986712 4.6299443 0.38642687 266.75 0 0 0 9.2638474
-6.2443862 4.6749358 0.23684689 348 0 0 0 9.9827576
-5.829268 4.7362804 0.22073177 507 0 0 0 10.63015
-4.7855673 4.7793169 0.2462644 293 0 0 0 12.28488
-4.4139681 4.506166 0.38417169 324 0 0 0 12.47746
-3.9191856 4.6278729 0.14993536 535 0 0 0 13.64803
-3.4921467 4.5473037 0.074271716 275 0 0 0 14.4436
-2.8908265 4.8968811 0.49313927 284 0 0 0 16.39278
-2.245779 4.733047 0.20197478 363.5 0 0 0 17.855803
-1.7649546 4.8786602 0.24367332 211.33333 0 0 0 19.38645
-1.3849026 4.9286551 0.24112213 123 0 0 0 20.560823
-0.71996289 4.7152534 0.20328055 158.125 0 0 0 22.542833
-0.18961006 4.8305807 0.13530609 116 0 0 0 24.299389
0.27645531 4.76718 0.26462314 146.39999 0 0 0 25.848974
0.70838785 4.6406689 0.36558691 71.5 0 0 0 27.33758
1.118328 4.5220451 0.11287516 135 0 0 0 28.763681
1.7037793 4.7398758 0.23691536 148.5 0 0 0 30.352392
2.3066504 4.8219519 0.29319581 287.20001 0 0 0 31.94725
2.5768991 4.8456497 0.15182503 200 0 0 0 32.609177
24.265278 4.8513346 0.25232726 42 0 0 0 46.50428
-19.075661 5.2184453 0.14942682 65 0 0 0 3.8961
-4.7440677 5.0973649 0.25076357 348.66666 0 0 0 12.87061
-3.9758773 5.1992879 0.24139822 523 0 0 0 14.4436
-3.2042408 5.302824 0.22865435 231.5 0 0 0 16.19442
-1.7573851 5.2023449 0.34571949 284.5 0 0 0 19.713097
-1.0818267 5.2503662 0.4725312 158.5 0 0 0 21.663795
-0.68168867 5.1825099 0.27633196 112 0 0 0 22.835205
-0.35932714 5.1991129 0.33713919 177.75 0 0 0 23.812885
0.16319822 5.3694396 0.31797764 154 0 0 0 25.375713
0.74193799 5.2171116 0.2751832 94.5 0 0 0 27.141415
1.1989903 5.1688824 0.40811527 107 0 0 0 28.502371
1.8778784 5.110229 0.2177982 298 0 0 0 30.451694
2.2202318 5.2092233 0.29445425 284.5 0 0 0 31.238924
2.7497566 5.2359772 0.30482295 279 0 0 0 32.512405
24.296268 5.4829283 0.25364745 39 0 0 0 46.10231
-3.0477197 5.8266692 0.24495515 249 0 0 0 17.168341
-2.0741363 5.9419713 0.08196447 101 0 0 0 19.5207
-1.6223654 5.8368111 0.18188624 397 0 0 0 20.560247
-0.92353189 5.5109816 0.28530824 180.5 0 0 0 22.246679
-0.39656439 5.9725366 0.37771329 155 0 0 0 23.81406
0.17332716 5.5823717 0.080440134 231 0 0 0 25.37467
0.75904661 5.7835636 0.083346203 190 0 0 0 26.94525
1.7268449 5.5123186 0.15605333 514 0 0 0 29.66885
2.3654122 5.5429635 0.23755156 220 0 0 0 31.23653
2.5785418 5.6447053 0.24372213 355 0 0 0 31.63048
-3.2825403 6.2897353 0.086090609 277 0 0 0 17.168341
-2.6522472 6.1307597 0.24940802 252 0 0 0 18.34663
0.36487556 6.3079405 0.32000217 163.5 0 0 0 25.76309
0.59817523 6.2929869 0.087087139 94.5 0 0 0 26.355606
12.667212 6.0336895 0.15833399 255 0 0 0 42.593319
16.584658 6.4346423 0.19118968 193 0 0 0 43.768513
22.796902 6.3397303 0.2426182 80 0 0 0 45.332809
24.488325 6.1635222 0.25656474 43 0 0 0 45.714561
-3.2896481 6.9284344 0.46725327 418 0 0 0 17.759621
-2.7909474 6.9392982 0.090220213 663 0 0 0 18.73316
-0.10251201 6.6942897 0.25568786 96 0 0 0 24.58992
12.859591 6.9222598 0.16323249 290 0 0 0 41.80167
22.446236 6.8422737 0.24082972 111 0 0 0 44.938793
-2.5207853 7.2906775 0.47185931 322 0 0 0 19.5207
-1.8698101 7.0267401 0.44797814 228 0 0 0 20.69141
22.085737 7.3317947 0.23905395 44 0 0 0 44.54509
-12.912832 7.6465716 0.12798448 41 0 0 0 8.1899796
-1.6718707 7.8564119 0.3937262 340 0 0 0 21.466459
8.3552895 7.8440723 0.42274398 416.5 0 0 0 37.700752
8.7306013 7.8001251 0.28318456 285 0 0 0 38.092655
21.44663 7.7116232 0.234799 58 0 0 0 44.159367
-4.0461082 8.3064251 0.33134502 180 0 0 0 17.565121
-1.7103745 8.0438929 0.098309197 126 0 0 0 21.466459
5.8316417 8.411191 0.25185248 493 0 0 0 34.368698
7.6726446 8.3560858 0.41857761 470.5 0 0 0 36.522511
8.4449701 8.1269321 0.13772798 346 0 0 0 37.501488
11.35097 8.0585852 0.15707316 183 0 0 0 39.853271
18.97646 8.4563017 0.21705459 110 0 0 0 42.988441
8.0425787 8.9761887 0.14034173 244 0 0 0 36.323502
8.5930147 8.6823597 0.44802737 212 0 0 0 37.11842
17.430868 8.8234558 0.20616575 194 0 0 0 42.201847
20.424883 8.5030394 0.2288543 56 0 0 0 43.381378
7.8070669 9.1573925 0.2886557 325 0 0 0 35.93121
16.183094 9.2225533 0.19814543 175 0 0 0 41.4137
12.705907 9.9899168 0.17645021 126 0 0 0 39.074726
14.565906 9.7967415 0.18867354 306 0 0 0 40.244221
15.05426 9.5939045 0.19130957 183 0 0 0 40.628181
15.975166 9.6333504 0.19833782 129 0 0 0 41.029247
2.1580482 10.062426 0.24926403 263.5 0 0 0 28.11587
9.8228292 10.417239 0.16016491 154 0 0 0 36.721519
10.217526 10.312494 0.16193637 154 0 0 0 37.11842
11.695689 10.17064 0.17060211 64 0 0 0 38.28529
12.592111 10.412528 0.17793897 87 0 0 0 38.679352
8.1281385 10.538062 0.15057077 134 0 0 0 35.14896
14.410464 10.759521 0.19231218 97 0 0 0 39.4594
7.5183105 11.398163 0.15284337 98 0 0 0 33.977982
9.0686817 11.168026 0.16009535 111 0 0 0 35.54488
9.1697979 12.497441 0.16920193 68 0 0 0 34.754368
8.2084236 13.864438 0.17333715 123 0 0 0 33.190681
8.736001 13.955931 0.17664032 33 0 0 0 33.589779
-5.4926147 -7.0252142 0.96942949 657 0 0 0 85.244232
-7.263536 -6.575726 0.5825938 260 0 0 0 87.985107
-5.7436762 -6.6481676 0.74312007 544 0 0 0 86.029968
-5.2546134 -6.7217231 0.79267532 767 0 0 0 85.23951
-4.7700777 -6.9334478 0.91646338 654 0 0 0 84.253113
-4.2228327 -6.8305483 0.87581098 726.5 0 0 0 83.479065
-3.8024595 -6.6879988 0.84026235 703 0 0 0 82.89003
-2.8575256 -6.8617005 0.99493635 316 0 0 0 80.933212
-2.2495575 -6.7507496 0.9541257 697.33331 0 0 0 79.76255
-1.7663076 -6.6287622 0.92107129 602 0 0 0 78.783577
-1.4859097 -6.5299029 0.90001142 642 0 0 0 78.188972
-4.6961193 -6.4802904 0.67946184 704.5 0 0 0 84.64679
-4.158514 -6.3713202 0.6474067 803 0 0 0 83.866776
-3.693552 -6.3120241 0.62343866 755.5 0 0 0 83.086456
-3.0676243 -6.0645666 0.5815984 235 0 0 0 82.113594
-2.7881103 -6.2535038 0.67141759 455 0 0 0 81.323639
-2.1890805 -6.3091278 0.7337063 495.5 0 0 0 79.960571
-1.7460715 -6.232666 0.71235842 517 0 0 0 78.97789
-1.4046235 -6.1629362 0.69646567 363 0 0 0 78.188972
-0.78489268 -6.210463 0.76919967 129.5 0 0 0 76.635437
-0.21415733 -6.2295837 0.80475247 393.5 0 0 0 75.167809
0.24175352 -6.2130537 0.80389416 536.25 0 0 0 73.986404
0.66329372 -6.2307644 0.8479054 562 0 0 0 72.912186
1.9205643 -6.1631732 0.87612379 620 0 0 0 69.780807
2.2700462 -6.1954174 0.89572245 477 0 0 0 69.001648
2.7563162 -6.2906346 0.93235701 527.66669 0 0 0 68.018661
3.2743688 -6.3790317 0.97312987 641 0 0 0 67.038536
3.6914752 -6.0515995 0.78964192 662.5 0 0 0 65.868217
4.1869946 -6.158783 0.82889032 663 0 0 0 65.079674
4.7003441 -6.2288742 0.8679409 706.5 0 0 0 64.303696
5.2749863 -6.3172112 0.9145788 825 0 0 0 63.513382
5.7801065 -6.2660732 0.9472357 839.5 0 0 0 62.729984
6.2346158 -6.2780614 0.9825508 896 0 0 0 62.136768
-1.8140033 -5.9123912 0.53239363 545 0 0 0 79.367966
-1.4938205 -5.8836246 0.52320039 70 0 0 0 78.591232
-0.099226236 -5.9774504 0.66214955 593.5 0 0 0 74.871552
0.33532304 -5.9054441 0.65648174 495.5 0 0 0 73.689598
0.55216414 -5.8923984 0.65730041 586 0 0 0 73.112701
1.8180829 -5.8421001 0.68188679 388 0 0 0 69.780807
2.2405283 -5.7581367 0.64143115 462 0 0 0 68.671906
2.7641783 -5.739182 0.6358794 583.66669 0 0 0 67.432251
3.2371893 -5.7832174 0.66126865 631.25 0 0 0 66.452301
3.7674534 -5.6918473 0.59659964 745 0 0 0 65.277733
4.2917528 -5.6936426 0.62278146 732 0 0 0 64.303696
4.8084459 -5.7620344 0.6546517 643.5 0 0 0 63.513382
5.358407 -5.8124852 0.68871349 794.5 0 0 0 62.729984
5.7466197 -5.7897215 0.71024436 912 0 0 0 62.136768
6.1457515 -5.749197 0.73241222 698.5 0 0 0 61.555351
6.5128503 -5.6564884 0.75056809 705 0 0 0 60.97036
8.2187576 -5.5228992 0.85884058 599 0 0 0 59.018833
8.8303452 -5.6216302 0.90629077 492 0 0 0 58.624153
9.3933363 -5.658628 0.94815385 482 0 0 0 58.232079
2.3966691 -5.4864111 0.52459079 434 0 0 0 68.016891
6.2045355 -5.1290827 0.70347369 502 0 0 0 60.576679
7.7529173 -5.4929328 0.82512861 675 0 0 0 59.410767
8.822011 -5.0249443 0.88120592 454 0 0 0 57.833286
9.3048668 -5.0012865 0.65199029 225 0 0 0 57.446392
10.57567 -5.0270653 0.7195971 407 0 0 0 56.658527
-16.772392 -4.6406674 0.59196317 112 0 0 0 95.41407
-16.440599 -4.5488706 0.99822903 78 0 0 0 95.41407
-7.2269454 -4.6561403 0.65876055 505.66666 0 0 0 90.603371
-6.7123351 -4.7221937 0.62921071 509.33334 0 0 0 89.944313
-4.1103945 -4.5250173 0.52769732 322 0 0 0 86.419792
-2.3103926 -4.7771993 0.76365203 461.5 0 0 0 81.818634
-1.9238962 -4.8262019 0.62130064 484.33334 0 0 0 80.675835
0.7348327 -4.600913 0.5753566 243.57143 0 0 0 72.047318
1.1153544 -4.5786214 0.64834422 218.66667 0 0 0 70.761909
1.8617287 -4.9159694 0.59187996 213 0 0 0 68.803276
6.2258034 -4.8944287 0.69315553 422 0 0 0 60.190567
6.7319765 -4.8991385 0.62271845 595.5 0 0 0 59.605362
7.2105536 -4.8509536 0.54138786 861 0 0 0 59.018833
7.8031883 -4.8369017 0.57054538 592.5 0 0 0 58.428116
8.4919319 -4.8396645 0.6056484 207 0 0 0 57.833286
9.5784826 -4.8478374 0.66243708 303 0 0 0 57.061192
10.389352 -4.6272006 0.98435599 418 0 0 0 56.274529
10.583991 -4.715353 0.712713 397 0 0 0 56.274529
11.404352 -4.7461581 0.75749242 335 0 0 0 55.885231
11.701294 -4.5345464 0.76913172 201 0 0 0 55.493881
14.729692 -4.8837657 0.94243532 149 0 0 0 54.716122
15.504725 -4.7194862 0.98273307 72 0 0 0 54.321327
-17.205513 -4.3088508 0.60317755 156 0 0 0 95.803741
-14.429888 -4.3765135 0.88601595 119 0 0 0 95.03257
-12.880475 -4.2544193 0.80015576 116 0 0 0 94.647949
-7.2860847 -4.3643532 0.51167279 419 0 0 0 91.128143
-5.5168223 -4.3014531 0.60021222 623 0 0 0 89.163963
-5.2722459 -4.3221884 0.58560115 734 0 0 0 88.760193
-4.1930685 -4.2896147 0.65999305 582.25 0 0 0 87.013077
-0.71325511 -4.408957 0.57538682 117 0 0 0 77.155281
-0.3506943 -4.4307437 0.60943735 152 0 0 0 75.853073
0.95673949 -4.3999467 0.5100615 249 0 0 0 71.157372
1.1371603 -4.436676 0.5187605 138 0 0 0 70.564186
12.156324 -4.3689847 0.79076463 260 0 0 0 55.109821
14.577352 -4.4379725 0.55222684 270 0 0 0 54.321327
16.026058 -4.4493527 0.59945297 143 0 0 0 53.936661
16.998562 -4.2706523 0.62978125 116 0 0 0 53.53793
18.940807 -4.2642598 0.6936782 91 0 0 0 53.154911
21.009523 -4.1881647 0.76160949 131 0 0 0 52.757858
-17.647856 -3.9619918 0.61492085 8 0 0 0 96.19664
-4.5538673 -3.9226396 0.52018464 470 0 0 0 88.373322
-4.2619138 -3.9841015 0.69399232 540.66669 0 0 0 87.726387
-3.9378543 -3.9296103 0.61817878 488 0 0 0 87.211662
28.416786 2.1074767 0.99943537 309 0 0 0 48.460079
-3.2201843 3.9707174 0.75289053 526.5 0 0 0 14.03835
-1.6308718 3.9387405 0.63751984 203 0 0 0 18.73316
-21.148026 4.1565995 0.69216037 83 0 0 0 2.7240601
-4.5238242 4.186028 0.52629626 539 0 0 0 11.70262
-4.1172686 4.1919379 0.71573716 419.125 0 0 0 12.479458
-3.8004076 4.3139806 0.77401876 422 0 0 0 13.359845
-3.2189248 4.1966014 0.77844411 528.90002 0 0 0 14.475206
-2.7617483 4.2742314 0.74237931 510.44446 0 0 0 15.785921
-2.1937163 4.1908274 0.82979733 288.375 0 0 0 17.268726
-1.8044193 4.2644577 0.77895349 201.60001 0 0 0 18.579552
-1.3769096 4.3155656 0.73164225 269.33334 0 0 0 20.039202
-0.71116191 4.4500551 0.82552695 150.66667 0 0 0 22.444735
-0.31558385 4.3183799 0.78369683 127.71429 0 0 0 23.812044
0.22093174 4.355185 0.67129511 148.2 0 0 0 25.769516
0.74892139 4.2510114 0.745794 113 0 0 0 27.724783
1.3327252 4.2074795 0.65501565 117.33334 0 0 0 29.803518
1.6523199 4.212193 0.57873511 165 0 0 0 30.845711
-20.284042 4.5025692 0.66914976 113 0 0 0 3.1178501
-19.000149 4.7049899 0.63287586 100 0 0 0 3.51192
-17.90612 4.8988395 0.6024918 108 0 0 0 3.8961
-16.17495 4.8480487 0.9615503 52 0 0 0 4.2867398
-8.320775 4.9024282 0.56626147 5461 0 0 0 8.1899796
-7.8462763 4.8803835 0.5435394 110 0 0 0 8.5740204
-6.4920549 4.7134633 0.86650628 99 0 0 0 9.7443895
-5.9076366 4.9815669 0.83727741 221 0 0 0 10.92436
-5.1167722 4.5203457 0.57961172 469 0 0 0 11.31495
-4.2122703 4.5101805 0.52837092 447 0 0 0 12.87061
-3.8453283 4.8926487 0.90980452 591.5 0 0 0 14.240974
-3.1829653 4.8364029 0.92177653 289 0 0 0 15.61151
-2.7524641 4.6485991 0.7333855 345.5 0 0 0 16.392738
-2.0309882 4.6291656 0.68830734 102 0 0 0 18.34663
-1.6370473 4.6806746 0.71684581 279.33334 0 0 0 19.581673
-1.2465959 4.7582059 0.74996471 255.09091 0 0 0 20.867329
-0.73206079 4.6863852 0.6767298 117.6 0 0 0 22.484062
-0.36946541 4.7782278 0.77662146 149.5 0 0 0 23.715485
0.16089886 4.7448936 0.86226642 210.5 0 0 0 25.473082
0.86127412 4.6604948 0.65807986 71.75 0 0 0 27.823597
1.3347641 4.722496 0.64065701 106 0 0 0 29.282579
1.7596499 4.8098035 0.92439097 178.33333 0 0 0 30.455225
2.0764616 4.7943664 0.81170559 258.66666 0 0 0 31.367846
-6.7602348 5.3024359 0.82371843 190 0 0 0 10.336875
-6.3171029 5.3342395 0.69572002 204 0 0 0 10.92436
-4.0177946 5.2526636 0.64546043 599.5 0 0 0 14.4436
-3.7311668 5.1236172 0.85051334 296 0 0 0 14.8279
-2.7801957 5.1584291 0.73236597 383 0 0 0 17.011936
-1.1442666 5.2093334 0.99195868 133 0 0 0 21.473881
-0.9358592 5.1580176 0.72078085 136 0 0 0 22.053905
-0.23229003 5.2798467 0.67414916 197.8 0 0 0 24.200718
0.22624731 5.3622036 0.73673522 193.5 0 0 0 25.56888
0.90858328 5.0638618 0.8399899 167 0 0 0 27.725069
1.133327 5.1722574 0.6654886 124.5 0 0 0 28.30912
1.7637014 5.2060719 0.89786184 117.5 0 0 0 30.065571
2.4553943 5.388545 0.74545884 284.5 0 0 0 31.63048
2.6369398 5.4243364 0.83328831 161 0 0 0 32.0294
-19.961357 5.9931679 0.6735056 46 0 0 0 4.2867398
-6.0661535 5.6500883 0.89770716 204 0 0 0 11.70262
-5.9111147 5.780941 0.69743562 137 0 0 0 12.0923
-2.7458296 5.5611773 0.6858899 247 0 0 0 17.565121
-1.5186114 5.6264586 0.50971228 223 0 0 0 20.69141
0.70227051 5.7334533 0.69776529 143 0 0 0 26.813744
1.3958461 5.6692543 0.94966441 141.5 0 0 0 28.697479
1.7499011 5.8301182 0.83953393 159.5 0 0 0 29.477575
2.3742838 5.5665693 0.61141801 293 0 0 0 31.23653
-2.105989 6.0306268 0.8642863 118 0 0 0 19.5207
-1.4445312 6.3164396 0.72054386 173 0 0 0 21.276545
12.303769 6.2357755 0.5018816 448 0 0 0 42.201847
12.663294 6.0292487 0.50973064 213 0 0 0 42.593319
22.905317 6.365612 0.83845931 126 0 0 0 45.332809
-3.1185575 6.7718015 0.81930858 374 0 0 0 17.954121
-2.860724 6.6270432 0.79473037 505 0 0 0 18.34663
-2.0269613 6.913527 0.97239953 244 0 0 0 20.29792
-0.26546183 6.5545669 0.57405311 158 0 0 0 24.203659
12.773117 6.8733139 0.70346415 225.5 0 0 0 41.80167
13.989726 6.6575527 0.93972641 200 0 0 0 42.593319
15.552235 6.9326949 0.61086279 224 0 0 0 42.988441
19.141783 6.8817458 0.72263891 229 0 0 0 44.159367
-3.1820362 7.4004335 0.6891253 432 0 0 0 18.34663
4.6789961 7.3340483 0.97174978 435.5 0 0 0 33.783882
5.0766015 7.33922 0.7785157 481 0 0 0 34.368698
10.360062 7.357213 0.77725238 178 0 0 0 39.853271
