# .PCD v0.7 - Point Cloud Data file format
VERSION 0.7
FIELDS x y z intensity normal_x normal_y normal_z curvature
SIZE 4 4 4 4 4 4 4 4
TYPE F F F F F F F F
COUNT 1 1 1 1 1 1 1 1
WIDTH 942
HEIGHT 1
VIEWPOINT 0 0 0 1 0 0 0
POINTS 942
DATA ascii
-7.3053064 -7.307179 1.1259396 331 0 0 0 87.177422
-6.7017617 -7.1585488 1.1497225 306 0 0 0 86.645119
-6.0985346 -7.0725832 1.1345527 319.5 0 0 0 85.999001
-5.7067161 -7.2697558 1.2079561 463.25 0 0 0 85.25721
-5.4647446 -7.371901 1.4555576 371 0 0 0 84.817009
-3.1451302 -7.3308592 1.0719821 722 0 0 0 81.098358
-2.6698008 -7.1736536 1.0297961 701.5 0 0 0 80.31778
-2.2044606 -7.2696767 1.1177649 785 0 0 0 79.34066
-1.7649066 -7.4141283 1.2132483 718.5 0 0 0 78.361252
-1.2666627 -7.2611756 1.174378 697 0 0 0 77.387489
-0.71361732 -7.2139263 1.2168359 661 0 0 0 76.214165
-0.1873102 -7.3541036 1.3534025 810 0 0 0 75.038673
0.25633186 -7.178894 1.3219922 648.5 0 0 0 74.060089
0.59635723 -7.0220366 1.2974203 628.5 0 0 0 73.276978
-6.9607449 -6.9649696 1.3164754 490 0 0 0 87.177422
-6.1656966 -6.9188676 1.3936206 350.66666 0 0 0 86.256142
-0.52062881 -6.9731588 1.1152498 657 0 0 0 75.822739
-0.17694904 -6.8782768 1.0979677 694.33331 0 0 0 75.038673
0.32032362 -6.7068009 1.0720366 691.66669 0 0 0 73.863106
0.76078677 -6.6853814 1.1314217 482 0 0 0 72.825821
1.1785579 -6.8469634 1.2794849 753.33331 0 0 0 71.907967
1.6747056 -6.726213 1.2764424 776.33331 0 0 0 70.735283
2.1711071 -6.6060348 1.2802721 736.66669 0 0 0 69.56443
2.6948779 -6.5313315 1.3002006 707.33331 0 0 0 68.393562
0.94300264 -6.4231029 1.0371494 511 0 0 0 72.300171
1.2353888 -6.2692542 1.021438 679.66669 0 0 0 71.518852
1.7233229 -6.0705276 1.0092512 582.66669 0 0 0 70.212067
3.22001 -6.4193039 1.3209809 711 0 0 0 67.217628
3.7941797 -6.346437 1.3591059 740 0 0 0 66.039665
4.2020559 -6.3059053 1.3917563 775 0 0 0 65.253517
4.9791994 -6.0801139 1.4421617 672 0 0 0 63.695152
5.2219048 -6.0653768 1.4681033 690 0 0 0 63.297993
2.2752674 -5.9296699 1.0151352 505.66666 0 0 0 68.78241
2.7652652 -5.8735785 1.036785 708 0 0 0 67.610847
3.2599523 -5.7753358 1.0584054 595 0 0 0 66.42968
3.7485917 -5.6288352 1.0786482 628 0 0 0 65.258362
4.4713554 -5.4638286 1.1243682 823 0 0 0 63.695152
4.7323174 -5.3640857 1.1388149 956 0 0 0 63.099892
5.2100759 -5.3498335 1.1873372 875.5 0 0 0 62.31646
5.6499434 -5.2569304 1.2258635 943 0 0 0 61.53614
6.1138229 -5.2808599 1.2815069 737 0 0 0 60.942539
6.6660056 -5.2066565 1.3400435 671 0 0 0 60.166821
7.2643232 -5.2508774 1.4179747 776 0 0 0 59.575966
7.8608875 -5.2519078 1.4934565 684 0 0 0 58.993179
5.992806 -4.6836634 1.0201486 755 0 0 0 60.166821
6.3470049 -4.5913014 1.0496616 1004.5 0 0 0 59.575966
6.7318597 -4.5011873 1.0837896 918 0 0 0 58.993179
7.121798 -4.51123 1.1267595 971 0 0 0 58.602879
7.9998488 -4.529583 1.2253742 728 0 0 0 57.81464
8.6361828 -4.611423 1.3026644 666 0 0 0 57.424889
9.1667147 -4.6073232 1.3633763 522 0 0 0 57.038486
9.6454792 -4.5532079 1.4160094 450 0 0 0 56.649021
10.177738 -4.5006013 1.4758217 485 0 0 0 56.253632
3.1474311 -4.3485498 1.2102365 323.25 0 0 0 64.622261
4.2066584 -4.0200248 1.077231 524 0 0 0 61.733727
7.4769611 -4.4813356 1.1638242 756 0 0 0 58.212841
9.2047939 -4.0740423 1.0904349 662 0 0 0 56.253632
8.7557573 -3.6192927 1.2620392 357 0 0 0 55.860561
10.290674 -3.6708972 1.180539 528 0 0 0 55.092819
11.084124 -3.647697 1.2583597 413 0 0 0 54.694046
12.192739 -3.6809576 1.3701192 570 0 0 0 54.303673
12.769087 -3.5136869 1.4232727 407 0 0 0 53.923302
8.8880358 -3.420558 1.2682236 477.66666 0 0 0 55.474033
13.159908 -3.2744887 1.4565438 412 0 0 0 53.528809
13.588271 -3.0274057 1.4942954 168 0 0 0 53.13448
11.818398 -2.9418402 1.0153897 244 0 0 0 53.528809
12.350715 -2.7526093 1.0535703 201 0 0 0 53.13448
13.516488 -2.6638327 1.4791719 152 0 0 0 52.746887
12.59208 -2.4822588 1.0681225 112 0 0 0 52.746887
13.22742 -2.2700274 1.1152847 142 0 0 0 52.355511
15.284903 -2.2357724 1.2782156 202 0 0 0 51.967442
15.68003 -1.9002067 1.3061609 96 0 0 0 51.57402
20.606989 -1.4744366 1.1820886 52 0 0 0 50.78933
26.167894 -1.2248155 1.4892914 31 0 0 0 50.39164
-23.578415 0.23320223 1.3672544 22.5 0 0 0 49.829544
-23.770226 1.0283622 1.3880515 28 0 0 0 0.39618999
-18.333826 1.690815 1.0805744 32 0 0 0 1.16889
-7.5421815 3.4640741 1.3110596 120 0 0 0 6.6298299
-6.5280747 3.385371 1.1639875 216 0 0 0 7.4138198
-5.9355669 3.4497857 1.1712973 396 0 0 0 8.19697
25.950304 3.2749815 1.4876966 24 0 0 0 47.668861
-7.7505636 3.6745019 1.2480757 165 0 0 0 6.8299398
-7.3317623 3.8094838 1.1039219 343 0 0 0 7.4138198
-6.0764422 3.803714 1.2525034 505.33334 0 0 0 8.7228632
-5.5952458 3.9231882 1.2082777 426.75 0 0 0 9.5607452
-5.2995734 3.9405887 1.3680302 545.33331 0 0 0 10.0201
25.817928 3.9061787 1.4853995 19 0 0 0 47.272392
-7.4011831 4.0786152 1.3355985 319 0 0 0 7.8045502
-5.2535782 4.2101254 1.2331394 403.14285 0 0 0 10.596107
-4.8749447 4.1759195 1.138945 500.5 0 0 0 11.122015
-4.7818069 4.6036882 1.2375364 546.625 0 0 0 12.049725
21.556215 4.9130092 1.2634959 332 0 0 0 46.096581
25.574972 4.516017 1.4776635 17 0 0 0 46.880848
-5.385592 5.4948454 1.0324881 831 0 0 0 12.48468
-4.829103 5.2517362 1.2506527 388 0 0 0 13.009631
-4.3635406 5.410244 1.1060377 531 0 0 0 14.05216
21.471064 5.4531088 1.2660146 183 0 0 0 45.71616
25.375507 5.1279569 1.4732028 37 0 0 0 46.49427
-4.9530883 5.5701628 1.1840471 331 0 0 0 13.27213
21.352177 5.9863787 1.2673664 257 0 0 0 45.32148
-6.4374933 6.9219036 1.2636813 242 0 0 0 12.87562
-5.805479 6.8835664 1.426375 355 0 0 0 13.66859
-5.2507586 6.8774691 1.3719026 372 0 0 0 14.45366
5.3467636 6.8705888 1.2371249 703.33331 0 0 0 35.290802
21.263025 6.5302849 1.2712166 206 0 0 0 44.925961
-6.5508871 7.4037795 1.3207507 254 0 0 0 13.27213
-5.716598 7.3094106 1.1280279 402 0 0 0 14.252911
-5.0893712 7.2679677 1.3323164 397.33334 0 0 0 15.102444
-4.6157398 7.2620621 1.2571526 301.5 0 0 0 15.8207
-4.3448305 7.2146916 1.3369905 381.5 0 0 0 16.20837
-3.66554 7.4635801 1.1164126 368 0 0 0 17.578279
-3.1702192 7.3369212 1.2710302 398 0 0 0 18.351179
-2.7822647 7.3026352 1.1688045 437.60001 0 0 0 19.061272
-2.2938242 7.1563516 1.1973678 451.66666 0 0 0 19.92313
-1.7435884 7.2173543 1.1836184 238.33333 0 0 0 21.090281
-1.3555459 7.1312041 1.1576744 60 0 0 0 21.87075
4.4081888 7.3282852 1.1454666 569 0 0 0 33.398129
4.6636686 7.1387825 1.1421065 605 0 0 0 33.982128
5.7758293 7.1704426 1.4586203 456 0 0 0 35.554768
21.227289 7.0958581 1.2790107 171 0 0 0 44.53516
-6.4075584 7.6110306 1.2068667 415.5 0 0 0 13.66859
-4.9505682 7.5853071 1.2130612 67 0 0 0 15.62833
-4.4338102 7.7987843 1.313601 364 0 0 0 16.598169
-3.7232232 7.7039728 1.253852 265.75 0 0 0 17.670223
-3.3706114 7.8140507 1.1421548 376 0 0 0 18.351179
-2.7418015 7.594677 1.4831407 295 0 0 0 19.334808
-1.1022745 7.9665065 1.4781137 88 0 0 0 22.639509
-0.89126843 7.8492165 1.4524282 19 0 0 0 23.040409
2.8332236 7.6234879 1.091234 617 0 0 0 30.468241
3.2658834 7.8728361 1.1419666 423.5 0 0 0 31.050823
3.5658996 7.7678699 1.1449343 484 0 0 0 31.643259
4.2660732 7.7215691 1.2901289 591.5 0 0 0 32.813122
4.7090845 7.8163075 1.4462163 372.5 0 0 0 33.398129
5.5129189 7.5814877 1.2517568 451 0 0 0 34.76833
9.2226906 7.8644896 1.3080058 390 0 0 0 38.483196
21.127728 7.6459751 1.2839307 68 0 0 0 44.151741
-5.4129586 8.310729 1.0834862 349 0 0 0 15.62833
-4.4420671 8.0458031 1.0061795 299 0 0 0 16.792669
-2.0041726 8.3621931 1.1539873 165 0 0 0 21.088459
0.28660047 8.2155771 1.2058963 752.16669 0 0 0 25.382151
0.78956383 8.1375523 1.1990912 658.75 0 0 0 26.3629
1.2313702 8.3479109 1.2362542 649.75 0 0 0 27.140804
2.4326537 8.3867598 1.1691793 495 0 0 0 29.2889
2.6691976 8.0777912 1.1399795 422 0 0 0 29.876026
4.0083961 8.1820812 1.218066 419 0 0 0 32.030209
5.2541528 8.0270643 1.0438217 252 0 0 0 33.982128
5.7745032 8.3577271 1.1030413 424 0 0 0 34.370361
9.0338163 8.2996502 1.3233738 159 0 0 0 37.90736
20.932035 8.1636486 1.2839715 78 0 0 0 43.759033
-3.3354013 8.9446115 1.044253 223 0 0 0 19.137899
-2.7683685 8.6907234 1.2223551 265 0 0 0 19.924009
-2.499192 8.5612402 1.1958449 66 0 0 0 20.31366
-0.11852291 8.620594 1.1561331 616 0 0 0 24.60644
2.1641207 8.6331215 1.1911232 477 0 0 0 28.699419
3.7500081 8.7100124 1.0328101 280 0 0 0 31.247509
8.2149963 8.7554808 1.003827 242 0 0 0 36.73177
8.9472523 8.636076 1.3409901 381 0 0 0 37.513248
14.692818 8.9047508 1.4195837 237 0 0 0 41.026367
15.439847 8.8401632 1.0247575 174 0 0 0 41.411591
-6.5415792 9.0594339 1.2172883 164 0 0 0 14.84031
-6.2102489 9.0577068 1.1968775 132 0 0 0 15.23351
1.376137 9.2853107 1.023773 616 0 0 0 27.140804
8.6074095 9.1700945 1.3561051 235 0 0 0 36.73177
12.28581 9.218853 1.273335 275 0 0 0 39.460121
14.493451 9.2799654 1.4220159 259 0 0 0 40.638561
15.583352 9.4389982 1.048615 156 0 0 0 41.026367
-5.2763963 9.5857887 1.4606338 207 0 0 0 16.792669
0.59356642 9.6663561 1.0561547 334 0 0 0 25.77146
1.0996059 9.881484 1.0828136 556 0 0 0 26.557261
12.043336 9.5101137 1.2722448 237 0 0 0 39.078419
21.921326 9.8174515 1.3703724 32 0 0 0 42.980328
20.260971 10.301622 1.2989469 90 0 0 0 42.201221
21.204281 10.131003 1.3416494 96 0 0 0 42.590408
23.944748 10.021413 1.4778987 29 0 0 0 43.366169
6.724987 10.814006 1.3738416 398 0 0 0 33.599018
13.046501 10.829939 1.4019812 90 0 0 0 38.677994
15.823874 10.682899 1.0973552 164 0 0 0 40.243462
16.589746 10.613142 1.1307018 65 0 0 0 40.638561
19.802525 10.690672 1.2865275 122 0 0 0 41.802238
2.4431319 11.430803 1.2660989 125 0 0 0 28.12097
6.5008969 11.051989 1.3832136 393 0 0 0 33.197239
8.0788794 11.06451 1.4747298 328 0 0 0 34.76833
9.4163017 11.069087 1.2078122 92 0 0 0 35.9491
9.9753408 11.154359 1.2424189 141 0 0 0 36.338619
12.48444 11.44856 1.4008129 19 0 0 0 37.90736
12.950565 11.300294 1.4207379 58 0 0 0 38.288399
15.6457 11.133373 1.1035876 75 0 0 0 39.848911
2.237982 11.884535 1.3089048 123 0 0 0 27.72772
2.8350637 11.817426 1.3148184 187 0 0 0 28.505579
3.0831585 11.589983 1.0063018 145 0 0 0 28.893259
6.3041253 11.800691 1.3324143 377.66666 0 0 0 32.553158
3.5534484 12.130593 1.0585537 86 0 0 0 29.2889
6.1163378 12.406093 1.3213191 361 0 0 0 32.030209
5.9715438 12.901501 1.1847522 301 0 0 0 31.643259
-0.82380515 13.889532 1.1678125 132 0 0 0 23.81456
-0.47661638 13.722312 1.1523825 124 0 0 0 24.208469
0.86958104 13.634509 1.1448315 117 0 0 0 25.77146
2.5911174 13.699719 1.1651299 161 0 0 0 27.72772
5.6521444 13.970339 1.2543515 155 0 0 0 30.854139
0.562931 14.300833 1.1982648 51 0 0 0 25.37981
-1.5901619 14.653153 1.236141 56 0 0 0 23.040409
-1.2398393 14.821956 1.2466651 86 0 0 0 23.4247
-0.14239877 14.578121 1.2210752 60 0 0 0 24.60644
-2.0848112 15.665532 1.3236465 38 0 0 0 22.639509
-5.7093139 31.620193 1.0755905 8 0 0 0 21.87075
-16.527594 -13.565531 1.7738589 34 0 0 0 88.732803
-16.415386 -12.811917 1.7283764 9 0 0 0 89.123268
-12.769027 -12.159809 1.8970749 80 0 0 0 87.559685
-4.5676117 -9.6609659 1.9529853 364 0 0 0 81.694603
-4.1219134 -9.3012009 1.8607376 383 0 0 0 81.291435
-3.7418799 -9.034771 1.7897172 402 0 0 0 80.905289
-2.3042443 -9.193408 1.9677563 522 0 0 0 78.560112
-5.6405759 -8.9117737 1.6677078 393 0 0 0 83.646065
-5.1993837 -8.923563 1.7618152 361.25 0 0 0 83.059799
-4.8029089 -8.9889135 1.6123821 522 0 0 0 82.467133
-4.4315686 -8.8065243 1.5606989 353 0 0 0 82.079437
-3.24629 -8.727622 1.7057354 479.5 0 0 0 80.31778
-1.8669034 -8.8010139 1.8695068 556.5 0 0 0 77.97245
-1.4882338 -8.5592632 1.8060799 509 0 0 0 77.387039
-0.0036489563 -8.5514593 1.9865807 696 0 0 0 74.648521
0.20601366 -8.5515499 1.9870899 524 0 0 0 74.259651
-5.3164549 -8.3993664 1.8194255 281 0 0 0 83.646065
-2.6548705 -8.3708916 1.6102946 591.5 0 0 0 79.536766
-2.1559501 -8.1672993 1.549952 507 0 0 0 78.753235
-1.1496031 -8.4294271 1.7692635 604.5 0 0 0 76.797897
-0.70390421 -8.112545 1.6946675 563 0 0 0 76.019806
-0.39997053 -8.0348053 1.6743515 545 0 0 0 75.427757
0.40686274 -8.3721981 1.9477093 499 0 0 0 73.860527
0.79785889 -8.1583786 1.9057199 593.66669 0 0 0 73.083427
1.1809431 -8.0011845 1.8802158 519 0 0 0 72.300171
-5.2714257 -7.6877451 1.823532 300.25 0 0 0 84.230438
-1.796926 -7.9885907 1.5031892 758 0 0 0 78.162392
-0.10342638 -7.9180841 1.6486335 650 0 0 0 74.844131
0.28043255 -7.8091578 1.6271379 634 0 0 0 74.060089
0.5540005 -7.6083608 1.5890186 634 0 0 0 73.469162
1.3695779 -7.9290085 1.8706919 767 0 0 0 71.90657
1.7483517 -7.8134804 1.8618876 656.66669 0 0 0 71.127426
2.2184305 -7.6755257 1.8576688 759.5 0 0 0 70.149918
2.7348166 -7.661798 1.8910614 604.33331 0 0 0 69.1726
3.2455592 -7.5880685 1.9176493 640.5 0 0 0 68.19854
3.6637387 -7.5212097 1.9434509 535.5 0 0 0 67.414047
4.0278869 -7.5493279 1.9868549 621 0 0 0 66.824799
-7.2477183 -7.2521057 1.8762451 319 0 0 0 87.177422
-6.2152934 -7.089747 1.883688 262.66666 0 0 0 86.127571
-5.7196956 -7.1503439 1.791591 329.5 0 0 0 85.403946
-5.4855695 -7.4000378 1.6886351 397 0 0 0 84.817009
0.81866658 -7.4545979 1.5627004 578.5 0 0 0 72.890564
1.2730895 -7.3822498 1.5610752 583 0 0 0 71.907967
1.7236607 -7.2960062 1.5619065 764 0 0 0 70.932556
2.1700594 -7.1881976 1.5643915 628 0 0 0 69.954346
2.614197 -7.0600681 1.5681658 538.5 0 0 0 68.977303
-6.6940594 -6.9186149 1.6039618 468.66666 0 0 0 86.909355
-6.2672334 -6.918839 1.7111826 384 0 0 0 86.38472
2.8876698 -6.9967375 1.5762994 539 0 0 0 68.392639
3.2594023 -6.9120336 1.5914139 642.66669 0 0 0 67.610847
3.7950325 -6.9118052 1.6408213 673 0 0 0 66.625481
4.2534943 -6.9181452 1.6889606 669 0 0 0 65.84642
4.5896716 -6.8835888 1.7198888 760 0 0 0 65.253517
5.7856483 -6.8835077 1.866502 590.5 0 0 0 63.496574
6.3734875 -6.8663516 1.9432032 673.5 0 0 0 62.708572
6.7379775 -6.7429504 1.976481 667 0 0 0 62.117569
0.75963247 -6.2175155 1.9259769 44 0 0 0 72.696335
5.6492634 -6.0899858 1.5225128 837 0 0 0 62.708572
6.0412259 -6.0491195 1.5658128 879 0 0 0 62.117569
6.8065243 -6.0212879 1.6623247 668.5 0 0 0 61.140549
7.4540539 -6.1192718 1.761777 264 0 0 0 60.551231
7.8573508 -6.1322041 1.819559 581 0 0 0 60.166821
8.2553463 -6.1212664 1.8750424 570 0 0 0 59.773602
8.5880919 -6.0457468 1.9153777 577 0 0 0 59.378326
9.0835085 -6.0648537 1.9903941 502 0 0 0 58.993179
8.334857 -5.2755342 1.5566621 503 0 0 0 58.602879
8.9410276 -5.3543077 1.6425474 425 0 0 0 58.212841
9.2854509 -5.2539396 1.6806116 550 0 0 0 57.81464
9.8474922 -5.2552433 1.7566904 462 0 0 0 57.424889
10.349607 -5.1992459 1.8214742 447 0 0 0 57.038486
10.811772 -5.1014295 1.87895 525 0 0 0 56.649021
11.504033 -5.0846996 1.9749405 447 0 0 0 56.253632
3.107147 -4.3187284 1.7080921 314.75 0 0 0 64.671646
12.233142 -4.3584952 1.7161618 381 0 0 0 55.092819
13.012661 -4.2773323 1.8081543 399 0 0 0 54.694046
14.07633 -4.2448554 1.9380958 327 0 0 0 54.303673
8.7577219 -3.6201057 1.7313293 330 0 0 0 55.860561
14.518911 -2.8580985 1.950632 166 0 0 0 52.746887
17.054573 -2.9244099 1.848374 138 0 0 0 52.355511
15.751747 -2.3039052 1.7035581 88 0 0 0 51.967442
20.297598 -1.9522244 1.6756375 55 0 0 0 51.180458
23.621956 -1.685526 1.9401802 78 0 0 0 50.78933
28.104122 -0.62271458 1.5955654 37 0 0 0 50.004608
-20.163479 0.016307648 1.6695949 16 0 0 0 99.659088
-19.767385 0.36633784 1.6462337 33 0 0 0 0
27.774906 0.068223253 1.577002 20 0 0 0 49.620689
27.330101 0.73999 1.552958 21 0 0 0 49.221447
-19.518505 1.3172867 1.6301603 33 0 0 0 0.78486997
26.947147 1.3939676 1.5332506 20 0 0 0 48.836967
-27.132664 1.8411787 1.5837003 17 0 0 0 0.78486997
26.585629 2.0324321 1.5156006 23 0 0 0 48.44838
26.283722 2.6615593 1.5021129 21 0 0 0 48.053982
-6.0388684 3.7096741 1.8112609 253 0 0 0 8.5929403
-5.4415493 3.9124093 1.5522646 281 0 0 0 9.7554798
-6.0081754 4.1097932 1.5086848 346 0 0 0 9.3660097
-5.8719664 4.2280216 1.8505347 331 0 0 0 9.7554798
-5.011682 4.2947388 1.5304892 194.5 0 0 0 11.122015
-4.9285135 4.3295941 1.7623777 303.5 0 0 0 11.31913
-5.7185321 4.5571823 1.8710023 154 0 0 0 10.5413
-5.3872089 4.8563833 1.7698932 155.5 0 0 0 11.511305
-4.6328182 4.5949697 1.673226 316.16666 0 0 0 12.29287
-4.4693899 4.7708101 1.7565413 327.5 0 0 0 12.87562
21.52977 4.9106851 1.8127826 129 0 0 0 46.096581
-10.494552 5.1557622 1.5543613 200 0 0 0 7.0300498
-9.3898153 5.191081 1.9546058 195 0 0 0 7.8045502
-4.8823729 5.4891267 1.5263168 316 0 0 0 13.27213
21.343161 5.4243908 1.8079728 413 0 0 0 45.71616
21.247055 5.9606919 1.8117365 415 0 0 0 45.32148
-5.7984438 6.2240438 1.659753 392.5 0 0 0 12.87562
-5.1807075 6.4469218 1.7169484 277 0 0 0 14.05216
-4.5583978 6.1083426 1.9549285 314.5 0 0 0 14.646985
-4.2617884 6.3352442 1.9592915 495 0 0 0 15.43092
-2.5507941 6.2895222 1.8293486 411.5 0 0 0 18.74942
-2.4187174 6.4134998 1.7645226 581 0 0 0 19.137899
-5.6981378 6.7553501 1.6178101 359 0 0 0 13.662146
-5.2440333 6.7547736 1.5667859 483.66666 0 0 0 14.320853
-4.5312777 6.5661216 1.8516575 412 0 0 0 15.23351
-4.2322431 6.698904 1.9030994 300 0 0 0 15.884823
-3.8828373 6.6116457 1.8761473 441.5 0 0 0 16.403669
-3.2193708 6.733243 1.9181755 421 0 0 0 17.770069
-2.7225823 6.7316909 1.7788947 403 0 0 0 18.744539
-2.2500055 6.854147 1.7253046 400.5 0 0 0 19.825277
-1.6934605 6.8165998 1.6797876 446 0 0 0 20.993362
-1.1280164 6.8205323 1.7819085 92 0 0 0 22.252541
-0.81728077 6.7954421 1.866272 283.20001 0 0 0 22.956905
-0.2803551 6.8915997 1.9505816 125 0 0 0 24.210499
4.7579145 6.9036469 1.7988689 666.25 0 0 0 34.372795
5.3328733 6.9696574 1.8265836 551 0 0 0 35.158821
5.585351 6.9359813 1.8529587 518 0 0 0 35.554768
21.167032 6.504622 1.8179892 321 0 0 0 44.925961
-5.3411398 7.179575 1.8568487 396.5 0 0 0 14.646985
-4.8531408 7.2377567 1.5964175 498.5 0 0 0 15.43092
-4.3730221 7.2601514 1.7609885 382 0 0 0 16.20837
-3.7771432 7.2301087 1.8951702 351 0 0 0 17.183281
-3.2841167 7.353899 1.8720633 221.5 0 0 0 18.156521
-2.8558559 7.0688138 1.7736037 174 0 0 0 18.74942
-2.1955507 7.2493405 1.8243648 232.66667 0 0 0 20.183777
-1.708642 7.071867 1.5180706 519.33331 0 0 0 21.090281
-1.2296022 7.2536445 1.6070614 390.79999 0 0 0 22.177219
-0.77084953 7.2644677 1.6728859 364.66666 0 0 0 23.165735
-0.33596101 7.2298126 1.7324295 266.75 0 0 0 24.111006
2.4449015 7.1283765 1.9431442 475 0 0 0 30.06712
2.9053965 7.2708583 1.8252082 547 0 0 0 30.854139
3.1083531 7.2518096 1.8390419 459 0 0 0 31.247509
3.6418974 7.448174 1.9308219 526 0 0 0 32.030209
4.4133115 7.1353898 1.7478362 604 0 0 0 33.599018
4.6973372 7.1897535 1.7837536 510 0 0 0 33.982128
21.069323 7.0469613 1.8239284 314 0 0 0 44.53516
-5.2954893 7.9082909 1.9743996 327 0 0 0 15.43092
-4.6176987 7.6753464 1.6408827 448.5 0 0 0 16.20837
-4.1660881 7.7640963 1.7207189 338 0 0 0 16.985779
-3.7263973 7.8380632 1.6978953 283 0 0 0 17.770069
-2.5785809 7.7399001 1.5973716 264.5 0 0 0 19.727863
-2.3266132 7.9497471 1.5210608 347 0 0 0 20.31366
2.0901177 7.9512563 1.9140202 414 0 0 0 28.893259
2.7768514 7.6607757 1.8292742 333 0 0 0 30.334534
3.4486127 7.7704468 1.8722699 161 0 0 0 31.445385
3.5032203 7.6323628 1.7491924 202 0 0 0 31.643259
5.2921038 7.6692271 1.7070651 428 0 0 0 34.370361
8.4859524 7.8021846 1.5300977 660 0 0 0 37.90736
8.8095808 7.706264 1.5529782 601 0 0 0 38.288399
20.965244 7.5911369 1.830518 329 0 0 0 44.151741
-4.5095463 8.1679487 1.7084967 153 0 0 0 16.792669
-3.9335976 8.0242844 1.856655 239 0 0 0 17.578279
-3.0297451 8.0996351 1.7982929 441 0 0 0 19.137899
-2.6453478 8.2934895 1.8104404 181 0 0 0 19.924009
-1.7705809 8.2735167 1.5536853 411 0 0 0 21.47966
0.61442029 8.4711132 1.5591905 718.5 0 0 0 25.969999
2.424803 8.3577833 1.8108578 337 0 0 0 29.2889
2.7129197 8.2084303 1.7994189 339.5 0 0 0 29.876026
4.6946735 8.0148602 1.9309207 256 0 0 0 33.197239
5.4535332 8.3300304 1.5743808 484 0 0 0 33.982128
5.8060036 8.1873627 1.7119956 391.5 0 0 0 34.569344
7.9294438 8.4557276 1.538653 458 0 0 0 36.73177
8.2524424 8.1702557 1.6865293 392.75 0 0 0 37.316093
8.7553539 8.0477514 1.8723934 149 0 0 0 37.90736
9.4381447 8.2519512 1.9717929 472 0 0 0 38.288399
21.0812 8.2255802 1.8573132 37 0 0 0 43.759033
-3.6235659 8.8211126 1.8234686 272.66666 0 0 0 18.616674
-2.2744038 8.5679007 1.6260663 283 0 0 0 20.70261
0.31775078 8.8615894 1.6264569 30 0 0 0 25.37981
0.93552655 8.5114307 1.571385 784 0 0 0 26.557261
1.1756235 8.6973963 1.609679 694 0 0 0 26.947769
2.2037282 8.7937145 1.8850045 238 0 0 0 28.699419
3.4215574 8.5275936 1.9102625 140 0 0 0 30.854139
4.2258348 8.6164665 1.9936818 336 0 0 0 32.030209
8.048173 8.5809555 1.8529085 406 0 0 0 36.73177
11.288464 8.9166718 1.5452255 330 0 0 0 39.078419
11.525328 8.6506643 1.5478297 410 0 0 0 39.460121
20.782076 8.7046442 1.8495567 234 0 0 0 43.366169
-4.3129125 9.4041042 1.8926944 138 0 0 0 17.961861
-3.9924347 9.2963924 1.8515669 152 0 0 0 18.351179
8.0424585 9.009285 1.601523 369 0 0 0 36.338619
11.311896 9.1658211 1.9225239 167 0 0 0 38.878204
15.207598 9.2151804 1.9008129 245 0 0 0 41.026367
-5.1273322 9.884449 1.7604156 128 0 0 0 17.17889
19.007278 9.6697426 1.7528548 39 0 0 0 42.201221
18.631784 10.064245 1.7409351 85 0 0 0 41.802238
7.5885701 10.956527 1.7642307 356 0 0 0 34.370361
15.763209 10.645699 1.567907 152 0 0 0 40.243462
8.5638247 11.138598 1.5113052 299 0 0 0 35.158821
9.2944899 11.10994 1.6760174 235.33333 0 0 0 35.817657
9.9545307 11.130754 1.6033701 199 0 0 0 36.338619
15.612638 11.113621 1.5795066 51 0 0 0 39.848911
6.2091627 11.856602 1.7722712 293 0 0 0 32.42318
11.362872 11.503724 1.7327008 202 0 0 0 37.118938
21.037037 12.03749 1.9873894 36 0 0 0 41.411591
5.9588056 12.873396 1.5272925 367 0 0 0 31.643259
-0.82435924 13.906902 1.5073048 97 0 0 0 23.81456
2.7847443 13.796271 1.8640755 100 0 0 0 27.924345
-1.5517217 14.282806 1.5542725 34 0 0 0 23.040409
-1.2091908 14.420345 1.742126 40 0 0 0 23.4247
-0.49372101 14.293943 1.7235389 57.5 0 0 0 24.208469
5.4658275 14.522887 1.6681064 175 0 0 0 30.468241
-5.4442544 30.133984 1.775648 8 0 0 0 21.87075
-12.710367 -12.108171 2.3202636 15 0 0 0 87.559685
-5.549624 -10.388148 2.149328 75 0 0 0 82.467133
-5.0395417 -10.016459 2.0477073 412 0 0 0 82.079437
-3.6694942 -10.258141 2.2576587 356 0 0 0 80.121117
-2.0809662 -10.467837 2.4724383 166 0 0 0 77.782509
-3.2905533 -9.961627 2.1750743 494 0 0 0 79.734955
-2.9029541 -9.568491 2.0744765 460 0 0 0 79.338577
-1.6940718 -9.7633543 2.2977147 405 0 0 0 77.387039
-1.4288019 -9.6291361 2.2576585 411 0 0 0 76.99292
0.46914718 -9.6016865 2.4648018 389 0 0 0 73.860527
-5.2709827 -9.0484066 2.3009799 186.5 0 0 0 83.059799
-2.6005533 -9.3939877 2.0229173 373 0 0 0 78.946365
-1.1400954 -9.2333632 2.1589742 488 0 0 0 76.602875
-0.89624113 -9.0817175 2.1182544 454 0 0 0 76.216866
0.7846899 -9.1716671 2.3615975 376.5 0 0 0 73.276978
-5.7088737 -8.5515051 2.3848329 169 0 0 0 84.037025
-5.2784996 -8.810648 2.1310458 263 0 0 0 83.253937
-0.66264933 -8.9529161 2.0842204 489 0 0 0 75.822739
-0.32582244 -8.7406731 2.0314994 458 0 0 0 75.233749
1.200189 -8.8714342 2.2974463 454.5 0 0 0 72.498253
1.7485836 -8.8145332 2.3064263 405.5 0 0 0 71.519699
2.176368 -8.7094526 2.3033476 281 0 0 0 70.732285
-5.2207031 -8.2496204 2.1447415 213.5 0 0 0 83.646065
2.4349396 -8.0486898 2.1595166 483 0 0 0 69.959106
2.7739429 -8.0807056 2.1936848 530.5 0 0 0 69.367096
3.2361574 -8.1083727 2.2408652 573.5 0 0 0 68.58812
3.6890864 -8.0653496 2.2758946 473 0 0 0 67.807739
4.1949844 -8.0957546 2.338932 561.5 0 0 0 67.02092
4.8077807 -8.2536001 2.4486573 468 0 0 0 66.232117
-5.771338 -7.7871747 2.1720614 233.66667 0 0 0 84.815666
1.5735939 -7.94274 2.0807683 246 0 0 0 71.517159
2.1013103 -7.6194768 2.1294727 514.5 0 0 0 70.340721
4.2593441 -7.531383 2.008738 514 0 0 0 66.426163
4.6448121 -7.5479069 2.0569093 545.5 0 0 0 65.84642
5.0409184 -7.5532589 2.1066251 454 0 0 0 65.253517
5.9108257 -7.5793319 2.2278228 330 0 0 0 64.081383
6.2150207 -7.5771089 2.270807 411 0 0 0 63.695152
6.7247319 -7.6063442 2.3515024 509.5 0 0 0 63.099892
7.2275267 -7.5914354 2.4264052 452 0 0 0 62.51535
7.5481162 -7.5470576 2.4702542 432 0 0 0 62.117569
-6.7752929 -7.3007617 2.1913185 353 0 0 0 86.580017
-6.2442522 -7.4261804 2.2527966 242 0 0 0 85.800385
-5.5467191 -7.4853554 2.1640604 194 0 0 0 84.817009
0.72918355 -7.4646974 2.4853077 145 0 0 0 73.084793
1.5675963 -7.0159197 2.3834567 37 0 0 0 71.132835
2.1064472 -7.2915516 2.3272624 164.5 0 0 0 70.149918
2.7047892 -7.0306993 2.3100297 57 0 0 0 68.783607
0.49664408 -6.7919693 2.4261017 93 0 0 0 73.469162
7.1627545 -6.822753 2.049726 486 0 0 0 61.733727
7.7462502 -6.8473997 2.1408243 536.5 0 0 0 61.140549
8.2617626 -6.7791886 2.2115698 600 0 0 0 60.551231
8.6605263 -6.7561564 2.2720227 423 0 0 0 60.166821
9.1079521 -6.7506604 2.3438323 524 0 0 0 59.773602
9.7249861 -6.6643877 2.4360824 415.5 0 0 0 59.185753
0.93642861 -6.3533735 2.2896245 236 0 0 0 72.300171
9.5032349 -6.0116758 2.0481491 562 0 0 0 58.602879
9.8969383 -5.9242687 2.0999141 464 0 0 0 58.212841
10.376852 -5.8688669 2.1690977 398 0 0 0 57.81464
11.062319 -5.9009285 2.2793958 339 0 0 0 57.424889
11.535286 -5.7925606 2.3456705 325 0 0 0 57.038486
14.228973 -5.06707 2.364295 233 0 0 0 55.092819
3.0990644 -4.3051863 2.0291986 253.5 0 0 0 64.671646
15.370486 -4.2240982 2.0981662 236 0 0 0 53.923302
16.531826 -4.1075006 2.2396472 197 0 0 0 53.528809
18.063049 -4.017612 2.4297163 136 0 0 0 53.13448
8.6551924 -3.5761628 2.2882004 428.5 0 0 0 55.860561
8.7106237 -3.3503039 2.165967 268 0 0 0 55.474033
14.445729 -2.8437998 2.3060319 111 0 0 0 52.746887
17.655504 -2.5783765 2.3443897 177 0 0 0 51.967442
22.15789 -2.6826646 2.3735039 110 0 0 0 51.57402
-20.513214 0.3800002 2.2029705 8 0 0 0 0
-20.440409 0.87861735 2.1974027 44 0 0 0 0.39618999
-24.696413 1.0640092 2.0536001 17 0 0 0 0.39618999
-22.456682 1.5169895 2.4161975 58 0 0 0 0.78486997
-21.2803 1.9604305 2.295567 43 0 0 0 1.16889
-26.339861 2.4305692 2.1973178 15 0 0 0 1.16889
-6.2001801 3.3066463 2.2229171 327 0 0 0 7.6091852
-6.1820512 3.5941093 2.0022507 173 0 0 0 8.19697
-6.033371 4.1249466 2.1370239 129.5 0 0 0 9.3660097
-5.8476601 4.3203692 2.0382533 220 0 0 0 9.9539452
-5.3568635 4.9485717 2.224184 91 0 0 0 11.70842
-12.601966 5.4536943 2.1587572 154 0 0 0 6.24191
-5.0763788 5.1699991 2.2110071 120 0 0 0 12.48468
-9.4506817 5.846426 2.2959001 66 0 0 0 8.5929403
-4.6798534 5.9554234 2.3136749 575 0 0 0 14.252911
-1.6766511 5.9088173 2.3377759 287.5 0 0 0 20.508135
-1.4596668 5.9792609 2.3432963 384 0 0 0 21.088459
28.836668 5.8310027 2.4026899 19 0 0 0 46.49427
-12.248929 6.026772 2.482549 268 0 0 0 7.0300498
-8.0790558 6.4733963 2.3929296 246 0 0 0 10.5413
-4.6735325 6.104444 2.1612909 420 0 0 0 14.44871
-4.108211 6.2704449 2.2467673 274.75 0 0 0 15.62581
-3.6942475 6.4656892 2.4612513 277 0 0 0 16.598169
-3.1010306 6.2822647 2.1429746 294 0 0 0 17.578279
-2.8692899 6.3919907 2.318423 354.5 0 0 0 18.158751
-2.264179 6.304636 2.4087954 336.16666 0 0 0 19.40019
-1.601512 6.2441826 2.2958939 377.5 0 0 0 20.895535
-1.322523 6.3297257 2.4089921 321.66666 0 0 0 21.610098
-0.7502805 6.4775 2.1651568 49 0 0 0 23.040409
-6.2633524 6.729589 2.1287589 269 0 0 0 12.87562
-5.7586155 6.8240051 2.122829 421.75 0 0 0 13.665367
-4.0989666 6.7940369 2.2321899 358.5 0 0 0 16.20837
-3.7847157 6.822628 2.3382154 368 0 0 0 16.791975
-3.4381256 6.5664878 2.4506052 375 0 0 0 17.17889
-2.8696284 6.617713 2.2977543 374 0 0 0 18.351179
-2.2106173 6.8808966 2.3492918 224 0 0 0 19.923349
-1.7972394 6.6925526 2.3542817 233.66667 0 0 0 20.701576
-1.4488428 6.6940637 2.2712598 344 0 0 0 21.479771
-0.68727839 6.6642833 2.0588136 158 0 0 0 23.232555
-0.44838771 6.8183632 2.0995932 271 0 0 0 23.81456
5.2969165 6.9254017 2.0290518 657 0 0 0 35.158821
5.5669742 6.9155655 2.0653629 588 0 0 0 35.554768
-5.6293364 7.0136633 2.3032112 549 0 0 0 14.05216
-5.3587089 7.2020273 2.0809236 335.5 0 0 0 14.646985
-3.7901914 7.1125846 2.1350024 371.66666 0 0 0 17.05015
-3.2287769 7.4744086 2.2924535 170 0 0 0 18.351179
-2.3474898 7.3243256 2.1681912 187 0 0 0 19.924009
-1.8365335 7.2161112 2.2832594 241 0 0 0 20.895535
-1.3570826 7.1313009 2.2272797 260 0 0 0 21.87075
4.3536644 7.4432054 2.2191615 704 0 0 0 33.197239
4.6024804 7.3043842 2.1510286 578.66669 0 0 0 33.726719
5.2331543 7.2030668 2.2374315 547.5 0 0 0 34.766457
-3.4988568 7.5882244 2.3518038 168 0 0 0 17.961861
-1.7858284 7.8550639 2.0715883 235.5 0 0 0 21.284115
-1.4930431 7.8996105 2.0677006 14 0 0 0 21.87075
3.4346936 7.9953518 2.2385614 178 0 0 0 31.247509
4.3233123 7.6784844 2.1228588 406.33334 0 0 0 32.941162
-2.8622496 8.2645674 2.4622056 284 0 0 0 19.531719
-2.1754189 8.1770716 2.383724 243 0 0 0 20.70261
-1.8523328 8.1586189 2.3577611 253.5 0 0 0 21.284115
2.4468479 8.43503 2.2605612 276 0 0 0 29.2889
2.6887519 8.244132 2.232317 227 0 0 0 29.812326
3.132354 8.2042055 2.3312547 275 0 0 0 30.596872
3.8904257 8.4617567 2.3933153 242 0 0 0 31.643259
4.3229728 8.2964745 2.1739111 355 0 0 0 32.42318
8.287138 8.2049026 2.1265464 599 0 0 0 37.316093
8.7071686 8.0034533 2.1558647 583 0 0 0 37.90736
20.974024 8.1835327 2.3958836 12 0 0 0 43.759033
-4.5308318 8.7138329 2.0379519 305 0 0 0 17.17889
2.0491934 8.6343164 2.0631061 73 0 0 0 28.505579
2.6034408 8.9588757 2.3967125 257 0 0 0 29.2889
4.7260914 8.5395107 2.0269849 379 0 0 0 32.813122
8.1897058 8.7302952 2.1817143 463 0 0 0 36.73177
11.350701 8.9681015 2.2691536 352 0 0 0 39.078419
11.70745 8.7891827 2.2958598 330 0 0 0 39.460121
14.677293 8.8982229 2.259095 62 0 0 0 41.026367
2.2888465 9.1200104 2.4152544 168.5 0 0 0 28.699419
11.131725 9.2501192 2.2703235 416 0 0 0 38.677994
12.403296 9.309268 2.0451078 284 0 0 0 39.460121
14.229649 9.1145592 2.2248151 229 0 0 0 40.638561
14.065882 9.5065422 2.2350569 201 0 0 0 40.243462
14.251398 10.151311 2.3024061 125 0 0 0 39.848911
22.451548 10.058632 2.0162206 82 0 0 0 42.980328
6.4174399 10.913999 2.306061 392 0 0 0 33.197239
6.7061772 10.78641 2.3131881 325 0 0 0 33.599018
19.705921 10.642308 2.3840451 59 0 0 0 41.802238
22.340183 10.676683 2.0290961 37 0 0 0 42.590408
-1.8178583 11.339094 2.0983851 299 0 0 0 22.252541
6.2851348 11.316317 2.3569725 246 0 0 0 32.813122
8.0540142 11.033656 2.1459196 299 0 0 0 34.76833
9.3887644 11.039339 2.2738063 229 0 0 0 35.9491
9.9201279 11.095448 2.3340633 213 0 0 0 36.338619
6.1743736 11.789768 2.2568967 301 0 0 0 32.42318
6.0292683 12.234354 2.3122826 313.5 0 0 0 32.030209
5.8867731 12.723564 2.2024329 185 0 0 0 31.643259
17.742434 12.623464 2.3195004 20 0 0 0 39.848911
18.800268 12.688681 2.4143996 92 0 0 0 40.243462
5.7262511 13.218091 2.2621927 262 0 0 0 31.247509
2.6286533 13.898565 2.2233465 10 0 0 0 27.72772
5.5809035 13.800012 2.3366446 231 0 0 0 30.854139
5.4005098 14.356666 2.4068518 203 0 0 0 30.468241
5.2065806 14.942373 2.4819789 201 0 0 0 30.06712
-0.89280558 15.148284 2.0118773 25 0 0 0 23.81456
-5.2612882 -11.619008 2.7416503 140.66667 0 0 0 81.425819
-4.881691 -11.792565 2.639627 136 0 0 0 80.905289
-2.7301004 -10.908687 2.6036205 77 0 0 0 78.560112
-2.4468055 -10.905457 2.7253423 360 0 0 0 78.162392
-0.1311074 -10.57407 2.7087078 186.5 0 0 0 74.844131
0.24703777 -10.127199 2.5957823 364 0 0 0 74.259651
1.8800066 -10.11627 2.8910799 219 0 0 0 71.711868
2.3409171 -9.8701134 2.8504994 230.5 0 0 0 70.932556
2.9122422 -9.6120405 2.8222611 339 0 0 0 69.959106
3.3273916 -9.6821098 2.8763943 300.5 0 0 0 69.367096
3.8616309 -9.6636715 2.9231782 338 0 0 0 68.58812
4.2160373 -9.518362 2.9239094 320 0 0 0 68.00444
4.4600801 -9.4366188 2.9314401 328 0 0 0 67.611046
4.7739811 -9.4895239 2.9829028 283 0 0 0 67.217049
5.0338678 -9.422286 2.9995866 300 0 0 0 66.824799
-5.4204888 -8.8071375 2.6520762 116.5 0 0 0 83.449997
-6.3681526 -8.1675835 2.6561961 246 0 0 0 85.206123
-5.7041311 -8.3235931 2.5886774 286.5 0 0 0 84.230438
5.2565732 -8.307683 2.519115 485 0 0 0 65.65477
5.53689 -8.2921371 2.5544777 369 0 0 0 65.253517
6.6849489 -8.3516445 2.7384815 436.5 0 0 0 63.888268
7.2887282 -8.4485655 2.8546882 280 0 0 0 63.297993
7.775197 -8.3652468 2.921278 393 0 0 0 62.708572
-6.4957542 -7.9224625 2.6279695 213 0 0 0 85.601761
-5.8296742 -7.8674183 2.5129526 221 0 0 0 84.817009
1.2384387 -7.7241535 2.7831974 63 0 0 0 72.103371
7.9628263 -7.5785999 2.5430036 385 0 0 0 61.733727
8.3321152 -7.547791 2.5999584 409 0 0 0 61.338558
9.2044325 -7.5466852 2.7505279 270 0 0 0 60.551231
0.79695421 -7.2139044 2.6734285 103.5 0 0 0 72.890564
1.2598226 -7.2748165 2.8091991 214 0 0 0 71.908661
1.8668712 -7.2261863 2.5932488 360.33334 0 0 0 70.601761
2.1926978 -7.2533979 2.6943457 133 0 0 0 69.955536
2.6472263 -7.1442299 2.5244849 78.5 0 0 0 68.977303
8.6720552 -7.4753418 2.6471267 399 0 0 0 60.942539
9.7627869 -7.41783 2.8324897 310 0 0 0 59.970211
10.125592 -7.12075 2.8591022 281 0 0 0 59.378326
1.8062444 -6.5504675 2.5872719 107 0 0 0 70.340721
10.301817 -6.8722754 2.8602552 162 0 0 0 58.993179
11.671022 -6.5980377 2.7649727 247 0 0 0 57.81464
12.459806 -6.6436973 2.9102051 199 0 0 0 57.424889
10.358728 -6.3734083 2.5119891 253.5 0 0 0 58.40786
10.797051 -6.2782702 2.8846972 175 0 0 0 58.013741
13.797549 -6.0947633 2.7348139 154 0 0 0 56.253632
12.579588 -5.9323993 2.5245814 314 0 0 0 56.649021
13.274938 -5.8646011 2.9902859 166 0 0 0 56.253632
15.65414 -5.1426735 2.575819 232 0 0 0 54.694046
16.767147 -5.0537362 2.7352858 227 0 0 0 54.303673
18.309799 -5.0295138 2.9626446 133 0 0 0 53.923302
8.5629606 -3.53737 2.7230051 379.5 0 0 0 55.860561
20.707836 -3.5453727 2.7535942 104 0 0 0 52.355511
14.412951 -2.8374281 2.6651828 73 0 0 0 52.746887
17.569407 -2.5659277 2.7732744 141 0 0 0 51.967442
17.738443 -2.1459463 2.7906129 128 0 0 0 51.57402
24.310448 -2.3372478 2.5936639 82 0 0 0 51.180458
27.887728 -1.9892988 2.9638414 52 0 0 0 50.78933
-24.409077 -0.58053356 2.607517 50 0 0 0 99.270439
-24.928717 0.020124445 2.6611531 16 0 0 0 99.659088
-20.160204 0.36943796 2.6582618 20 0 0 0 0
-19.952209 0.85354537 2.633502 17 0 0 0 0.39618999
-21.638906 1.4571151 2.8592865 16 0 0 0 0.78486997
-21.823008 2.0065794 2.8896625 31 0 0 0 1.16889
-12.21575 6.3862123 2.506994 180 0 0 0 7.4138198
-11.600792 6.2437382 2.7188201 239.5 0 0 0 7.6091852
-3.8446202 6.3577199 2.6345606 260.75 0 0 0 16.20837
-3.168071 6.2843032 2.6126645 335.66666 0 0 0 17.44515
-2.7491462 6.3293829 2.5779614 257.75 0 0 0 18.353409
-2.0752311 6.43539 2.5706122 155 0 0 0 19.924009
-11.449731 6.7149453 2.7396305 273 0 0 0 8.19697
-4.7665186 6.9149356 2.7718914 363 0 0 0 15.23351
-3.6535804 6.5778117 2.6702051 233 0 0 0 16.792669
-3.4564934 6.5970592 2.643769 246 0 0 0 17.17889
-2.7703846 6.8449731 2.623867 289 0 0 0 18.74942
-11.01668 7.205965 2.7179296 248 0 0 0 8.9827099
-10.749504 7.026752 2.9639859 161 0 0 0 8.9827099
-7.9227958 7.3676276 2.7652814 154 0 0 0 11.70842
-5.257184 7.2469673 2.7335 176 0 0 0 14.84031
-4.8715363 7.2593904 2.6704991 396.5 0 0 0 15.43092
-1.188013 7.2014804 2.6568282 218.66667 0 0 0 22.254267
-0.99472523 7.1065764 2.7305832 268 0 0 0 22.639509
-6.7523751 7.6327815 2.7318892 238.5 0 0 0 13.27213
-1.4473139 7.6461124 2.5778515 164 0 0 0 21.87075
3.3975477 7.9088478 2.85449 281 0 0 0 31.247509
3.6236095 7.8901701 2.8791525 202 0 0 0 31.643259
4.6213679 7.6783476 2.5282726 454 0 0 0 33.398129
5.023417 7.6819615 2.5884376 294 0 0 0 33.982128
-2.3995812 8.201088 2.6161146 195 0 0 0 20.31366
3.2379713 8.370575 2.7497492 245 0 0 0 30.66119
3.7257767 8.377079 2.5849805 314 0 0 0 31.445385
4.0400939 8.2458973 2.5889301 293 0 0 0 32.030209
8.8026295 8.4990463 2.5309658 113 0 0 0 37.513248
-3.5815554 8.920434 2.9388452 164 0 0 0 18.74942
-1.8853877 8.829586 2.7639174 150 0 0 0 21.479771
-1.3447919 8.9695568 2.7772801 133.5 0 0 0 22.446026
2.3208263 8.796339 2.5640318 303 0 0 0 28.893259
2.64504 8.7020378 2.7872763 181 0 0 0 29.486916
-3.1300235 9.0579042 2.9307497 133 0 0 0 19.531719
1.9724324 9.3012333 2.6778488 137 0 0 0 28.12097
2.1538858 9.0573406 2.6229413 404 0 0 0 28.505579
14.642412 9.3775187 2.7193391 237 0 0 0 40.638561
15.07023 9.135169 2.7554832 211 0 0 0 41.026367
-3.5598285 9.5563469 2.8670275 92 0 0 0 19.137899
2.0298331 9.5632238 2.5094066 27 0 0 0 28.12097
14.411164 9.7385645 2.7202091 266 0 0 0 40.243462
19.344677 9.8443947 2.8463261 88 0 0 0 42.201221
18.744576 10.128455 2.7947409 77 0 0 0 41.802238
23.266918 10.422641 2.708298 51 0 0 0 42.980328
18.717793 10.717535 2.8288591 51 0 0 0 41.411591
8.7609062 11.107252 2.5717986 384 0 0 0 35.356796
9.3708286 11.017643 2.8065715 203.5 0 0 0 35.9491
9.9179544 11.092544 2.7025883 187 0 0 0 36.338619
22.572329 11.477685 2.6905394 31 0 0 0 42.201221
23.47014 11.214948 2.7625999 61 0 0 0 42.590408
6.1292515 11.703441 2.730433 331 0 0 0 32.42318
5.8624125 12.67063 2.5394738 276 0 0 0 31.643259
5.703382 13.164949 2.6088264 264 0 0 0 31.247509
20.591913 13.168619 2.5988083 16 0 0 0 40.638561
5.5560188 13.738154 2.693563 226 0 0 0 30.854139
5.3744168 14.286987 2.7735658 218 0 0 0 30.468241
5.1848559 14.879512 2.8620732 215 0 0 0 30.06712
4.9883261 15.529102 2.9615653 199 0 0 0 29.684931
5.0205054 15.629376 2.5738006 204 0 0 0 29.684931
4.8170223 16.360443 2.6728456 160 0 0 0 29.2889
4.6070766 17.187851 2.7875288 145 0 0 0 28.893259
4.3583841 18.010571 2.9016509 135 0 0 0 28.505579
-0.28180245 -11.516232 3.2336206 49 0 0 0 75.039749
1.1343464 -11.516118 3.2475564 43 0 0 0 73.084793
-2.8156512 -11.252498 3.2569168 207 0 0 0 78.560112
-2.2121689 -11.142982 3.4692497 298 0 0 0 77.782509
0.00025412362 -11.195648 3.1434197 87 0 0 0 74.648521
0.73791981 -11.238568 3.2549098 95 0 0 0 73.599617
-2.7503498 -10.999028 3.4626029 205 0 0 0 78.560112
-2.4613898 -10.975978 3.2974811 194.5 0 0 0 78.162392
0.26971304 -10.957302 3.2128229 140 0 0 0 74.259651
0.54119605 -10.983818 3.3581877 201 0 0 0 73.860527
-4.0322256 -10.468434 3.4270329 49 0 0 0 80.514442
3.4562843 -10.461417 3.3635502 202 0 0 0 69.563202
-29.649393 -9.7836342 3.3289876 23 0 0 0 94.599792
6.2624698 -9.6228905 3.2216394 260.5 0 0 0 65.454147
7.7383194 -9.662571 3.4710486 241 0 0 0 63.888268
5.3262095 -9.4057331 3.0347228 352 0 0 0 66.426163
5.6456108 -9.42169 3.0832305 341 0 0 0 66.038078
9.9022474 -8.5315008 3.3379405 263 0 0 0 60.942539
8.2996674 -8.295167 3.000349 357 0 0 0 62.117569
8.8184996 -8.3895073 3.1108525 341 0 0 0 61.733727
9.3640747 -8.4787436 3.2272182 258 0 0 0 61.338558
10.290773 -8.2236214 3.3640828 182.5 0 0 0 60.359024
2.9591935 -7.6817293 3.1280608 56 0 0 0 68.783607
10.197741 -7.5523272 3.2418649 153 0 0 0 59.773602
11.277981 -7.1270723 3.0785096 276 0 0 0 58.602879
12.523885 -6.6749244 3.2724712 65 0 0 0 57.424889
13.230401 -6.640799 3.0492413 207 0 0 0 57.038486
10.937036 -6.1819005 3.210108 144 0 0 0 57.81464
12.821319 -6.4332709 3.3074908 64 0 0 0 57.038486
13.191238 -6.2199016 3.0047135 172 0 0 0 56.649021
17.476305 -6.2199602 3.3547628 97 0 0 0 55.092819
11.069602 -5.9022546 3.2056415 96 0 0 0 57.424889
12.714622 -5.9931402 3.2418706 183 0 0 0 56.649021
13.075204 -5.7739058 3.2960033 157 0 0 0 56.253632
20.316219 -5.0451736 3.2623031 135 0 0 0 53.528809
8.4938726 -3.5063684 3.2681699 303 0 0 0 55.860561
8.5291004 -3.5243261 3.0552416 393 0 0 0 55.860561
8.4444656 -3.4860768 3.4737535 278 0 0 0 55.860561
14.330853 -2.8201089 3.1889477 59 0 0 0 52.746887
17.558439 -2.5644186 3.2115226 156 0 0 0 51.967442
14.509668 -2.486963 3.0338387 223 0 0 0 52.355511
-22.938839 0.014708669 3.0158708 28 0 0 0 99.659088
-22.046659 0.40417954 3.4483824 7 0 0 0 0
42.873222 0.11295579 3.482976 8 0 0 0 49.620689
-22.292681 1.5010743 3.4952779 23 0 0 0 0.78486997
39.553478 4.9955401 3.2421894 7 0 0 0 47.668861
-12.90053 6.3473167 3.3148639 99 0 0 0 7.0300498
-12.107825 6.3262591 3.4836237 233 0 0 0 7.4138198
-11.392201 6.3085289 3.0040288 217 0 0 0 7.8045502
-13.486626 6.641274 3.1000628 220 0 0 0 7.0300498
-12.837437 6.7111483 3.3402572 245 0 0 0 7.4138198
-11.744251 6.694397 3.4482956 222 0 0 0 8.0007601
-10.561302 6.9024234 3.2197454 189 0 0 0 8.9827099
-5.0109978 6.8990588 3.2286377 248 0 0 0 14.84031
-4.6070423 6.8543406 3.1286225 219 0 0 0 15.43092
-12.132203 7.1161494 3.2444077 121 0 0 0 8.19697
-9.164607 7.3546085 3.2910736 72 0 0 0 10.5413
-8.9546041 7.1815672 3.4954023 194 0 0 0 10.5413
-8.4581366 7.4898477 3.4414833 132 0 0 0 11.31419
-6.6611152 7.3393641 3.2644961 134.5 0 0 0 13.073875
-6.1228399 7.4434166 3.4123909 165.5 0 0 0 13.860374
-4.8528113 7.0375452 3.0294042 144 0 0 0 15.23351
-4.2664995 7.281004 3.199156 247 0 0 0 16.40287
3.3942037 7.4059553 3.1041362 92 0 0 0 31.643259
4.2234688 7.2277036 3.1896183 73 0 0 0 33.197239
-12.099345 7.5010672 3.2841191 41 0 0 0 8.5929403
-11.001751 7.5847158 3.0841551 146 0 0 0 9.3660097
-8.7210159 7.5366611 3.2293649 181 0 0 0 11.122015
-7.8116007 7.6271443 3.3270116 218 0 0 0 12.10106
-6.0195723 7.5088105 3.1729214 261 0 0 0 14.05216
-5.6887193 7.7182717 3.3195906 204.66667 0 0 0 14.711427
2.843483 7.8466153 3.1090147 142.33333 0 0 0 30.334534
3.1414747 7.5824623 3.1267929 199 0 0 0 31.050823
3.8778465 7.9252129 3.3588192 183 0 0 0 32.030209
4.1045265 7.6606941 3.3097606 150.5 0 0 0 32.618149
4.8574905 7.848794 3.3987937 148.5 0 0 0 33.599018
5.2141414 7.5629416 3.4966562 222 0 0 0 34.370361
-10.572778 8.0786467 3.3966286 201 0 0 0 10.15241
-6.3876233 8.3925896 3.4769967 101 0 0 0 14.45366
2.6459112 8.3518858 3.3337364 86 0 0 0 29.684931
3.377831 8.4255009 3.11923 273.5 0 0 0 30.854139
4.6917553 8.243906 3.3758154 211 0 0 0 33.00518
5.0587988 8.1639118 3.1814899 143 0 0 0 33.599018
-7.1664977 8.5198622 3.3946805 186 0 0 0 13.66859
-1.4595566 8.9734125 3.2303884 187 0 0 0 22.252541
2.1189187 8.6149378 3.2286904 150.66667 0 0 0 28.634806
2.7535088 8.68118 3.2412994 189.33333 0 0 0 29.680319
3.0637081 8.8774042 3.1101663 212 0 0 0 30.06712
3.84988 8.6558075 3.3707371 157.5 0 0 0 31.445385
4.1801333 8.5325069 3.3806763 111 0 0 0 32.030209
-7.5795808 9.0209074 3.3038454 191 0 0 0 13.66859
-3.4659474 9.2932644 3.0321562 142 0 0 0 19.137899
-1.4840223 9.152956 3.0673845 200 0 0 0 22.252541
19.264965 10.408402 3.4139936 20 0 0 0 41.802238
-3.1833162 10.987996 3.2143567 101 0 0 0 20.31366
22.013315 10.524767 3.1947291 67 0 0 0 42.590408
9.3627176 11.011313 3.3372777 162 0 0 0 35.9491
9.9062986 11.080805 3.2482612 128 0 0 0 36.338619
10.751092 11.439109 3.2359798 144 0 0 0 36.73177
11.251735 11.39391 3.2999458 132 0 0 0 37.118938
6.0713968 11.597618 3.3487165 294 0 0 0 32.42318
14.428124 11.97388 3.3944945 95 0 0 0 38.677994
28.241684 11.820595 3.2445261 31 0 0 0 43.366169
5.9280944 12.033834 3.4306712 244 0 0 0 32.030209
13.991591 12.206744 3.3620598 10 0 0 0 38.288399
17.629332 12.546951 3.3746109 12 0 0 0 39.848911
4.7882948 16.262596 3.0769894 114 0 0 0 29.2889
4.5655165 17.033272 3.1995232 151 0 0 0 28.893259
4.3265405 17.878893 3.3362377 112 0 0 0 28.505579
-14.612457 -13.920021 3.6609051 26 0 0 0 87.559685
-14.640444 -13.276443 3.5858464 53 0 0 0 87.942787
-12.759694 -12.76721 3.7216825 18 0 0 0 87.177422
-13.239175 -12.005816 3.6853685 36 0 0 0 87.942787
-12.960525 -12.34644 3.6910174 18 0 0 0 87.559685
-5.7941027 -12.264942 3.8047328 66 0 0 0 81.694603
-13.750735 -11.867599 3.7449775 6 0 0 0 88.334679
-10.252803 -11.323282 3.9029167 71 0 0 0 86.38472
-3.2993021 -11.391003 3.7682381 223 0 0 0 79.142471
-2.217833 -11.161852 3.7563961 158 0 0 0 77.782509
5.7887564 -11.148157 3.8303301 83.5 0 0 0 67.02092
-10.974082 -10.984414 3.5858312 27 0 0 0 87.177422
-4.0833473 -10.596079 3.74927 390 0 0 0 80.514442
-3.7283583 -10.84993 3.7876878 233 0 0 0 79.92804
-2.6971283 -10.785791 3.8062012 204.5 0 0 0 78.560112
-2.4582574 -10.967155 3.8479712 215 0 0 0 78.162392
3.6907282 -10.722973 3.5998583 137 0 0 0 69.367096
6.3542466 -10.894488 3.8457007 172 0 0 0 66.232117
-5.0423131 -10.035785 3.9841046 254 0 0 0 82.079437
-4.3270931 -10.456689 3.736618 140 0 0 0 80.905289
-3.9860692 -10.354084 3.9355483 30 0 0 0 80.514442
3.1642129 -10.423458 3.8621902 111 0 0 0 69.959106
-10.955783 -9.9387865 3.780756 7 0 0 0 87.942787
8.2894812 -9.6035252 3.5560431 222 0 0 0 63.297993
8.8966675 -9.8074389 3.710108 197 0 0 0 62.901791
9.3168793 -9.7760429 3.7831535 224 0 0 0 62.51535
9.76404 -9.7528906 3.8652775 225 0 0 0 62.117569
10.22957 -9.7267876 3.9527464 227 0 0 0 61.733727
-4.3506474 -9.2146339 3.6173394 223 0 0 0 81.694603
-4.8662491 -8.6044493 3.7522376 149 0 0 0 82.865662
-4.3286805 -8.6138153 3.6597457 105 0 0 0 82.079437
-4.9835148 -8.3281536 3.6846213 122 0 0 0 83.253937
10.077688 -8.2582855 3.8127298 97.5 0 0 0 60.551231
10.167494 -7.9224339 3.7718425 99.5 0 0 0 60.166821
10.532876 -7.7995863 3.6729171 82 0 0 0 59.773602
11.201301 -7.7387371 3.699693 94.666664 0 0 0 59.249943
11.71323 -7.8103752 3.5925245 56 0 0 0 58.993179
12.105027 -7.6479025 3.8304057 68 0 0 0 58.602879
12.201803 -7.2955837 3.8041558 67 0 0 0 58.212841
10.919412 -6.1719456 3.516999 86 0 0 0 57.81464
12.345829 -6.1954179 3.5259354 74 0 0 0 57.038486
12.653934 -6.1548882 3.7655563 81 0 0 0 56.843754
19.606493 -6.4374537 3.7277651 82 0 0 0 54.694046
11.233096 -5.9890957 3.5690398 142 0 0 0 57.424889
22.220453 -4.93994 3.5441549 95 0 0 0 53.13448
28.656952 -3.4626751 3.7692192 52 0 0 0 51.57402
17.507942 -2.5571525 3.6384459 144 0 0 0 51.967442
-22.693745 0.97166932 3.5525422 16 0 0 0 0.39618999
-21.080132 1.9369736 3.833981 39 0 0 0 1.16889
-12.57583 6.1859598 3.7459726 220.5 0 0 0 7.0300498
-11.511939 6.3752933 3.6810827 171 0 0 0 7.8045502
-14.084031 6.5112162 3.9549298 185 0 0 0 6.6298299
-10.715871 6.6354451 3.5269151 199 0 0 0 8.5929403
-9.6352797 6.9876037 3.915581 195 0 0 0 9.7554798
-11.30047 7.3904409 3.7786133 85 0 0 0 8.9827099
-9.3509302 7.1330175 3.580682 233 0 0 0 10.15241
-8.83675 7.4497938 3.5200899 216 0 0 0 10.92984
-8.4627953 7.1333094 3.6430633 132 0 0 0 10.92984
-6.2809019 7.2662954 3.6337175 186 0 0 0 13.47036
-5.8330889 7.2673278 3.5264628 187 0 0 0 14.05216
-11.521294 7.9463658 3.5713682 130 0 0 0 9.3660097
-8.556035 7.9643073 3.8485026 144 0 0 0 11.70842
-7.5959039 7.78544 3.8476863 145 0 0 0 12.48468
-7.2666583 7.6931934 3.9147503 210 0 0 0 12.745307
-5.8200169 7.6299629 3.6320331 123 0 0 0 14.45366
5.116662 7.8268838 3.5584347 179 0 0 0 33.982128
-8.1604691 8.1747932 3.8041761 186 0 0 0 12.29287
-7.8029265 8.4109764 3.7791986 245 0 0 0 12.87562
-7.2606626 8.2161589 3.6126039 163 0 0 0 13.27213
-5.4596844 8.3727064 3.5412254 146 0 0 0 15.62833
32.530716 8.2607851 3.5523231 30 0 0 0 45.71616
-7.6773472 8.6910753 3.5350056 141 0 0 0 13.27213
-7.242805 8.6150131 3.7086887 96 0 0 0 13.66859
18.872408 10.196546 3.877151 133 0 0 0 41.802238
6.2949185 10.713203 3.7960136 264 0 0 0 33.197239
6.6712775 10.736134 3.8608348 269 0 0 0 33.599018
7.0974364 10.814795 3.9502406 204 0 0 0 33.982128
7.5472941 10.898097 3.7204754 228 0 0 0 34.370361
8.0051966 10.968582 3.8100703 156 0 0 0 34.76833
9.3477612 10.993348 3.6869836 176 0 0 0 35.9491
18.830257 10.780921 3.9214661 99 0 0 0 41.411591
22.216108 10.62107 3.8340909 55 0 0 0 42.590408
27.53841 10.743425 3.8616953 37 0 0 0 43.759033
6.1096616 11.225724 3.7989366 292 0 0 0 32.68314
8.4904947 11.048165 3.908484 179 0 0 0 35.158821
8.9074917 11.016161 3.7965503 229.5 0 0 0 35.554768
9.9611835 11.143023 3.8172765 21 0 0 0 36.338619
10.756344 11.447935 3.815855 8.5 0 0 0 36.73177
11.252842 11.398528 3.6935947 109 0 0 0 37.118938
21.940891 11.161368 3.8330033 103 0 0 0 42.201221
6.0295367 11.51782 3.6494308 249 0 0 0 32.42318
12.167562 11.728539 3.8947585 9 0 0 0 37.513248
12.658306 11.610777 3.7468164 263.5 0 0 0 37.90736
13.698894 11.95204 3.7407718 58 0 0 0 38.288399
14.414154 11.961874 3.8529081 91 0 0 0 38.677994
15.572915 12.285851 3.5887835 21 0 0 0 39.078419
17.457638 12.424698 3.8734152 12 0 0 0 39.848911
3.4551609 20.86445 3.8316126 36 0 0 0 27.333839
-13.727107 -13.081218 4.3719306 53 0 0 0 87.559685
-13.965206 -12.668573 4.3475695 20 0 0 0 87.942787
-12.026183 -12.643643 4.0257649 90 0 0 0 86.775322
-12.304388 -12.31594 4.4438081 14 0 0 0 87.177422
-3.3734624 -12.206642 4.1773548 65 0 0 0 78.946365
-12.241405 -11.665489 4.3172722 49 0 0 0 87.559685
-10.580346 -11.685063 4.4179673 73 0 0 0 86.38472
-6.6390882 -11.732676 4.4462752 38 0 0 0 82.865662
-6.3157511 -11.829299 4.4228392 36 0 0 0 82.467133
-11.192419 -11.202952 4.4383197 38 0 0 0 87.177422
-5.6363907 -11.209738 4.1400676 69 0 0 0 82.079437
-5.3159528 -11.251916 4.106349 188 0 0 0 81.694603
-4.944602 -11.172241 4.1807919 54 0 0 0 81.291435
-3.7652762 -11.4242 4.2640858 79 0 0 0 79.734955
-3.2358837 -11.19137 4.2717409 64 0 0 0 79.142471
-1.811391 -11.300048 4.1983824 196.5 0 0 0 77.18998
2.8713892 -11.445382 4.4701409 81 0 0 0 70.732285
