# .PCD v0.7 - Point Cloud Data file format
VERSION 0.7
FIELDS x y z intensity normal_x normal_y normal_z curvature
SIZE 4 4 4 4 4 4 4 4
TYPE F F F F F F F F
COUNT 1 1 1 1 1 1 1 1
WIDTH 937
HEIGHT 1
VIEWPOINT 0 0 0 1 0 0 0
POINTS 937
DATA ascii
-2.7925987 10.175972 0.21022406 540.25 0 0 0 20.483915
-2.2803717 10.2539 0.21151884 534.75 0 0 0 21.258394
-1.7683957 10.316416 0.21318522 557.75 0 0 0 22.039865
-1.2625928 10.412162 0.08571326 468.5 0 0 0 22.821186
-0.75066221 10.477936 0.088140473 397 0 0 0 23.60017
-0.36362243 10.485471 0.089847296 660 0 0 0 24.18634
8.1591673 10.054167 0.46476763 213 0 0 0 35.509953
-0.10575725 10.562728 0.091446966 356 0 0 0 24.580219
0.28565481 10.589471 0.22524939 430.75 0 0 0 25.156761
0.81447518 10.657557 0.22944787 425.5 0 0 0 25.943569
1.215613 10.687143 0.36709318 445 0 0 0 26.523769
-15.272612 11.228122 0.083364479 50 0 0 0 9.7547398
10.216046 11.952512 0.16470572 148 0 0 0 35.897041
-26.299088 -5.2290411 0.89134967 33 0 0 0 96.46608
15.226499 -5.0500669 0.98192936 95 0 0 0 54.653912
16.472195 -5.0156007 0.62860471 226 0 0 0 54.25872
19.097929 -5.3027763 0.71817487 88 0 0 0 53.86652
-26.184576 -4.5415273 0.88406473 18 0 0 0 96.849998
-18.722454 -4.2024231 0.64773923 132 0 0 0 96.070007
-6.3762851 -4.0319366 0.73765469 417 0 0 0 90.615952
-4.1550989 -4.3495975 0.96355116 976 0 0 0 86.713791
-3.7703612 -4.2460918 0.91147983 792.5 0 0 0 86.120461
-1.2806046 -4.3191218 0.95304114 247 0 0 0 79.073273
-0.031604845 -4.0316029 0.85932821 102 0 0 0 74.57798
0.25243846 -4.0895553 0.90801889 67.333336 0 0 0 73.471161
0.94260865 -4.0485253 0.8548553 72.666664 0 0 0 70.812096
1.2625767 -4.0995002 0.81242108 90.916664 0 0 0 69.697296
1.7497495 -4.2684188 0.91058677 218.16667 0 0 0 68.265182
2.1256032 -4.0516911 0.86685103 258.33334 0 0 0 66.768135
3.8177052 -4.1577673 0.9250567 713 0 0 0 62.656723
4.1958933 -4.1379366 0.96485949 931.5 0 0 0 61.870918
5.3489652 -4.211556 0.94105285 919 0 0 0 60.110741
5.8013859 -4.3380899 0.99919003 927 0 0 0 59.726799
6.8383484 -4.1294351 0.90156841 534 0 0 0 58.156479
7.6793594 -4.3794599 0.99381059 882 0 0 0 57.77264
8.3091125 -4.208539 0.81806642 765 0 0 0 56.982121
9.065238 -4.312079 0.87888956 186 0 0 0 56.598289
11.549759 -4.4776235 0.7665059 273 0 0 0 55.429779
12.006284 -4.316761 0.78845334 169 0 0 0 55.04026
-25.952421 -3.8479786 0.87357712 36 0 0 0 97.248894
-7.1296554 -3.7341158 0.75346184 427.33334 0 0 0 91.908989
-6.6308975 -3.8234417 0.7174564 278 0 0 0 91.271057
-6.4881191 -3.8836966 0.83128721 480 0 0 0 91.009361
-5.6028867 -3.7371213 0.74395293 418 0 0 0 90.224258
-4.1207886 -3.6631155 0.72783071 415 0 0 0 88.005363
-3.646121 -3.7202728 0.71040761 506.5 0 0 0 86.908264
-3.2016044 -3.7299004 0.67416292 221.60001 0 0 0 85.84407
-2.7550807 -3.6751215 0.701657 229.92857 0 0 0 84.76976
-2.2321072 -3.6333334 0.73024046 198.23529 0 0 0 83.297165
-1.8589882 -3.6505122 0.75133985 158.85715 0 0 0 82.0121
-0.12766549 -3.9354701 0.8396554 216 0 0 0 74.973122
0.44978982 -3.9241116 0.84441918 40 0 0 0 72.632782
0.70439553 -3.9682348 0.83728182 40.25 0 0 0 71.655655
1.3515451 -3.7395349 0.5589726 59 0 0 0 68.911667
1.711432 -3.8896883 0.65562165 114.33334 0 0 0 67.853157
2.2580318 -3.8977821 0.72164047 198.3 0 0 0 66.101334
2.889431 -3.8550429 0.73443097 172 0 0 0 64.228172
3.241008 -3.7366829 0.65691984 252.3 0 0 0 63.08622
3.7980313 -3.7527876 0.68016136 614.75 0 0 0 61.872326
4.2036777 -3.6966286 0.68841857 488.83334 0 0 0 60.96069
4.7036581 -3.6713691 0.65424907 386 0 0 0 60.035164
5.2454185 -3.7295423 0.65719593 306 0 0 0 59.338341
5.7869735 -3.7350953 0.6814518 421.39999 0 0 0 58.626842
6.64118 -3.7912767 0.67813587 514 0 0 0 57.77264
7.0474491 -3.79533 0.6079163 405 0 0 0 57.37204
7.6122389 -3.7436614 0.53629899 627 0 0 0 56.790207
-25.733963 -3.172471 0.86410481 22 0 0 0 97.634117
-4.6841335 -3.3192642 0.68636841 330 0 0 0 89.768761
-4.268991 -3.4074211 0.74358392 377.16666 0 0 0 88.851357
-3.663873 -3.4748969 0.56601095 160 0 0 0 87.492943
-3.3040142 -3.4529266 0.5375728 396.33334 0 0 0 86.711853
7.4899907 -3.1236939 0.71791565 489 0 0 0 55.81358
7.5724158 -3.3060915 0.59239632 468 0 0 0 56.075413
15.798373 -3.1543732 0.59043926 340 0 0 0 52.689007
11.311182 -2.8474245 0.72414291 311 0 0 0 53.475632
23.036226 -2.2747355 0.83230096 114 0 0 0 51.13232
52.233059 2.5774055 0.52499521 36 0 0 0 48.786621
52.445766 3.8821518 0.52721828 25 0 0 0 48.406231
-24.972588 4.3040037 0.73858929 99 0 0 0 2.3455899
1.3126562 5.1086941 0.65572512 233 0 0 0 28.86817
2.2599299 5.3126535 0.78954208 112 0 0 0 31.21072
2.7327521 5.2938986 0.66861987 26 0 0 0 32.389111
52.10231 5.1471438 0.52461785 41 0 0 0 48.010059
1.2441435 6.0014095 0.8286317 20 0 0 0 28.084431
8.7411308 6.3791103 0.66833472 160 0 0 0 39.618439
-13.869601 6.9163523 0.83358294 234 0 0 0 7.0216899
-10.516839 6.941402 0.99318796 394 0 0 0 8.9677496
1.0645857 6.7270322 0.58218348 718 0 0 0 27.314579
8.3077898 6.7214689 0.65938437 798.5 0 0 0 38.842113
12.695271 6.6303358 0.52365953 25.5 0 0 0 41.960121
14.133177 6.7249069 0.56954885 75 0 0 0 42.54266
-13.335914 7.0596442 0.81216955 144 0 0 0 7.4128199
-11.603983 7.2686152 0.73941678 365 0 0 0 8.5837498
-10.30548 7.1679306 0.98980194 383 0 0 0 9.3544998
8.2649422 7.2066708 0.67441636 775 0 0 0 38.25425
12.70272 7.2457938 0.89262372 44 0 0 0 41.366402
13.182688 7.0931754 0.91330224 20 0 0 0 41.767807
-14.093427 7.9110169 0.86813623 178 0 0 0 7.8001099
-11.460022 7.5736489 0.74179208 334 0 0 0 8.9677496
-8.3248186 7.807754 0.90471888 488 0 0 0 11.7006
-5.0446854 7.7839127 0.5178048 706 0 0 0 15.60155
-4.7047563 7.8706503 0.62630141 773.75 0 0 0 16.191435
-4.3628688 7.9443049 0.73287171 729 0 0 0 16.76774
12.605396 7.6077309 0.71770322 11 0 0 0 40.977966
20.065199 7.7729859 0.77116925 16 0 0 0 43.719921
53.225063 7.9150276 0.53721905 30 0 0 0 47.223713
-10.541012 8.1297197 0.72058839 351 0 0 0 10.13704
-8.1345921 8.0109358 0.90561742 226 0 0 0 12.08327
-7.3817763 8.2143221 0.60608625 647 0 0 0 13.06322
-4.2736411 8.0962858 0.58973759 573.33331 0 0 0 17.032587
12.623232 8.4940157 0.92570043 36 0 0 0 40.205048
19.545637 8.131546 0.75879353 64 0 0 0 43.334129
-7.9233732 8.6063671 0.92875522 467 0 0 0 12.86883
-1.17769 8.6787624 0.50782406 898 0 0 0 22.627359
-0.52728784 8.5795097 0.50224674 721 0 0 0 23.793421
19.488579 8.676774 0.76389682 85 0 0 0 42.936729
-16.75614 9.4178104 0.56041276 42 0 0 0 7.8001099
-0.56170404 9.2176304 0.87706894 423 0 0 0 23.793421
-0.10773223 9.4787169 0.78861755 459 0 0 0 24.580219
1.7466248 9.3040199 0.79787689 5 0 0 0 27.70096
7.3264236 9.2699146 0.7168597 383.5 0 0 0 35.314354
-16.345474 9.7189312 0.55471069 78 0 0 0 8.1916599
-15.664061 9.8372974 0.5403437 84 0 0 0 8.5837498
-0.34446856 9.6202841 0.79908216 462 0 0 0 24.18634
6.3703599 9.6811686 0.98950142 511 0 0 0 33.943722
6.600204 9.5106506 0.98955959 444 0 0 0 34.340073
7.1538253 9.7726078 0.73227781 304 0 0 0 34.725327
8.3650637 9.8051386 0.78033113 187 0 0 0 35.897041
9.3841505 9.9533615 0.82826734 370 0 0 0 36.68391
-15.313687 10.146348 0.53686619 97 0 0 0 8.9677496
-12.486264 10.144552 0.86602348 243 0 0 0 10.52653
-11.979021 10.225842 0.84892118 303 0 0 0 10.91865
-11.475381 10.288504 0.83186197 290 0 0 0 11.3139
-10.997673 10.353412 0.81640095 287 0 0 0 11.7006
-10.3203 10.197942 0.78591192 189 0 0 0 12.08327
-9.8833103 10.252871 0.77259833 201 0 0 0 12.47176
9.593214 10.171532 0.50243843 157 0 0 0 36.68391
-14.284963 10.50021 0.950782 89 0 0 0 9.7547398
-8.7996721 10.575996 0.74971986 233 0 0 0 13.64748
-8.2112942 10.634605 0.73418748 238 0 0 0 14.233971
-7.6890635 10.749293 0.72401512 253 0 0 0 14.82727
-7.3376346 10.80488 0.71682101 297 0 0 0 15.21241
-5.1741076 10.696982 0.66097307 92 0 0 0 17.549129
-4.6894717 10.671624 0.65074527 77.5 0 0 0 18.139919
-4.2358227 10.687253 0.64394099 73 0 0 0 18.72477
-3.9300802 10.668743 0.63834661 53 0 0 0 19.116949
-3.1834698 10.591867 0.6248554 86.5 0 0 0 20.09269
-2.6363146 10.635296 0.62183213 96.5 0 0 0 20.867365
-2.2303309 10.661252 0.620188 81 0 0 0 21.456289
-1.8295953 10.692369 0.61977625 78 0 0 0 22.039865
-0.23988794 10.901754 0.63092214 71 0 0 0 24.38328
0.1627313 10.924135 0.63408858 88 0 0 0 24.962891
10.594375 10.686598 0.90873224 214 0 0 0 37.071678
11.122858 10.677302 0.93138081 216 0 0 0 37.470928
11.850913 10.824063 0.96926785 295 0 0 0 37.861649
-5.1775866 11.044219 0.98039299 346 0 0 0 17.74507
-4.7548304 11.196215 0.97965431 86 0 0 0 18.338829
-4.3046818 11.265963 0.97358614 90 0 0 0 18.92086
-3.8161812 11.206581 0.81129086 306 0 0 0 19.50629
-3.3687003 11.223558 0.95078194 570.5 0 0 0 20.09269
-2.8215084 11.400688 0.95566165 82 0 0 0 20.867365
-2.241514 11.429768 0.95085019 419 0 0 0 21.64979
-0.95745766 11.480769 0.94731563 457 0 0 0 23.406919
0.43684742 11.029995 0.64173079 86 0 0 0 25.35063
0.85309511 11.112186 0.64977455 81.5 0 0 0 25.943569
1.278324 11.205158 0.6592347 86 0 0 0 26.523769
-1.683254 11.569098 0.9572171 149.5 0 0 0 22.4319
-1.2553639 11.617141 0.95888442 117 0 0 0 23.015011
0.32627559 11.801015 0.9769662 53.5 0 0 0 25.156761
0.76572615 11.84516 0.98439056 56 0 0 0 25.75252
1.2126654 11.899784 0.99415964 207 0 0 0 26.329195
10.751403 11.963672 0.57155865 108 0 0 0 36.298672
61.687279 13.880026 0.62297744 25 0 0 0 46.050472
86.64949 15.061199 0.85513556 15 0 0 0 46.839607
85.667709 17.068777 0.84856892 15 0 0 0 46.445042
-9.7484398 -5.5203195 1.4905387 346 0 0 0 91.401901
-5.8147388 -5.5243235 1.4720588 560 0 0 0 87.492943
-3.1607194 -5.5462599 1.4909787 749 0 0 0 82.793457
-1.6278944 -5.5288563 1.491931 666.5 0 0 0 79.073936
38.114708 -5.665422 1.3619733 36 0 0 0 51.906658
-8.9081097 -5.3363695 1.3839355 466 0 0 0 91.009361
-7.1483192 -5.2951431 1.4097019 679 0 0 0 89.434006
-5.2049088 -5.3182144 1.3681469 636 0 0 0 86.908264
-4.6580377 -5.1233854 1.2751992 947 0 0 0 86.319038
-4.1756325 -5.3295069 1.4137176 266 0 0 0 85.128761
-2.8772023 -5.3464561 1.4196695 570 0 0 0 82.407761
-2.3219354 -5.1871238 1.3314962 500.66666 0 0 0 81.226936
-1.8830487 -5.2065411 1.345726 593 0 0 0 80.053749
-1.2426749 -5.4102416 1.4389863 486.66666 0 0 0 78.09626
-0.73330832 -5.1780958 1.3590099 511.75 0 0 0 76.733582
-0.33947605 -5.0380831 1.3140962 732 0 0 0 75.566406
1.8371868 -5.2415433 1.4510919 451 0 0 0 69.105453
2.0054519 -5.2998295 1.4802077 543 0 0 0 68.717888
3.1189485 -5.1277385 1.422213 683.5 0 0 0 65.787506
5.0436964 -5.0900378 1.3427659 860 0 0 0 62.065041
5.5207424 -5.3005958 1.4319897 713 0 0 0 61.6768
6.4063139 -5.036684 1.3214213 535 0 0 0 60.110741
7.0519996 -5.2655377 1.4243871 703 0 0 0 59.726799
8.2985744 -5.0028243 1.3247621 552 0 0 0 58.156479
9.9389324 -5.0289583 1.2425939 404 0 0 0 56.982121
11.438475 -5.4345798 1.4076201 358 0 0 0 56.598289
13.561567 -5.2512035 1.2567217 193 0 0 0 55.429779
19.043514 -5.2872806 1.2012781 108 0 0 0 53.86652
-20.290194 -4.5543232 1.2076985 76 0 0 0 96.070007
-9.6015816 -4.8299026 1.1676888 466 0 0 0 92.16169
-5.1738949 -4.6785831 1.1122416 726 0 0 0 87.872963
-4.727356 -4.5967436 1.0532007 1017.5 0 0 0 87.297836
-4.1470666 -4.7899899 1.1694969 832 0 0 0 85.921883
-3.8777266 -4.7057304 1.1267462 727 0 0 0 85.528786
-2.6130641 -4.5772862 1.1077962 159 0 0 0 82.793457
-2.2769051 -4.6672711 1.0927711 276 0 0 0 81.752083
-1.7116985 -4.7278981 1.1106635 507.39999 0 0 0 80.052017
-1.2105354 -4.7252722 1.148487 353.33334 0 0 0 78.487129
-0.77735388 -4.6483631 1.1120056 371.5 0 0 0 77.124489
-0.25434062 -4.7184839 1.177389 408.5 0 0 0 75.364166
0.26092291 -4.7957988 1.2540646 356 0 0 0 73.602409
0.73850834 -4.7986794 1.2693431 308.75 0 0 0 72.046219
1.3055189 -4.8623857 1.2943542 450 0 0 0 70.28743
1.7042069 -4.6934929 1.2180861 400.5 0 0 0 68.915207
2.2392366 -4.8151307 1.2605577 431 0 0 0 67.548332
2.6748576 -4.9342213 1.3313737 556.5 0 0 0 66.572083
3.8586898 -4.877224 1.2847261 752 0 0 0 63.833237
4.2317872 -4.7194195 1.1914138 892 0 0 0 62.85384
4.5520735 -4.8295031 1.2460437 771 0 0 0 62.459606
5.3444715 -4.6508288 1.1531575 583 0 0 0 60.89901
5.8619914 -4.8497052 1.235883 660 0 0 0 60.500729
7.0893488 -4.7691188 1.1723219 766 0 0 0 58.941582
7.567317 -4.822505 1.2294739 635 0 0 0 58.547279
-3.3055909 -4.4340105 1.0249735 324 0 0 0 84.739532
-0.13958639 -4.4295001 1.0493599 294.33334 0 0 0 74.974495
0.24703757 -4.2921834 1.0211095 266 0 0 0 73.541702
0.77285492 -4.3355389 1.0468346 243.75 0 0 0 71.655655
1.1704981 -4.3570952 1.0731143 302 0 0 0 70.288139
1.904102 -4.3867922 1.0208261 354 0 0 0 67.93541
2.2133334 -4.3428125 1.0412993 329 0 0 0 66.96344
2.5905008 -4.2765431 1.0682355 350.5 0 0 0 65.787506
3.5978098 -4.4386506 1.0768335 393 0 0 0 63.634281
4.8295269 -4.4196911 1.0681269 810 0 0 0 61.287861
6.2103748 -4.4076643 1.0487922 708 0 0 0 59.338341
8.2163162 -4.4192953 1.0468369 624 0 0 0 57.37204
-6.3147497 -3.994421 1.0049917 520 0 0 0 90.615952
-5.5874362 -3.7613964 1.2412276 490 0 0 0 90.161476
-2.5667448 -3.5566981 1.0687059 167 0 0 0 84.483124
-2.3147893 -3.5690289 1.2186785 186.11765 0 0 0 83.686958
-1.8039082 -3.5426078 1.1352857 147 0 0 0 82.011711
-2.3533387 -3.4951389 1.4077407 192 0 0 0 83.956207
23.015957 -2.2720637 1.3991555 116 0 0 0 51.13232
42.527245 -1.0458493 1.4984581 85 0 0 0 49.958481
-25.714155 3.7894638 1.3906471 28 0 0 0 1.95153
-11.008116 6.8891568 1.3350576 483 0 0 0 8.5837498
-13.361651 7.0706782 1.1866987 356 0 0 0 7.4128199
-10.950509 7.2308812 1.3490497 294 0 0 0 8.9677496
-14.036793 7.8759875 1.2621298 216 0 0 0 7.8001099
-10.563572 7.7396154 1.3470955 214 0 0 0 9.7547398
-10.239887 7.8918924 1.3306042 340 0 0 0 10.13704
-8.3524513 7.8322144 1.324538 587.5 0 0 0 11.7006
-7.7710762 7.8373575 1.1421766 524.5 0 0 0 12.277515
-5.3492546 7.9614182 1.3917047 807 0 0 0 15.342124
-16.175533 8.0728083 1.4149655 193 0 0 0 7.0216899
-11.591328 8.0724535 1.451045 279 0 0 0 9.3544998
-11.285411 8.2743683 1.1012182 142 0 0 0 9.7547398
-8.2234621 8.0961895 1.4739074 412 0 0 0 12.08327
-7.2950706 8.3133125 1.281029 363.5 0 0 0 13.25761
-5.2326431 8.0716934 1.239468 452 0 0 0 15.60155
-4.9253573 8.0152731 1.4444153 879 0 0 0 15.99557
-4.2470512 8.200675 1.4220209 614 0 0 0 17.160627
-10.506015 8.5174046 1.3916402 245 0 0 0 10.52653
-7.9008074 8.5810347 1.2069637 457 0 0 0 12.86883
-7.1509666 8.5628166 1.2929583 397.5 0 0 0 13.64748
-5.2722106 8.5936193 1.2991123 417 0 0 0 15.99557
-4.8070397 8.7679434 1.2908578 556 0 0 0 16.76774
-0.70030749 8.6717463 1.2559409 712.75 0 0 0 23.502193
-0.18061453 8.7432299 1.2300196 759 0 0 0 24.448927
2.3625722 8.9233236 1.4627193 709 0 0 0 28.86817
2.7647266 8.6881151 1.4478601 806.66669 0 0 0 29.644461
3.3024533 8.8343792 1.4986808 519 0 0 0 30.4293
-5.2249379 9.0091047 1.3423814 509 0 0 0 16.3873
-1.2273049 9.0295982 1.4215689 736 0 0 0 22.627359
-0.79546469 9.2529383 1.4511424 458 0 0 0 23.406919
-0.34057751 9.308074 1.4582262 400 0 0 0 24.18634
0.11069255 9.0256567 1.4168926 731 0 0 0 24.962891
2.2039871 9.220953 1.2632041 426.5 0 0 0 28.47419
6.9222593 9.4652472 1.0029992 378 0 0 0 34.725327
7.7315073 9.3073139 1.3315268 361.5 0 0 0 35.703499
-16.775091 9.9764156 1.0432442 84 0 0 0 8.1916599
6.217155 9.974185 1.0018848 476 0 0 0 33.552589
9.9011555 9.9980392 1.2035358 242 0 0 0 37.071678
-13.015453 10.055469 1.2908298 277 0 0 0 10.13704
-12.482214 10.137441 1.263064 267 0 0 0 10.52653
-11.975539 10.218987 1.2376515 319 0 0 0 10.91865
-11.46284 10.27323 1.2112815 307 0 0 0 11.3139
-9.8813772 10.246762 1.1241032 290 0 0 0 12.47176
6.1696138 10.459574 1.0328133 429 0 0 0 33.165951
-15.603759 10.898947 1.0184584 93 0 0 0 9.3544998
-9.2318106 10.55786 1.1095589 91 0 0 0 13.25761
-8.8303185 10.608809 1.0933112 112 0 0 0 13.64748
-8.2062311 10.623081 1.2273022 224 0 0 0 14.233971
-7.6904707 10.745878 1.2099371 205.5 0 0 0 14.82727
-7.3296585 10.787325 1.1955407 238.5 0 0 0 15.21241
-6.8105378 10.756034 1.2198626 475.33334 0 0 0 15.73289
-6.3020329 10.911922 1.311646 452 0 0 0 16.3873
-5.975183 10.954287 1.3003221 395 0 0 0 16.76774
7.2131443 10.945929 1.4338893 346 0 0 0 33.943722
8.1681881 10.594282 1.46631 184 0 0 0 35.118759
11.058102 10.620889 1.3093355 225 0 0 0 37.470928
12.377727 10.761139 1.400516 272 0 0 0 38.25425
-5.6593938 11.005917 1.2911671 476 0 0 0 17.16501
-5.1783786 11.044405 1.275063 438 0 0 0 17.74507
-4.7324777 11.140362 1.2673672 264 0 0 0 18.338829
-4.2991757 11.249125 1.2632593 120 0 0 0 18.92086
-3.8053358 11.166639 1.2400455 622 0 0 0 19.50629
-3.3692758 11.222206 1.2340534 672.5 0 0 0 20.09269
-2.8220477 11.39926 1.2397008 79 0 0 0 20.867365
-2.2393794 11.412838 1.2310358 585.5 0 0 0 21.64979
-0.95777446 11.472262 1.2255898 481 0 0 0 23.406919
6.9465957 11.129557 1.4337443 267 0 0 0 33.552589
10.514256 11.146493 1.3061254 121 0 0 0 36.68391
-1.6819534 11.553421 1.23873 77 0 0 0 22.4319
-1.2555398 11.609294 1.2411482 78 0 0 0 23.015011
-0.25161892 11.519806 1.2306678 496.5 0 0 0 24.38328
0.32373172 11.762487 1.2593312 48.5 0 0 0 25.156761
0.76357806 11.829853 1.2708126 40 0 0 0 25.75252
1.2120878 11.902578 1.2848212 257.5 0 0 0 26.329195
1.7661918 11.953232 1.202597 60.666668 0 0 0 27.050034
2.2436209 11.816936 1.2971498 9 0 0 0 27.70096
10.073218 13.036304 1.3960377 148 0 0 0 35.118759
10.583314 13.017918 1.4224463 201 0 0 0 35.509953
11.286525 13.200409 1.4726986 100 0 0 0 35.897041
11.893958 13.22673 1.0649219 140 0 0 0 36.298672
27.51598 -8.3676348 1.7312032 96 0 0 0 54.25872
32.050896 -7.2130432 1.9723618 68 0 0 0 53.07666
-13.23739 -6.6630893 1.9613081 266 0 0 0 92.16169
-5.3764019 -6.5343394 1.9657489 546 0 0 0 85.528786
-2.7277589 -6.5327501 1.9998047 539 0 0 0 80.832321
5.3486075 -6.5702729 1.9955628 563 0 0 0 63.634281
-11.546266 -6.170567 1.7363644 219 0 0 0 91.782639
-9.8568058 -6.2383552 1.8386824 204 0 0 0 90.615952
-8.5069618 -6.3030763 1.9332199 446 0 0 0 89.434006
-7.8529668 -6.1213622 1.8199052 617 0 0 0 89.043846
-6.7008944 -6.3681474 1.9187648 632 0 0 0 87.492943
-6.2494364 -6.236474 1.8339555 636 0 0 0 87.102737
-5.8275523 -6.106504 1.7547518 610 0 0 0 86.713791
-4.9026284 -6.2633629 1.8496265 655 0 0 0 85.128761
-3.3795509 -6.104001 1.7977853 747 0 0 0 82.600609
-2.8773613 -6.4433494 1.9932497 586 0 0 0 81.230087
-2.3866305 -6.3569422 1.9197981 555.5 0 0 0 80.251663
-1.7208081 -6.1204414 1.8005236 646 0 0 0 78.87838
-1.2237036 -6.0185928 1.7411408 547 0 0 0 77.708817
0.36324406 -6.4323001 1.988904 523.5 0 0 0 73.603081
0.67777634 -6.404314 1.9894134 468.5 0 0 0 72.823929
2.2477295 -6.1473284 1.8670036 577.5 0 0 0 68.911667
2.5380044 -6.2227221 1.9167325 593 0 0 0 68.335274
3.8396499 -6.1299267 1.8846277 682 0 0 0 65.591843
4.6550426 -6.0203147 1.795877 672 0 0 0 64.029953
5.8057795 -6.1465249 1.7856706 682 0 0 0 62.459606
6.450882 -6.4974055 1.9310334 636 0 0 0 62.065041
7.9816232 -6.2660165 1.8880059 522 0 0 0 60.110741
10.697474 -6.0868692 1.9780986 169 0 0 0 57.77264
11.244352 -6.0354867 1.7328227 334 0 0 0 57.37204
13.680238 -6.0870876 1.657467 225 0 0 0 56.206329
-7.1212449 -5.8359895 1.6852043 637 0 0 0 88.658875
-6.6060815 -5.6890521 1.5973556 693 0 0 0 88.264435
-6.3038769 -5.7029757 1.5583076 606 0 0 0 87.872963
-5.4041271 -5.9466605 1.6719462 684 0 0 0 86.319038
-4.7552338 -5.6320753 1.5364296 910 0 0 0 85.725334
-3.0324891 -5.9847722 1.730001 707 0 0 0 82.011711
-2.6927609 -5.8305202 1.6576685 632 0 0 0 81.42424
-2.1642156 -5.7628198 1.6303174 720.75 0 0 0 80.248398
-1.2044442 -5.9228425 1.7144412 599 0 0 0 77.706207
-0.74745435 -5.8180223 1.6659237 624.33331 0 0 0 76.5382
-0.24094553 -5.662159 1.6125156 581.75 0 0 0 75.170975
1.2895447 -5.5782232 1.6344396 539.5 0 0 0 70.876701
1.7091347 -5.7496243 1.7125524 530.33331 0 0 0 69.894585
2.6871023 -5.5849075 1.617764 661 0 0 0 67.35479
3.1579752 -5.8100433 1.7248702 554.5 0 0 0 66.572083
3.5515208 -5.994977 1.8163084 640 0 0 0 65.983162
4.1452961 -5.6472359 1.6556488 647 0 0 0 64.426399
5.0992541 -5.6767225 1.6148573 711 0 0 0 62.85384
6.2690315 -5.7244596 1.5846447 792 0 0 0 61.287861
6.7237659 -5.8406501 1.6610205 596 0 0 0 60.89901
7.2463703 -5.9858279 1.7512116 633 0 0 0 60.500729
8.3555374 -5.6150146 1.6244733 280 0 0 0 58.941582
9.7890415 -5.572485 1.5338463 510 0 0 0 57.77264
10.838531 -5.6481481 1.9650443 242.5 0 0 0 57.177078
11.145155 -5.6336222 1.6966976 234 0 0 0 56.982121
11.835277 -5.619556 1.7783146 149 0 0 0 56.598289
-30.153234 -5.2298503 1.7615263 50 0 0 0 96.849998
-26.907263 -5.3499455 1.5823935 51 0 0 0 96.46608
0.29495925 -5.3640962 1.5322156 549 0 0 0 73.602409
0.766958 -5.3940616 1.5551459 467 0 0 0 72.240768
1.0544449 -5.4790368 1.5926713 560 0 0 0 71.462563
2.2922721 -5.4373264 1.5408731 557 0 0 0 68.135345
4.6051359 -5.3913341 1.5027523 611 0 0 0 63.242329
7.7044153 -5.4597716 1.5258194 641 0 0 0 59.338341
11.169381 -5.3045292 1.9877492 152 0 0 0 56.598289
43.827091 -5.4159312 1.5553982 26 0 0 0 51.520699
-5.5877171 -3.7294674 1.7320524 473.33334 0 0 0 90.224266
-2.6854401 -3.6008801 1.6083641 199 0 0 0 84.739532
-2.2365143 -3.602613 1.5717787 173.75 0 0 0 83.378891
-2.6694489 -3.4590957 1.6356083 147.33333 0 0 0 84.999016
-2.4063931 -3.4835515 1.5691868 190.5 0 0 0 84.155563
43.118172 -3.186708 1.5230695 85 0 0 0 50.738281
22.957829 -2.261595 1.9715568 135 0 0 0 51.13232
42.921417 -2.1126049 1.5137079 22 0 0 0 50.35358
43.499062 0.00019707211 1.5310133 22 0 0 0 49.566566
47.871559 1.1772841 1.681264 15 0 0 0 49.182449
52.326672 2.5747952 1.8354164 34 0 0 0 48.786621
-25.161549 3.7045848 1.9906173 26 0 0 0 1.95153
52.411694 3.8724444 1.840557 19 0 0 0 48.406231
52.061653 5.1360211 1.8319033 45 0 0 0 48.010059
-13.69293 6.8251419 1.5690914 345 0 0 0 7.0216899
54.669945 6.7533169 1.9265592 8 0 0 0 47.61525
-13.328684 7.0519772 1.7305307 160.5 0 0 0 7.4128199
-11.275848 7.2484417 1.7041259 290.5 0 0 0 8.7757492
-10.771833 7.2986307 1.973747 474.5 0 0 0 9.1611252
-10.345973 7.3820767 1.6173544 351 0 0 0 9.5546198
-10.501399 7.6906791 1.975076 470 0 0 0 9.7547398
-7.8340998 7.8981309 1.694567 558.5 0 0 0 12.277515
-10.496004 8.0885239 1.6861856 387 0 0 0 10.13704
-8.2109652 8.4906788 1.5089357 397 0 0 0 12.47176
-7.507669 8.1441002 1.6885266 559 0 0 0 12.86883
-7.4300156 8.4672375 1.7178832 521 0 0 0 13.25761
-4.7913675 8.24331 1.8166758 722.5 0 0 0 16.384478
-4.2626243 8.230279 1.6546636 800.66669 0 0 0 17.160627
-15.245126 8.5598679 1.7905651 113 0 0 0 7.8001099
-7.9824529 8.6674891 1.5062252 357 0 0 0 12.86883
-7.4633307 8.9403305 1.7764171 174 0 0 0 13.64748
-5.1403499 8.8590374 1.5719889 430 0 0 0 16.3873
-4.4162621 8.5323067 1.9485483 685 0 0 0 17.16501
-0.54071283 8.6555195 1.996581 678 0 0 0 23.793421
2.6975174 8.853179 1.6977997 744 0 0 0 29.450809
3.0603278 8.8509407 1.719365 681 0 0 0 30.031759
3.5813339 8.8998423 1.5250193 619 0 0 0 30.82287
-0.2250426 9.1758461 1.8901528 349 0 0 0 24.38328
2.4167407 9.1230907 1.7285742 639 0 0 0 28.86817
6.6859665 9.3916283 1.5516324 487 0 0 0 34.5327
7.2586346 9.1964188 1.724466 492.5 0 0 0 35.314354
7.7901173 9.1489964 1.6196314 491 0 0 0 35.897041
8.0475616 9.4494362 1.9799898 354 0 0 0 35.897041
-0.58382607 9.5546389 1.9674582 400 0 0 0 23.793421
2.2745345 9.5145617 1.7890085 707 0 0 0 28.47419
6.4521346 9.8117504 1.7247398 432 0 0 0 33.943722
7.0003014 9.5788908 1.8908066 282 0 0 0 34.725327
-17.073479 10.151313 1.5525793 42 0 0 0 8.1916599
-16.310749 10.242807 1.5062213 18 0 0 0 8.5837498
-11.95332 10.19768 1.8056725 310.5 0 0 0 10.91865
-11.457162 10.265828 1.7691419 302 0 0 0 11.3139
6.2796869 10.08248 1.8892418 501 0 0 0 33.552589
9.2767811 10.347093 1.6977379 331.5 0 0 0 36.298672
9.7003469 10.124414 1.6555692 293.66666 0 0 0 36.813168
14.794189 10.48807 1.5486118 194 0 0 0 39.811359
17.072865 10.292309 1.7007067 184 0 0 0 40.977966
-8.3466377 10.532094 1.7181733 325 0 0 0 14.03497
13.85222 10.88663 1.5041916 197 0 0 0 39.035889
14.133313 10.554313 1.5066483 219 0 0 0 39.425518
16.170069 10.870348 1.6617588 140 0 0 0 40.205048
16.833967 10.722575 1.7020061 45 0 0 0 40.59626
-5.7278862 11.135323 1.6122178 78 0 0 0 17.16501
-5.1291528 11.049221 1.67097 265.66666 0 0 0 17.810383
-4.786272 11.261339 1.7306995 76 0 0 0 18.338829
-4.3296075 11.321623 1.71708 76 0 0 0 18.92086
-3.8024917 11.147619 1.6713324 586 0 0 0 19.50629
-3.3724623 11.221186 1.6650798 446 0 0 0 20.09269
-2.0902443 11.372963 1.6506162 590.5 0 0 0 21.84329
-8.6729031 11.5215 1.8435069 26 0 0 0 14.43297
-8.3323069 11.650042 1.8323697 30 0 0 0 14.82727
-1.6890783 11.585524 1.529166 82.5 0 0 0 22.4319
-1.2592047 11.61589 1.5283978 60 0 0 0 23.015011
0.37355384 11.882847 1.6623697 79 0 0 0 25.221384
0.76908112 11.95567 1.7265028 92 0 0 0 25.75252
1.0555704 11.857691 1.7171167 245.5 0 0 0 26.134621
2.8848186 11.9543 1.6313289 5 0 0 0 28.47419
1.3720756 12.033388 1.7484767 81.5 0 0 0 26.523769
1.8359433 12.100079 1.7691889 64 0 0 0 27.116169
2.3058801 12.150824 1.7900769 59.5 0 0 0 27.70096
2.5963562 12.057204 1.9396104 115 0 0 0 28.084431
6.3061743 12.742444 1.8953197 26 0 0 0 31.994841
6.7182536 12.770377 1.9245962 32 0 0 0 32.389111
7.1536236 12.813896 1.7776124 29 0 0 0 32.770531
7.6155524 12.877541 1.6284491 24 0 0 0 33.165951
8.837553 12.6933 1.6867255 265 0 0 0 34.340073
9.3640785 12.763478 1.7269441 244 0 0 0 34.725327
24.843849 12.551093 1.6673826 17 0 0 0 42.152439
11.867793 13.204517 1.5061036 131 0 0 0 36.298672
14.957706 13.647835 1.7188224 114 0 0 0 37.861649
16.782356 13.855621 1.8477303 63 0 0 0 38.648338
26.204945 -9.3948803 2.3712094 118 0 0 0 55.04026
25.949406 -8.5892735 2.3290582 107 0 0 0 54.653912
27.548054 -8.3715105 2.4513633 91 0 0 0 54.25872
-13.448737 -7.6174822 2.4259431 179 0 0 0 91.401901
-5.8961821 -7.5369973 2.4536073 458 0 0 0 85.128761
-4.3398967 -7.6283979 2.4711125 486 0 0 0 82.793457
6.9337535 -7.6984773 2.4331422 468 0 0 0 62.85384
8.6836157 -7.5312777 2.4161015 377 0 0 0 60.89901
-12.062463 -7.2278371 2.209969 280 0 0 0 91.009361
-8.7239981 -7.1516657 2.3346972 381 0 0 0 88.658875
-7.4656291 -7.4554458 2.4433756 241 0 0 0 87.102737
-6.904665 -7.2404995 2.3185623 428 0 0 0 86.713791
-5.3994241 -7.2599511 2.3215675 470 0 0 0 84.739532
-3.9394598 -7.3343477 2.3457606 302 0 0 0 82.407761
-2.6267254 -7.2810011 2.3742349 362 0 0 0 80.054001
-2.2700663 -7.0942392 2.2864332 621 0 0 0 79.462196
-1.9966621 -7.1305289 2.2734599 546 0 0 0 78.881409
-1.4293469 -7.0587068 2.213295 558 0 0 0 77.708817
2.2375214 -7.1742334 2.3220201 506 0 0 0 69.698196
2.6450305 -7.496624 2.4552863 508 0 0 0 69.105453
10.55969 -7.4704762 2.3968425 262 0 0 0 59.338341
-8.7627316 -6.8314924 2.3000603 344 0 0 0 89.043846
-8.0664845 -6.9490952 2.2052546 415 0 0 0 88.264435
-7.4360514 -6.7293191 2.0790176 370 0 0 0 87.872963
-6.3197026 -6.9593782 2.1803689 432 0 0 0 86.319038
-5.861136 -6.7796698 2.0800836 618 0 0 0 85.921883
-3.2037389 -6.7302623 2.1036119 624 0 0 0 81.618393
-1.6755724 -6.951663 2.1972032 629.5 0 0 0 78.289993
-1.1453452 -6.9530897 2.1671593 534 0 0 0 77.126373
-0.69506639 -6.7520881 2.0901642 618.66669 0 0 0 76.147324
-0.19021523 -6.5614791 2.0240133 600.66669 0 0 0 74.974495
0.12893963 -6.5044165 2.007021 650 0 0 0 74.188408
1.2780675 -6.5887032 2.0745237 607.66669 0 0 0 71.460564
1.7489763 -6.7679958 2.1608362 638.5 0 0 0 70.485123
2.8595757 -6.5412903 2.034569 437 0 0 0 67.93541
3.2672517 -6.5675292 2.0912631 641.33331 0 0 0 67.15818
3.6410422 -6.5005965 2.1245034 605 0 0 0 66.379211
5.9462981 -6.9440336 2.1509569 486 0 0 0 63.242329
7.0221243 -6.7301693 2.0495098 613 0 0 0 61.6768
7.6084638 -6.9385314 2.16801 558 0 0 0 61.287861
9.0515614 -6.7484026 2.0966923 439 0 0 0 59.726799
10.228427 -6.685638 2.2672935 271.5 0 0 0 58.744431
10.80928 -6.6892638 2.199811 304.5 0 0 0 58.351879
0.92071593 -6.4322929 2.0077965 478 0 0 0 72.240921
3.8148375 -6.434514 2.1334395 366 0 0 0 65.983162
10.694364 -6.4384723 2.0054128 242 0 0 0 58.156479
-25.102631 -5.639173 2.1261196 49 0 0 0 96.070007
10.710536 -5.748373 2.2568779 185.33333 0 0 0 57.375599
38.094093 -5.6613278 2.305531 40 0 0 0 51.906658
-26.687471 -5.3110604 2.2469907 55 0 0 0 96.46608
11.180596 -5.3096495 2.297323 247 0 0 0 56.598289
11.912619 -5.3005433 2.0940516 177 0 0 0 56.206329
-5.6101713 -3.6667042 2.2549939 297.60001 0 0 0 90.380936
-14.363612 6.7269421 2.0125637 52 0 0 0 6.6349301
-13.910121 6.721983 2.3396659 306.5 0 0 0 6.82831
-13.299149 7.0351171 2.2787869 103 0 0 0 7.4128199
-16.151363 8.0578594 2.2882626 214 0 0 0 7.0216899
-14.368486 8.0609417 2.2907324 72 0 0 0 7.8001099
-7.760982 8.4226255 2.0261493 472 0 0 0 12.86883
-7.6192789 8.6857109 2.0448833 477 0 0 0 13.25761
-1.0018574 8.9849987 2.0769756 612 0 0 0 23.015011
-0.68957502 8.7436295 2.1614487 669 0 0 0 23.535753
-0.25928894 8.8315535 2.1081846 672.33331 0 0 0 24.317633
2.8561759 8.9804697 2.1917892 567 0 0 0 29.64558
3.206512 8.9213333 2.2069447 682.5 0 0 0 30.23053
-0.11637726 9.2688723 2.3626287 388 0 0 0 24.580219
0.11536686 9.399663 2.1670101 77 0 0 0 24.962891
2.7967725 9.1793804 2.348881 573 0 0 0 29.450809
3.2750888 9.1037655 2.2508516 526 0 0 0 30.23053
3.6792138 9.1447926 2.1749601 389.5 0 0 0 30.82287
6.917594 9.46875 2.1605852 484 0 0 0 34.725327
7.1791797 9.3333502 2.1706126 498 0 0 0 35.118759
7.6234946 9.4169102 2.2335498 477 0 0 0 35.509953
2.5250485 9.5293646 2.2883258 515 0 0 0 28.86817
3.4158947 9.8511019 2.1672094 109 0 0 0 30.031759
6.7307224 9.7064734 2.1747515 456 0 0 0 34.340073
-12.980006 10.023884 2.485502 234 0 0 0 10.13704
-12.441418 10.099957 2.2329459 235 0 0 0 10.52653
-11.937121 10.18156 2.3799009 232 0 0 0 10.91865
-11.431897 10.2407 2.329252 330 0 0 0 11.3139
-10.970457 10.31881 2.2868345 291 0 0 0 11.7006
6.4449649 10.345966 2.2403364 443 0 0 0 33.552589
6.6286073 10.079095 2.2189493 489 0 0 0 33.943722
17.133451 10.33006 2.1941576 66 0 0 0 40.977966
-8.218214 10.633784 2.214174 208.75 0 0 0 14.23397
-7.7678361 10.848672 2.2000754 48 0 0 0 14.82727
-7.4055152 10.892904 2.3353634 38 0 0 0 15.21241
-6.8834023 10.670855 2.2533927 455 0 0 0 15.60155
16.311426 10.966365 2.1549177 123 0 0 0 40.205048
16.550102 10.544096 2.1522136 195 0 0 0 40.59626
-5.1241055 11.034177 2.366689 291.66666 0 0 0 17.810383
-4.7822919 11.247666 2.3294463 66 0 0 0 18.338829
-4.3286386 11.314283 2.3116336 67.75 0 0 0 18.92086
-3.8031445 11.144342 2.2499173 458 0 0 0 19.50629
-3.3682637 11.201069 2.237695 417.75 0 0 0 20.092691
-2.9950244 11.476252 2.2712245 90.5 0 0 0 20.674231
-2.0903168 11.362739 2.2182751 554 0 0 0 21.84329
-0.86671448 11.443059 2.1646712 507 0 0 0 23.535753
-0.39704078 11.467685 2.0731583 609 0 0 0 24.18634
16.198544 11.479532 2.1755745 153 0 0 0 39.811359
-2.7039957 11.507507 2.2654481 78 0 0 0 21.060499
-2.4174933 11.553108 2.2638879 80 0 0 0 21.456289
-1.6834108 11.52445 2.2388644 24.75 0 0 0 22.4319
-1.2577837 11.582129 2.0991066 20 0 0 0 23.015011
-0.11512671 11.50669 2.0807717 607 0 0 0 24.580219
0.322485 11.881018 2.2970932 73 0 0 0 25.156761
0.7671932 11.958832 2.3184569 63.5 0 0 0 25.75252
1.0519091 11.841835 2.302053 213 0 0 0 26.134621
1.3687246 12.02372 2.3448057 68.5 0 0 0 26.523769
1.8319547 12.085941 2.2208834 57 0 0 0 27.116169
2.303215 12.145921 2.2482986 38 0 0 0 27.70096
2.6029356 12.091748 2.2512956 86 0 0 0 28.084431
5.7762022 12.443299 2.1687162 213 0 0 0 31.59857
4.7270708 12.542686 2.447438 27 0 0 0 30.4293
5.2962818 12.608738 2.3279943 35.5 0 0 0 31.015606
6.2882457 12.709475 2.2420175 32 0 0 0 31.994841
6.7163506 12.769444 2.2821679 24 0 0 0 32.389111
7.1331682 12.784111 2.3166533 23 0 0 0 32.770531
7.6164007 12.88773 2.1834021 15 0 0 0 33.165951
8.102622 12.965124 2.0416801 14 0 0 0 33.552589
8.8346205 12.698228 2.4521756 258 0 0 0 34.340073
14.342697 13.752975 2.1699722 5 0 0 0 37.470928
14.925272 13.620338 2.2074387 141 0 0 0 37.861649
16.760435 13.83953 2.3748636 62 0 0 0 38.648338
32.404819 14.405015 2.1159768 4 0 0 0 42.936729
-13.654426 -8.6441307 2.934396 199 0 0 0 90.615952
-4.4185691 -8.7429638 2.9957376 169 0 0 0 82.011711
-1.9793154 -8.69874 2.954361 402 0 0 0 78.092705
1.8896663 -8.5777617 2.9224117 364 0 0 0 71.070518
3.7284961 -8.7839699 2.9424062 330.5 0 0 0 68.135345
5.4959488 -8.7457457 2.9325101 251 0 0 0 65.591843
7.4004507 -8.6296511 2.9452219 352 0 0 0 63.242329
25.982069 -8.599534 2.9982104 124 0 0 0 54.653912
-15.470675 -8.2692299 2.749058 141 0 0 0 91.782639
-9.9851971 -8.1898117 2.9839053 227 0 0 0 88.658875
-3.7961898 -8.2414837 2.7775025 490.5 0 0 0 81.42424
-3.2548065 -8.0870476 2.6700904 467.5 0 0 0 80.640823
-1.7065518 -8.4456348 2.854991 469 0 0 0 77.708817
-1.2535769 -8.2524595 2.7684319 465 0 0 0 76.929718
-0.82103819 -8.0402946 2.6821771 453 0 0 0 76.145157
1.2753402 -8.1358061 2.7402585 390.5 0 0 0 72.044762
1.6200528 -8.325407 2.8222864 414 0 0 0 71.462563
3.0689867 -8.0542221 2.6598105 430 0 0 0 68.717888
6.3298855 -8.1663246 2.678988 419 0 0 0 64.029953
6.9096417 -8.472271 2.8331404 255 0 0 0 63.634281
8.1200571 -8.1639662 2.7011433 461 0 0 0 62.065041
8.787529 -8.4082127 2.8515069 388 0 0 0 61.6768
9.7692175 -8.056263 2.658181 270 0 0 0 60.500729
28.939568 -8.0216694 2.5552695 86 0 0 0 53.86652
-8.8777943 -7.6517134 2.7108059 164 0 0 0 88.264435
-8.2411661 -7.5839744 2.6832507 239.33333 0 0 0 87.746284
-7.1684046 -7.5175161 2.660568 149 0 0 0 86.713791
-6.6108117 -7.6489768 2.716507 223 0 0 0 85.921883
-6.3505468 -7.7218161 2.5620699 373 0 0 0 85.528786
-0.61511528 -7.9358468 2.6426263 567 0 0 0 75.760414
-0.2244667 -7.8865972 2.6215458 446 0 0 0 74.974495
0.25480056 -7.810174 2.59817 453.5 0 0 0 73.996155
0.74493265 -7.8900299 2.6367362 365.66666 0 0 0 73.016701
5.8434515 -7.9368753 2.5565586 462 0 0 0 64.426399
7.5326819 -7.9578753 2.5717452 328 0 0 0 62.459606
10.325662 -7.693233 2.7035694 216 0 0 0 59.726799
30.289234 -7.5981464 2.6556418 47 0 0 0 53.475632
-10.035886 -7.4373116 2.581991 384 0 0 0 89.434006
-9.5723486 -7.0958762 2.7555611 94 0 0 0 89.434006
-9.1059418 -7.2829075 2.8401594 131 0 0 0 88.851364
-8.577507 -7.3923817 2.8975677 103 0 0 0 88.264435
-7.2185655 -7.0309639 2.7088037 214 0 0 0 87.297836
-6.6911616 -7.2802901 2.7767336 294.75 0 0 0 86.417725
10.392411 -7.3525877 2.6738839 159 0 0 0 59.338341
32.055885 -7.2074909 2.7921686 33 0 0 0 53.07666
-8.9547815 -6.9836969 2.9058695 157 0 0 0 89.043846
-7.132679 -6.6727471 2.7440093 204.33333 0 0 0 87.619621
-6.7182908 -6.8193908 2.8482602 263.33334 0 0 0 86.973083
10.363939 -6.7740617 2.7549725 186 0 0 0 58.744431
10.358202 -6.2354431 2.6931229 272.5 0 0 0 58.156479
10.853846 -6.1724854 2.9317188 206 0 0 0 57.77264
20.303989 -6.1693349 2.8569257 53 0 0 0 54.25872
10.581108 -5.8493748 2.5432696 217 0 0 0 57.572342
11.13797 -5.6294942 2.6240959 177 0 0 0 56.982121
-30.385727 -5.2756181 2.5424695 35 0 0 0 96.849998
-5.6441059 -3.6704521 2.5621758 250 0 0 0 90.420105
43.077072 -3.1823659 2.5806317 73 0 0 0 50.738281
23.195681 -2.2843201 2.5593302 122 0 0 0 51.13232
42.512741 -1.0441045 2.5405858 56 0 0 0 49.958481
43.496407 0.0016703969 2.5973358 18 0 0 0 49.566566
47.814995 1.177579 2.8518567 15 0 0 0 49.182449
-25.385939 3.7390745 2.6276796 35 0 0 0 1.95153
-13.296136 7.0337639 2.6470783 75 0 0 0 7.4128199
2.7236657 9.3492031 2.5016174 574 0 0 0 29.256041
3.4513779 9.2361565 2.5370319 212 0 0 0 30.4293
-12.97245 10.017879 2.8865199 212 0 0 0 10.13704
-12.443622 10.101487 2.8236547 265 0 0 0 10.52653
-11.929773 10.174983 2.7634273 226 0 0 0 10.91865
-11.439598 10.247353 2.7079089 255 0 0 0 11.3139
-10.952407 10.301275 2.6522493 286 0 0 0 11.7006
-10.294958 10.163147 2.7297695 273.5 0 0 0 12.08327
-9.7819242 10.303907 2.7404196 250.33333 0 0 0 12.604115
7.1971593 10.372031 2.6333387 357 0 0 0 34.340073
-9.3051634 10.635784 2.8427517 30 0 0 0 13.25761
-8.7826462 10.54348 2.7619786 246 0 0 0 13.64748
-8.1858501 10.588737 2.6963434 312.5 0 0 0 14.233971
-7.6581221 10.691793 2.6515865 263 0 0 0 14.82727
-7.3909225 10.867498 2.8111606 40.5 0 0 0 15.21241
-6.7213135 10.698838 2.7051866 449.25 0 0 0 15.79856
-6.3416543 10.96615 2.8682787 38 0 0 0 16.3873
-5.6490126 10.968008 2.7970827 346 0 0 0 17.16501
17.100428 10.898626 2.7229602 120 0 0 0 40.59626
-6.0436258 11.065543 2.8565178 56 0 0 0 16.76774
-5.1773758 11.023666 2.7641146 322 0 0 0 17.74507
-4.7179708 11.084447 2.7366936 365 0 0 0 18.338829
-4.2734542 11.156984 2.7170947 389 0 0 0 18.92086
-3.8002095 11.123822 2.8194003 447.5 0 0 0 19.50629
-3.3685994 11.188715 2.8058345 408.75 0 0 0 20.09269
-2.833837 11.409971 2.827446 126.25 0 0 0 20.867365
-2.2479765 11.408281 2.7999511 290.75 0 0 0 21.64979
16.536421 11.122572 2.6760375 160 0 0 0 40.205048
-1.6941396 11.574284 2.8209021 82.25 0 0 0 22.4319
-1.2718002 11.672934 2.9774342 59 0 0 0 23.015011
0.46699104 11.927481 2.7460194 44 0 0 0 25.35063
0.76222032 11.940783 2.7544947 60 0 0 0 25.75252
1.0483592 11.842944 2.7391932 163 0 0 0 26.134621
16.224705 11.503815 2.6700151 187 0 0 0 39.811359
-10.267892 12.350464 2.838093 19 0 0 0 13.64748
1.3666488 12.037386 2.7925646 57 0 0 0 26.523769
1.8293573 12.086785 2.6711848 55.5 0 0 0 27.116169
2.3029697 12.158764 2.706413 47.5 0 0 0 27.70096
2.768734 12.140509 2.7254329 80.75 0 0 0 28.279308
3.2857876 12.282338 2.6300359 59 0 0 0 28.86817
3.7990646 12.344604 2.6739583 41 0 0 0 29.450809
5.775939 12.446935 2.6785734 229 0 0 0 31.59857
26.978256 12.006346 2.5049827 89 0 0 0 42.936729
5.4787235 12.611235 2.682487 33.5 0 0 0 31.20834
6.2363739 12.610209 2.7456331 94 0 0 0 31.994841
6.6502161 12.649303 2.789958 134 0 0 0 32.389111
7.1436009 12.805111 2.6840758 34 0 0 0 32.770531
7.6298943 12.914 2.7464619 19 0 0 0 33.165951
11.838897 13.183256 2.8114467 143 0 0 0 36.298672
12.588792 13.338222 2.9103432 119 0 0 0 36.68391
13.388676 13.497551 2.5450933 80 0 0 0 37.071678
14.939395 13.639884 2.7088358 140 0 0 0 37.861649
15.946799 13.851385 2.8282895 55 0 0 0 38.25425
16.715902 13.809788 2.9038212 70 0 0 0 38.648338
-1.5476036 14.476253 2.9737861 12 0 0 0 23.015011
18.051376 14.168474 2.5067811 31 0 0 0 39.035889
18.774954 14.001665 2.5586231 59 0 0 0 39.425518
26.895622 15.296849 2.6197128 12 0 0 0 41.366402
28.864439 15.486477 2.7720683 25 0 0 0 41.767807
30.549009 15.43259 2.8956456 7 0 0 0 42.152439
26.508829 -11.002211 3.1418922 141 0 0 0 55.81358
26.301153 -10.165454 3.0875666 166 0 0 0 55.429779
-1.6866076 -9.5821295 3.458998 370 0 0 0 77.31971
-1.3451555 -9.7183151 3.4890602 269.5 0 0 0 76.734726
-0.85462326 -9.612463 3.4338925 285 0 0 0 75.952789
1.6313848 -9.5883722 3.4692934 268 0 0 0 71.848602
3.9703 -9.682374 3.481982 275 0 0 0 68.335274
5.4876194 -9.7568712 3.4491727 173 0 0 0 66.379211
7.0200801 -9.5234671 3.3559403 311 0 0 0 64.426399
11.104029 -9.6158075 3.4370861 119 0 0 0 60.89901
-15.373693 -9.2133255 3.2510576 113 0 0 0 91.009361
-5.1622314 -9.0840864 3.1928599 383 0 0 0 82.793457
-4.187737 -9.400095 3.4002755 343 0 0 0 81.230087
-3.7660363 -9.359066 3.3346758 296 0 0 0 80.640823
-3.1686926 -9.1404438 3.1995587 324.5 0 0 0 79.855965
-2.7686036 -9.0475464 3.130224 437 0 0 0 79.266464
-0.25880289 -9.3768129 3.3409727 352.33334 0 0 0 74.974495
0.30973458 -9.2066898 3.2830982 283 0 0 0 73.996155
0.76537156 -9.2380381 3.3051851 326.5 0 0 0 73.208664
1.2357427 -9.3226776 3.3544416 298.5 0 0 0 72.436852
2.4719694 -9.0685711 3.1268282 353 0 0 0 70.287354
2.733444 -9.1367826 3.1729755 285 0 0 0 69.894165
3.1856802 -9.3668852 3.2921031 313.5 0 0 0 69.303833
3.6109433 -9.4643621 3.3708165 338 0 0 0 68.717888
4.5621576 -9.1411591 3.1494837 343 0 0 0 67.160233
5.0245895 -9.4739943 3.3049977 266 0 0 0 66.764954
9.0681992 -9.1119537 3.3276644 291 0 0 0 62.065041
26.114552 -9.3620262 3.0384941 167 0 0 0 55.04026
-7.0131731 -8.5294514 3.100529 292 0 0 0 85.528786
-6.8203487 -8.7230625 3.2448666 169 0 0 0 85.128761
-6.3727784 -8.5728216 3.0004911 333 0 0 0 84.739532
-4.8156562 -8.9778061 3.1141584 322 0 0 0 82.407761
-2.3608556 -8.8617029 3.0356765 481.5 0 0 0 78.684341
2.1659429 -8.794961 3.0135057 302 0 0 0 70.682884
4.1961598 -8.9541273 3.0488021 388 0 0 0 67.549347
7.9602785 -8.8309727 3.079118 360 0 0 0 62.85384
8.4607716 -8.9325628 3.1857924 279 0 0 0 62.459606
9.5012398 -8.651125 3.011133 253 0 0 0 61.287861
11.319975 -8.871192 3.0143123 192 0 0 0 60.110741
-6.7611136 -8.2233486 3.3802581 153 0 0 0 85.528786
27.418867 -8.3317394 3.1376619 55 0 0 0 54.25872
-6.7667179 -7.8307972 3.2916303 121.5 0 0 0 85.921883
10.479902 -7.8047085 3.0638795 185 0 0 0 59.726799
28.73675 -7.9649096 3.2635446 93 0 0 0 53.86652
30.263727 -7.5910606 3.4129453 56 0 0 0 53.475632
-9.2462807 -7.028532 3.1137202 102 0 0 0 89.238922
-8.5918589 -7.0465059 3.2552876 127 0 0 0 88.658875
-8.2875481 -7.1431451 3.2038324 135 0 0 0 88.264435
-7.5337443 -7.1631055 3.4321058 156 0 0 0 87.492943
-6.711874 -7.2124372 3.2545214 199.5 0 0 0 86.516418
10.411042 -7.3628097 3.3057976 157 0 0 0 59.338341
10.528203 -7.2540503 3.1564202 69.5 0 0 0 59.139961
-9.4391508 -6.9967961 3.2969849 120 0 0 0 89.434006
-8.8495426 -6.9037623 3.4262767 8 0 0 0 89.043846
-7.6226072 -6.9027643 3.1415262 211 0 0 0 87.872963
-6.9652553 -6.9541965 3.2510121 303 0 0 0 87.102737
23.188528 -2.2788389 3.1331725 128 0 0 0 51.13232
23.443649 -1.7222728 3.160502 128 0 0 0 50.738281
-25.697458 3.7819393 3.2944577 18 0 0 0 1.95153
-13.226342 6.9940848 3.3601038 40 0 0 0 7.4128199
-15.96486 7.4837556 3.1011071 92 0 0 0 6.6349301
-13.253124 7.0110617 3.0038564 41 0 0 0 7.4128199
-15.662639 7.8129611 3.0785959 138 0 0 0 7.0216899
-12.960299 10.008294 3.2834046 259 0 0 0 10.13704
-12.416288 10.078909 3.2076859 270 0 0 0 10.52653
-11.922021 10.16806 3.1439769 248 0 0 0 10.91865
-11.417619 10.225212 3.2624025 234.5 0 0 0 11.3139
-10.947487 10.29424 3.19978 288 0 0 0 11.7006
-10.284955 10.148983 3.2535448 246 0 0 0 12.08327
-9.7315083 10.330465 3.1978197 176.5 0 0 0 12.670295
-9.2369804 10.552217 3.3315902 16.5 0 0 0 13.25761
-8.8627911 10.636093 3.2906713 21 0 0 0 13.64748
-8.2200966 10.629936 3.1972032 152.25 0 0 0 14.23397
-7.7692533 10.843793 3.1761479 23 0 0 0 14.82727
-7.3865991 10.857447 3.2880397 24 0 0 0 15.21241
-6.7147741 10.684008 3.3183222 368 0 0 0 15.79856
-6.3303523 10.944263 3.3267732 32 0 0 0 16.3873
-5.3246574 10.985649 3.2178631 239.5 0 0 0 17.549129
-6.0312891 11.040356 3.3120012 28 0 0 0 16.76774
-5.7166047 11.099455 3.288934 28.5 0 0 0 17.16501
-5.0152307 11.024641 3.1945279 249.5 0 0 0 17.94101
-4.7770729 11.223501 3.2189202 40.5 0 0 0 18.338829
-4.3186717 11.27426 3.1892974 33 0 0 0 18.92086
-3.797087 11.110496 3.2497685 433 0 0 0 19.50629
-3.3623543 11.162605 3.2299919 346 0 0 0 20.09269
-2.8506975 11.474877 3.2796478 56.5 0 0 0 20.867365
-2.0907974 11.326946 3.3412862 423.5 0 0 0 21.84329
-0.82406348 11.402928 3.3262119 436.25 0 0 0 23.60017
-0.26324078 11.465637 3.3408999 434.5 0 0 0 24.383278
-2.4145603 11.511779 3.2655344 71 0 0 0 21.456289
-1.7032998 11.630437 3.2687979 58 0 0 0 22.4319
-1.273522 11.680325 3.2703121 42 0 0 0 23.015011
0.31680945 11.867508 3.1688471 53.5 0 0 0 25.156761
0.75842237 11.910032 3.1883736 47.5 0 0 0 25.75252
1.0458275 11.833139 3.1756849 143.5 0 0 0 26.134621
1.3615525 12.008836 3.2325761 46.5 0 0 0 26.523769
1.8227543 12.06566 3.2670412 52.25 0 0 0 27.116169
2.2957244 12.139009 3.3100388 48.5 0 0 0 27.70096
2.719017 12.164392 3.2903194 47 0 0 0 28.21435
3.2776043 12.269457 3.2501733 36 0 0 0 28.86817
5.7630739 12.429424 3.1794209 183 0 0 0 31.59857
5.2736692 12.571623 3.3280563 19.5 0 0 0 31.015606
6.2656417 12.678097 3.2823794 15 0 0 0 31.994841
6.6958528 12.744188 3.3424513 20 0 0 0 32.389111
7.104485 12.742245 3.2097304 14.5 0 0 0 32.770531
7.6220503 12.907108 3.2983322 18.5 0 0 0 33.165951
8.2470894 12.847662 3.1740098 71.5 0 0 0 33.748154
9.3219519 12.719801 3.2812266 189 0 0 0 34.725327
10.535174 12.974164 3.4783521 138 0 0 0 35.509953
86.498009 12.84271 3.0364218 5 0 0 0 47.223713
10.134849 13.130816 3.4508579 16 0 0 0 35.118759
11.42469 13.373812 3.226258 6 0 0 0 35.897041
11.832454 13.178165 3.2498796 153 0 0 0 36.298672
13.349113 13.460924 3.2436767 68 0 0 0 37.071678
12.825803 13.589659 3.4283385 9 0 0 0 36.68391
14.912281 13.617233 3.2053833 133 0 0 0 37.861649
15.892056 13.806053 3.3413796 19 0 0 0 38.25425
16.741697 13.832936 3.4473894 56 0 0 0 38.648338
18.733587 13.977974 3.1298926 65 0 0 0 39.425518
17.907085 14.06276 3.0490043 53 0 0 0 39.035889
86.100113 14.954118 3.0334787 22 0 0 0 46.839607
26.704727 15.190695 3.3494804 42 0 0 0 41.366402
85.507629 17.025307 3.0255253 16 0 0 0 46.445042
84.944511 19.09421 3.0202694 16 0 0 0 46.050472
84.155052 21.101562 3.0086298 7 0 0 0 45.665798
83.452187 25.342049 3.0215297 5 0 0 0 44.889481
26.714987 -11.859734 3.9190848 128 0 0 0 56.206329
-0.28577185 -10.508432 3.9972329 196 0 0 0 74.973122
5.5821829 -10.521708 3.9619839 139 0 0 0 66.764954
26.513144 -10.998092 3.8495805 116 0 0 0 55.81358
-17.81065 -10.089575 3.7086403 62 0 0 0 91.401901
-14.280422 -10.053562 3.5976906 77 0 0 0 89.840073
-4.2354617 -10.183036 3.9124784 245 0 0 0 80.832321
-3.9122705 -10.094869 3.8415718 221 0 0 0 80.449326
-1.0553834 -10.452618 3.9922152 214 0 0 0 76.145157
-0.66764832 -10.430807 3.9735274 236.5 0 0 0 75.566406
-0.028447594 -10.440181 3.9709113 237 0 0 0 74.57798
2.7430596 -10.035837 3.7127323 248 0 0 0 70.287354
3.2197077 -10.268441 3.8409548 234.5 0 0 0 69.698196
4.7262774 -10.079694 3.7037809 256 0 0 0 67.549347
5.1246123 -10.263158 3.8162804 268 0 0 0 67.160233
8.3197346 -10.190439 3.7289431 249 0 0 0 63.634281
8.7197018 -10.158957 3.7950418 193 0 0 0 63.242329
10.563721 -10.098892 3.7783005 123 0 0 0 61.6768
26.268787 -10.147198 3.7776728 136 0 0 0 55.429779
-5.266686 -9.8178654 3.6781502 241 0 0 0 82.407761
-4.7280989 -9.6437387 3.5474672 321.5 0 0 0 81.815048
-3.5553813 -9.8833733 3.7281308 286 0 0 0 80.054001
-3.2647514 -9.8227224 3.6748333 268 0 0 0 79.657928
-2.8414044 -9.7230549 3.597712 304.5 0 0 0 79.073936
-2.32989 -9.716795 3.5502534 270 0 0 0 78.289993
-1.9540678 -9.7071047 3.5191014 329 0 0 0 77.708817
1.8886424 -9.6599627 3.5114589 327 0 0 0 71.462563
2.3056059 -9.8396568 3.6062422 244 0 0 0 70.876701
4.3436151 -9.8908253 3.5941243 275 0 0 0 67.93541
5.8292208 -9.7919092 3.5114515 344 0 0 0 65.983162
6.2638679 -9.9549055 3.6238976 189 0 0 0 65.591843
7.5817876 -9.7705231 3.5070512 151 0 0 0 64.029953
11.865745 -9.7733402 3.5959008 167 0 0 0 60.500729
3.3465743 -9.4531898 3.7054245 232.5 0 0 0 69.105453
26.119379 -9.3580856 3.7227247 135 0 0 0 55.04026
-6.8518739 -8.7615709 3.6706617 191 0 0 0 85.128761
5.48948 -8.7295914 3.6912923 94 0 0 0 65.591843
6.7274404 -8.6701622 3.9293785 30 0 0 0 64.029953
7.3316698 -8.5503292 3.7565308 31 0 0 0 63.242329
26.011347 -8.6036243 3.6766984 106 0 0 0 54.653912
-35.886303 -8.06178 3.9177992 11 0 0 0 96.070007
-7.2397432 -8.1750898 3.8715639 151.5 0 0 0 86.120461
-6.8529267 -8.3394032 3.8270264 163 0 0 0 85.528786
6.5656447 -8.0480194 3.7219782 75 0 0 0 63.634281
-7.7784872 -7.773109 3.8981242 102 0 0 0 87.102737
-7.4279981 -7.7950978 3.8174934 112 0 0 0 86.713791
28.61421 -7.924974 3.9814732 10 0 0 0 53.86652
-36.076645 -7.179626 3.9186327 19 0 0 0 96.46608
31.86068 -7.1629009 3.5702884 73 0 0 0 53.07666
33.714413 -6.7124438 3.7562826 56 0 0 0 52.689007
-36.228653 -6.290062 3.9176874 13 0 0 0 96.849998
35.650475 -6.18999 3.9516885 52 0 0 0 52.30621
43.028404 -5.3072405 3.6717217 45 0 0 0 51.520699
23.066639 -2.2661939 3.6922615 115 0 0 0 51.13232
23.496124 -1.7254027 3.7523007 14 0 0 0 50.738281
42.91927 0.010670041 3.6337717 7 0 0 0 49.566566
-25.042147 3.68644 3.8330772 27 0 0 0 1.95153
-15.383668 6.7541699 3.7723734 94 0 0 0 6.2432599
-15.265156 7.1508832 3.785032 83 0 0 0 6.6349301
-14.771008 7.3623195 3.7059906 97 0 0 0 7.0216899
-14.228555 7.0901132 3.9563289 92 0 0 0 7.0216899
-16.894554 7.9231701 3.7368152 43 0 0 0 6.6349301
-15.86862 7.9168248 3.5516667 62 0 0 0 7.0216899
-12.957869 10.002689 3.6796489 184 0 0 0 10.13704
-12.423538 10.080996 3.7919941 208 0 0 0 10.52653
-11.909698 10.153503 3.7104204 208.5 0 0 0 10.91865
-11.397443 10.204708 3.8144414 230 0 0 0 11.3139
-10.921803 10.267484 3.7388384 217 0 0 0 11.7006
-10.270554 10.133966 3.7775171 233 0 0 0 12.08327
-9.7537508 10.268914 3.6520348 187.33333 0 0 0 12.604115
-9.2208099 10.273109 3.7880015 237.5 0 0 0 13.06322
-8.6532307 10.380314 3.7102928 200 0 0 0 13.64748
-8.2749329 10.429728 3.8185155 236.5 0 0 0 14.03497
-7.6973777 10.459194 3.8864036 252 0 0 0 14.630119
-8.0157385 10.628035 3.6579087 195 0 0 0 14.43297
-7.6643806 10.693866 3.6169553 54 0 0 0 14.82727
-7.2516866 10.652596 3.699883 154.5 0 0 0 15.21241
