# .PCD v0.7 - Point Cloud Data file format
VERSION 0.7
FIELDS x y z intensity normal_x normal_y normal_z curvature
SIZE 4 4 4 4 4 4 4 4
TYPE F F F F F F F F
COUNT 1 1 1 1 1 1 1 1
WIDTH 911
HEIGHT 1
VIEWPOINT 0 0 0 1 0 0 0
POINTS 911
DATA ascii
-2.6841702 3.143959 -0.73119867 62.599998 0 0 0 13.65996
-2.2476859 3.3876214 -0.71992218 49 0 0 0 15.619165
1.9592662 3.4156444 -0.71190554 49 0 0 0 33.19627
2.2485857 3.232188 -0.71342117 45.166668 0 0 0 34.560085
2.628474 3.0690794 -0.73335743 75.5 0 0 0 36.126549
3.2568805 3.2602794 -0.72515339 104.83334 0 0 0 37.305447
3.928031 3.4623291 -0.70087641 231 0 0 0 38.282742
4.1182709 3.1986909 -0.69831467 197.25 0 0 0 39.263016
5.2433481 3.284647 -0.67993683 284.75 0 0 0 40.822479
6.9035115 3.4099908 -0.66262817 285.5 0 0 0 42.392735
7.1199918 3.0877571 -0.66801822 277.5 0 0 0 43.177525
9.7356777 3.2439744 -0.6389398 216 0 0 0 44.539623
15.447243 3.4891145 -0.61545134 73 0 0 0 46.10178
15.562879 3.1140978 -0.61681223 79 0 0 0 46.485081
-7.5575581 3.6401396 -0.72298002 244.5 0 0 0 6.8308649
-7.441906 3.9241304 -0.72504622 266 0 0 0 7.4173999
-5.6057949 3.6745708 -0.72979563 280.33334 0 0 0 8.9765167
-5.4220228 3.9420929 -0.72980058 266 0 0 0 9.7595301
-4.1485028 3.6648343 -0.72869134 186.33333 0 0 0 11.32224
-3.9084351 3.898798 -0.72688282 524 0 0 0 12.292205
-3.0468383 3.5883083 -0.72376305 151 0 0 0 13.65323
-2.7505279 3.7601376 -0.71701133 165 0 0 0 14.837997
-2.4066219 3.956558 -0.71305221 115 0 0 0 16.203129
-1.7553364 3.6121988 -0.71283799 56.5 0 0 0 17.764391
-1.2703621 3.7774434 -0.70892912 31 0 0 0 19.8181
-0.77349913 3.8951561 -0.70787388 27 0 0 0 21.86301
-0.28972688 3.9446354 -0.70702934 28.666666 0 0 0 23.818214
0.88929623 3.8498609 -0.64502394 39.333332 0 0 0 28.573786
1.2208198 3.7614949 -0.69646639 33.166668 0 0 0 29.934278
1.7222135 3.5975182 -0.72117901 53.799999 0 0 0 32.023521
2.3117044 3.8925316 -0.70952809 94.5 0 0 0 33.389168
2.7836945 3.675607 -0.72436744 162.2 0 0 0 35.145733
3.6790361 3.6741018 -0.69570351 344.75 0 0 0 37.306206
4.8082376 3.8205235 -0.67460418 377.33334 0 0 0 39.068127
5.01368 3.5927463 -0.67751873 261 0 0 0 39.847679
6.6398206 3.8086841 -0.65879929 317.66666 0 0 0 41.408466
9.3751431 3.9182012 -0.63243783 203 0 0 0 43.371738
9.5060787 3.6995296 -0.6349448 197 0 0 0 43.761581
15.273186 3.8479784 -0.61200941 82 0 0 0 45.701778
-7.2724404 4.2986698 -0.72821337 253.33333 0 0 0 8.1970491
-5.2058086 4.184546 -0.72718525 277 0 0 0 10.542014
-4.9852719 4.4218569 -0.72535121 307 0 0 0 11.32081
-3.6535397 4.1144371 -0.72485691 262.66666 0 0 0 13.266459
-3.2555125 4.3601837 -0.71705174 292 0 0 0 14.641027
-2.16277 4.0968928 -0.7142067 115.66666 0 0 0 17.178362
-1.7345911 4.2377281 -0.70692164 118 0 0 0 18.741735
-1.2488012 4.366179 -0.70200217 66.5 0 0 0 20.50209
-0.75521922 4.4425673 -0.69790083 45.599998 0 0 0 22.256336
-0.25971192 4.4630394 -0.69335181 66.5 0 0 0 24.015202
0.23295386 4.4249845 -0.68851113 35.200001 0 0 0 25.773748
0.73461467 4.2844725 -0.65569466 67 0 0 0 27.651264
1.3865359 4.2916579 -0.70433837 89 0 0 0 29.869946
1.7616184 4.1735096 -0.70890224 95.400002 0 0 0 31.242023
2.2601063 4.1353855 -0.68011487 64 0 0 0 32.803337
2.71136 4.1836567 -0.66428453 88.666664 0 0 0 33.973621
3.2632978 4.1862879 -0.71024358 218.5 0 0 0 35.3419
3.5566905 4.0200353 -0.71868199 343 0 0 0 36.325138
4.3535342 4.3338413 -0.6743778 289.5 0 0 0 37.305214
4.5522575 4.1028643 -0.67287123 281 0 0 0 38.087048
6.275806 4.249084 -0.65215635 389 0 0 0 40.238567
9.192461 4.2487206 -0.63040161 195.5 0 0 0 42.786728
15.029302 4.1833801 -0.60594606 82 0 0 0 45.314621
-9.9212513 4.7947292 -0.696253 375.5 0 0 0 6.8308649
-7.0330706 4.6312871 -0.72540635 290 0 0 0 8.9764004
-6.8296595 4.8622894 -0.72192025 269 0 0 0 9.5608006
-4.7508492 4.6445146 -0.72333574 314 0 0 0 12.098663
-4.4284391 4.8882203 -0.71784854 386 0 0 0 13.073074
-2.7801983 4.5934811 -0.70772392 258.25 0 0 0 16.203985
-2.2953937 4.7893696 -0.70044148 190 0 0 0 17.76478
-1.7834018 4.9551015 -0.69524455 245 0 0 0 19.392282
1.9865974 4.686121 -0.67756116 72 0 0 0 31.241159
2.2976508 4.6012673 -0.68577218 122 0 0 0 32.219116
3.7739682 4.8260503 -0.67220789 285.75 0 0 0 35.3419
4.1436005 4.5556488 -0.6759553 291 0 0 0 36.524086
5.823112 4.847796 -0.65217918 285.33334 0 0 0 38.67627
6.0565553 4.5541673 -0.65205795 278 0 0 0 39.458313
7.9416189 4.8101778 -0.57544357 104 0 0 0 41.01704
8.8633718 4.7822175 -0.62711865 256 0 0 0 41.801228
14.716496 4.6885424 -0.59978056 93 0 0 0 44.735931
-9.7474556 5.3104439 -0.70128465 176 0 0 0 7.6126251
-6.6161909 5.0833697 -0.71807373 295 0 0 0 10.14879
-6.3689871 5.2724991 -0.71111947 587.5 0 0 0 10.738625
-4.1653838 5.0724282 -0.71427798 650.5 0 0 0 13.85485
-3.7499413 5.3119111 -0.70770806 394 0 0 0 15.033381
-1.9080759 5.0517039 -0.71361262 197 0 0 0 19.136141
-1.2970854 5.0417867 -0.68764836 123.75 0 0 0 20.893993
-0.79031706 5.0955467 -0.68171781 90.25 0 0 0 22.450481
-0.28669715 5.1501627 -0.68301594 119.25 0 0 0 24.0152
0.21777558 5.1049576 -0.67724586 102.75 0 0 0 25.577351
0.71857148 5.050139 -0.67709345 147.75 0 0 0 27.145779
5.2762861 5.3606343 -0.64698035 522 0 0 0 37.111153
5.5665846 5.1219597 -0.65082526 287 0 0 0 37.891354
7.8730555 5.0385776 -0.57968378 122 0 0 0 40.633339
14.420774 5.1902742 -0.59504437 198 0 0 0 44.146999
-9.6035395 5.6962051 -0.70531982 195 0 0 0 8.1922197
-9.4976072 5.9508367 -0.70793283 149 0 0 0 8.5910797
-6.0949402 5.5661235 -0.70974541 288 0 0 0 11.516195
-5.6795745 5.8567824 -0.70098072 302 0 0 0 12.4887
-3.2435131 5.5409884 -0.69853717 333.66666 0 0 0 16.396688
-2.7870033 5.6739235 -0.68747038 310.33334 0 0 0 17.57029
-2.2748609 5.8464127 -0.68259913 303 0 0 0 18.937275
-1.7492818 5.9561005 -0.67542535 293.33334 0 0 0 20.308132
-1.4456283 5.9912634 -0.67046517 263 0 0 0 21.083969
0.4946056 5.9973493 -0.65604293 254 0 0 0 26.1656
0.79156584 5.9793506 -0.65817404 200.66667 0 0 0 26.950792
1.0834306 5.92344 -0.65728307 209 0 0 0 27.73073
4.7804394 5.7835188 -0.6452651 435.5 0 0 0 35.734402
7.9926748 5.9901114 -0.62234426 222 0 0 0 39.458313
8.2335567 5.7063432 -0.62411571 231 0 0 0 40.041183
14.204424 5.7140064 -0.59468842 145.5 0 0 0 43.566658
-13.61878 6.3954601 -0.60302848 178 0 0 0 6.6385002
-9.4985523 6.2794204 -0.7197715 107 0 0 0 8.9764004
-5.1857295 6.1941223 -0.69360763 344.66666 0 0 0 13.658053
-4.8850832 6.4492393 -0.69460696 342 0 0 0 14.44395
-1.2203957 6.0191665 -0.66828477 153 0 0 0 21.671379
-0.76937985 6.041934 -0.66314149 209.5 0 0 0 22.842155
-0.24593043 6.0347781 -0.65777344 219 0 0 0 24.210367
0.19904201 6.0194798 -0.65638071 335.33334 0 0 0 25.381271
7.7619944 6.2798095 -0.62230074 220 0 0 0 38.873032
13.79667 6.1528683 -0.58648556 95 0 0 0 42.983311
-12.522415 6.6408114 -0.56471902 200 0 0 0 7.4173999
-12.151094 6.8275018 -0.55417591 200 0 0 0 7.8078499
-11.719949 6.9651117 -0.54072237 386 0 0 0 8.1922197
-9.2764482 6.8034096 -0.72741586 269.33334 0 0 0 9.7567968
-4.6479836 6.6262159 -0.69500083 392 0 0 0 15.031845
-4.1856327 6.8142281 -0.68629956 449.33334 0 0 0 16.010714
-3.7248349 6.9837294 -0.67880309 421 0 0 0 16.982885
0.56518948 6.6931486 -0.57152027 78 0 0 0 26.1656
6.909863 6.9950008 -0.61223257 254 0 0 0 37.105701
7.2166476 6.7827635 -0.61700004 459 0 0 0 37.69804
7.5282559 6.5667439 -0.62263018 228 0 0 0 38.282742
-11.297033 7.0905995 -0.52766901 375 0 0 0 8.5910797
-10.700272 7.2701855 -0.5099932 428.5 0 0 0 9.1692352
-8.6739626 7.0350914 -0.70426399 549 0 0 0 10.54292
-8.2475929 7.2010264 -0.68928856 318.5 0 0 0 11.12757
-7.7335453 7.2657585 -0.66628629 323 0 0 0 11.71158
-7.2482963 7.3220911 -0.64540362 352 0 0 0 12.292205
-6.6564226 7.4107656 -0.62221181 350.5 0 0 0 13.073074
-6.226572 7.4627066 -0.60575503 426 0 0 0 13.65323
-5.9510522 7.4948826 -0.59567267 493 0 0 0 14.05647
-3.2750216 7.161284 -0.67535514 548.33331 0 0 0 17.959051
-2.7160594 7.3129997 -0.66884661 741.66669 0 0 0 19.133615
-2.2277222 7.3398972 -0.65699399 641 0 0 0 20.110785
-1.764071 7.4191513 -0.65321428 608 0 0 0 21.08885
-1.1955991 7.4021688 -0.64179975 306.66666 0 0 0 22.255676
-0.73208404 7.3820267 -0.63467205 220.5 0 0 0 23.2323
-0.27640367 7.3622894 -0.63039368 219.66667 0 0 0 24.210367
0.26358458 7.2925725 -0.62433642 422 0 0 0 25.381269
0.88780963 7.2247839 -0.6230129 266 0 0 0 26.755951
6.2755222 7.3747096 -0.60239959 221 0 0 0 35.927959
6.608448 7.2055273 -0.60863113 236 0 0 0 36.524086
-5.6955352 7.5421715 -0.58760744 491 0 0 0 14.44395
-5.3117557 7.5927143 -0.5751636 447.5 0 0 0 15.031845
-4.8176503 7.6528425 -0.56009924 529.5 0 0 0 15.81918
-4.2435136 7.7476068 -0.54606718 518.33331 0 0 0 16.786516
-3.677819 7.8094783 -0.53247428 482.5 0 0 0 17.76445
-3.2448971 7.8637886 -0.52410066 549 0 0 0 18.545834
-2.7216737 7.9368796 -0.51639766 469 0 0 0 19.523191
-2.3119881 7.9982557 -0.5119555 434 0 0 0 20.309429
5.8672247 7.6290121 -0.59850264 234 0 0 0 35.148968
6.0701041 7.5015163 -0.60018474 263 0 0 0 35.535542
-2.1033366 8.0045843 -0.50866812 440 0 0 0 20.702829
-1.7034482 8.0709333 -0.50696278 503.66666 0 0 0 21.475576
-1.2018778 8.1348286 -0.5052371 454.5 0 0 0 22.452011
-0.8023712 8.1995258 -0.50632656 429.5 0 0 0 23.2323
-0.29774609 8.2508535 -0.50764751 442 0 0 0 24.210365
0.21186535 8.3188143 -0.51201749 420.5 0 0 0 25.183754
26.003075 -4.5125465 -0.40462661 18 0 0 0 52.343311
-16.656775 -3.7393358 -0.26182446 87 0 0 0 96.147827
-5.2871552 -3.5244985 -0.22919969 356 0 0 0 90.295509
7.1855445 -3.5618689 -0.16296701 541 0 0 0 56.897076
8.9597559 -3.7276185 -0.12628144 114 0 0 0 55.856419
9.3055897 -3.604502 -0.13073 475 0 0 0 55.469528
12.366872 -3.7616467 -0.17979011 419 0 0 0 54.295647
26.842405 -3.9807534 -0.41681147 21 0 0 0 51.948368
-16.592001 -3.2994661 -0.25906146 94 0 0 0 96.532997
-6.6108356 -3.122308 -0.2677418 235 0 0 0 92.627663
-5.0802908 -3.1273601 -0.17584822 263.5 0 0 0 90.887184
-4.7574272 -3.2433586 -0.18354365 433.85715 0 0 0 90.126259
-4.2155952 -3.0634499 -0.34993228 282.33334 0 0 0 89.634819
-3.0721295 -3.1082191 -0.073998779 224 0 0 0 87.034035
-2.8335621 -3.134407 -0.1772138 91.63636 0 0 0 86.308144
2.4144394 -3.2105236 -0.15037392 32 0 0 0 64.228065
2.674536 -3.1627481 -0.17131332 75.36364 0 0 0 63.323875
3.8871646 -3.0680351 -0.22868407 457.5 0 0 0 60.154961
4.1741104 -3.1825836 -0.093334489 432 0 0 0 59.897873
4.7190146 -3.1269658 -0.15161216 602.83331 0 0 0 58.858154
5.6071277 -3.019773 -0.070463799 382 0 0 0 57.414112
6.3176184 -3.1043704 -0.42797494 638 0 0 0 56.832893
7.2556648 -3.3067961 -0.35816011 485.66666 0 0 0 56.374615
7.5778728 -3.2663026 -0.20334366 279 0 0 0 56.04908
8.414629 -3.262589 -0.33625099 841 0 0 0 55.469528
8.8191071 -3.1708415 -0.35042986 267 0 0 0 55.077526
9.6713657 -3.4739804 -0.13554811 183 0 0 0 55.077526
10.257841 -3.4016614 -0.27492809 258.5 0 0 0 54.69384
11.256941 -3.4271967 -0.4490374 199 0 0 0 54.295647
16.336948 -3.2535357 -0.24163209 96 0 0 0 52.738407
27.511122 -3.3907223 -0.42631626 17 0 0 0 51.557301
-16.368963 -2.8395627 -0.25369227 97 0 0 0 96.92601
-5.7277908 -2.8783867 -0.23168218 211 0 0 0 92.234947
-5.2403765 -2.8783429 -0.21454592 313.33334 0 0 0 91.660851
-4.7439418 -2.996721 -0.3349776 282 0 0 0 90.691833
-4.3135734 -2.9248827 -0.39373672 191.33333 0 0 0 90.164948
-3.6118228 -2.8558848 -0.28768721 103.66666 0 0 0 88.982422
-3.2247686 -2.8601599 -0.23099825 82.166664 0 0 0 88.070358
-2.9582307 -2.9435062 -0.3414211 39.666668 0 0 0 87.162987
2.8487959 -2.8431358 -0.18630312 43.555557 0 0 0 61.975185
3.2312484 -2.8117039 -0.2620396 56 0 0 0 60.910698
3.7444699 -2.8802323 -0.39127427 182.5 0 0 0 59.962143
4.1574812 -2.8967891 -0.32381028 210 0 0 0 59.222431
4.7441745 -2.9013588 -0.30292463 363.20001 0 0 0 58.281128
5.1579213 -2.911588 -0.2672267 316.79999 0 0 0 57.732105
5.5574422 -2.9942217 -0.38020512 487 0 0 0 57.414112
10.293413 -2.8587832 -0.27293944 786 0 0 0 53.90538
11.261288 -2.8295083 -0.29908943 443 0 0 0 53.518879
12.963794 -2.9171121 -0.18527028 273 0 0 0 53.120712
-16.203732 -2.4030128 -0.2495611 83 0 0 0 97.325211
22.569513 -2.2199836 -0.34170726 125 0 0 0 51.173512
29.215004 -2.1494284 -0.45221409 36 0 0 0 50.778881
30.067444 -1.4699137 -0.46556258 15 0 0 0 50.385326
-16.081676 2.3736579 -0.26574847 91 0 0 0 1.95206
-16.158176 2.7888458 -0.26806092 83 0 0 0 2.3371201
1.9852761 3.4596429 -0.32516691 3 0 0 0 33.19627
2.1955974 3.4459152 -0.23234393 84.166664 0 0 0 33.909176
0.89718837 3.9533222 -0.20561771 18.5 0 0 0 28.509171
1.8349997 3.6007326 -0.4052273 22 0 0 0 32.412086
2.147701 3.5285621 -0.28691497 38 0 0 0 33.584763
2.6481791 3.6885948 -0.20561694 74.25 0 0 0 34.755127
0.83486319 4.2793894 -0.20300771 73.428574 0 0 0 28.006121
8.2442541 4.3208451 -0.23333842 691.75 0 0 0 41.999413
8.8848658 4.2439675 -0.12753291 54 0 0 0 42.590141
9.1909084 4.3867006 -0.38344187 61 0 0 0 42.590141
0.77155256 4.7640796 -0.2594763 136.33333 0 0 0 27.470564
7.9473419 4.682303 -0.2309401 827.5 0 0 0 41.210953
0.69219238 5.3009672 -0.18477048 131.33333 0 0 0 26.95256
7.8974223 5.1948776 -0.23754969 197.5 0 0 0 40.434013
12.878505 5.3721242 -0.1963114 23 0 0 0 43.371738
0.62814504 5.858624 -0.20815526 192 0 0 0 26.55934
7.8068857 5.7058139 -0.24462768 1180.75 0 0 0 39.652996
12.528505 5.5935059 -0.19255729 23 0 0 0 42.983311
19.467491 5.9353948 -0.30294853 238 0 0 0 44.932846
0.53234267 6.3698235 -0.14991862 416.5 0 0 0 26.1656
7.7391996 6.2639165 -0.25336874 1253.5 0 0 0 38.873032
19.161758 6.3622723 -0.30042499 20 0 0 0 44.539021
28.634058 6.4555454 -0.45309645 14 0 0 0 46.10178
0.55474478 6.5889401 -0.39856791 83 0 0 0 26.1656
7.6459489 6.8385005 -0.26225996 1098.5 0 0 0 38.087048
19.054976 6.8522477 -0.30162522 34 0 0 0 44.146999
27.678091 6.9603729 -0.43968573 32 0 0 0 45.701778
-10.184185 7.4779963 -0.49656323 470 0 0 0 9.7595301
0.4293853 7.1098099 -0.25743848 34.666668 0 0 0 25.7763
7.5781355 7.2973714 -0.26984602 898.5 0 0 0 37.504726
19.025257 7.3753839 -0.30445674 261 0 0 0 43.761581
26.960846 7.4903522 -0.43055853 15 0 0 0 45.314621
-14.557584 7.7255363 -0.26398897 97 0 0 0 7.4173999
-11.417151 7.9666805 -0.21438576 409 0 0 0 9.3620701
-9.8469219 7.6053638 -0.48801631 526 0 0 0 10.14879
-9.3108845 7.7470522 -0.4735373 479.5 0 0 0 10.738625
-8.8715897 7.948245 -0.46451676 509 0 0 0 11.32081
-4.8356452 7.8948007 -0.12487395 321 0 0 0 16.01248
7.5171561 7.7951012 -0.27891928 105 0 0 0 36.914368
-14.218519 8.2252703 -0.26228032 264.5 0 0 0 8.0000343
-8.6326752 8.3239651 -0.46764383 531.5 0 0 0 11.90395
7.4341235 8.3001633 -0.15151452 631 0 0 0 36.325138
-13.769938 8.6535797 -0.25850824 259 0 0 0 8.5910797
-8.2482319 8.5544453 -0.31798035 319 0 0 0 12.48809
-7.7149549 8.8237286 -0.31192294 559.5 0 0 0 13.26446
-7.2639642 8.8701162 -0.25834897 373 0 0 0 13.787643
-6.7499509 8.5185871 -0.41856217 363 0 0 0 14.05647
-6.3135586 8.5907431 -0.28007975 363.75 0 0 0 14.639159
-5.8452468 8.7513514 -0.31896764 513.33331 0 0 0 15.361506
-5.0489631 8.7321339 -0.26195332 642.5 0 0 0 16.39378
-1.7640843 8.9488354 -0.34246445 595.5 0 0 0 21.671379
-1.3120623 8.9459753 -0.33901101 593 0 0 0 22.452011
7.4608998 8.7524366 -0.15771188 427 0 0 0 35.927959
-13.684478 9.0735846 -0.26092327 207 0 0 0 8.9764004
-10.321331 9.2590685 -0.21151139 293 0 0 0 11.32081
-9.88797 9.3137016 -0.20600505 296 0 0 0 11.71158
-9.4822416 9.3768206 -0.20113952 308 0 0 0 12.09632
-8.6046562 9.379591 -0.34223196 313.5 0 0 0 12.88169
-5.5494089 9.0898447 -0.40846831 675 0 0 0 16.01248
-5.1150575 9.3811359 -0.4096784 665 0 0 0 16.7838
-4.6968918 9.4151382 -0.40260673 740.5 0 0 0 17.375645
-4.1518879 9.4487047 -0.26860803 751.5 0 0 0 18.153915
-3.7515092 9.4643707 -0.26382196 1016.5 0 0 0 18.74342
-2.7714217 9.216877 -0.36398363 544.5 0 0 0 20.110785
-2.25418 9.0740128 -0.35223746 714.5 0 0 0 20.893398
-1.0204393 9.3607264 -0.12514865 684 0 0 0 23.034901
-0.7709927 9.1451635 -0.34465513 605 0 0 0 23.428057
-0.20749706 9.1580563 -0.34378538 651.5 0 0 0 24.405766
0.24894615 9.3161831 -0.35039645 583 0 0 0 25.183754
7.1037488 9.2136307 -0.44544348 356 0 0 0 35.148968
7.7469139 9.3063583 -0.46510416 284.5 0 0 0 35.73175
8.4167147 9.3810301 -0.48551282 247 0 0 0 36.325138
-6.2917337 9.7716446 -0.16757779 236 0 0 0 15.62588
-5.2531862 9.9246349 -0.15978146 487 0 0 0 16.982885
-4.8282237 9.9913692 -0.15710285 694 0 0 0 17.569321
-3.5491061 9.6385107 -0.26644534 417 0 0 0 19.136141
-3.290277 9.6599979 -0.38859612 446 0 0 0 19.52129
-13.690475 10.075555 -0.27067181 112 0 0 0 9.7595301
-13.127485 10.162621 -0.26290435 184 0 0 0 10.14879
-12.585582 10.242247 -0.25556943 239 0 0 0 10.54292
-11.966022 10.231027 -0.24628314 318 0 0 0 10.93433
-3.3229082 10.168617 -0.14902592 570 0 0 0 19.716715
-2.7979522 10.233685 -0.14711379 647.5 0 0 0 20.50613
-2.2795465 10.294943 -0.14564162 711 0 0 0 21.28186
-1.7673211 10.36575 -0.1448296 772 0 0 0 22.058876
-1.3829336 10.410968 -0.14437746 875 0 0 0 22.649281
-0.8717044 10.485345 -0.14444862 787 0 0 0 23.429701
-0.61428654 10.510156 -0.14443877 602 0 0 0 23.819571
-0.22685544 10.558248 -0.14484584 739.5 0 0 0 24.405766
0.29486465 10.626337 -0.14584228 656.5 0 0 0 25.183754
8.7424593 11.317764 -0.20578653 205 0 0 0 35.148968
9.0990791 11.196711 -0.20782129 401 0 0 0 35.535542
31.649448 -7.1037326 0.28689989 19 0 0 0 53.120712
37.944866 -5.6190252 0.33358389 67 0 0 0 51.948368
43.222931 -5.3182421 0.37388361 75 0 0 0 51.557301
-20.803867 -4.1407599 0.18381239 53 0 0 0 96.532997
-19.333506 -4.3437824 0.17399769 84 0 0 0 96.147827
12.930717 -4.2835336 0.48319861 140 0 0 0 54.69384
13.26082 -4.0302758 0.14415777 323 0 0 0 54.295647
17.048496 -4.2739487 0.17299762 744 0 0 0 53.518879
-20.610027 -3.5788851 0.18187328 55 0 0 0 96.92601
-7.2290401 -3.7457111 0.39422053 491.5 0 0 0 92.044151
-4.5245028 -3.5215402 0.35843027 227 0 0 0 89.111229
-4.428721 -3.6242363 0.35783723 517 0 0 0 88.7248
-3.1581123 -3.6179154 0.34089485 344.85715 0 0 0 86.040726
-2.7066634 -3.5641472 0.32437989 190.33333 0 0 0 84.936852
-2.2811613 -3.5734437 0.48207301 151 0 0 0 83.628159
1.3407396 -3.7868629 0.44279528 72.400002 0 0 0 69.081764
1.7798872 -3.6048203 0.40394965 40.200001 0 0 0 67.198318
2.120991 -3.5622649 0.41665393 42.799999 0 0 0 65.948982
2.9184918 -3.5157857 0.41168803 97 0 0 0 63.486771
3.2749562 -3.5678101 0.43437922 116.5 0 0 0 62.69458
3.7455041 -3.6026049 0.46379104 339 0 0 0 61.717876
4.1959529 -3.5951593 0.39857009 336.33334 0 0 0 60.810772
4.7480969 -3.5505838 0.37628236 512.33331 0 0 0 59.767223
6.8315644 -3.6725197 0.3531442 460.33334 0 0 0 57.417049
7.1135616 -3.6020453 0.49410647 1086 0 0 0 57.02544
7.5678401 -3.597275 0.10136266 420 0 0 0 56.64035
8.3318253 -3.7095339 0.10713713 247 0 0 0 56.241741
8.8338661 -3.6738565 0.11071882 131 0 0 0 55.856419
9.7347622 -3.9055262 0.24708307 411.5 0 0 0 55.662971
10.178488 -3.9413586 0.3945823 688 0 0 0 55.469528
10.738024 -3.8534343 0.12507488 232 0 0 0 55.077526
11.202881 -3.8645353 0.27589118 185 0 0 0 54.885681
-20.385477 -3.026675 0.17982565 41 0 0 0 97.325211
-7.1100831 -3.3597867 0.28749856 343.33334 0 0 0 92.627663
-5.0535755 -3.1991568 0.077749833 262 0 0 0 90.689957
-4.8491621 -3.2717052 0.2537097 276.22223 0 0 0 90.208702
-4.1570344 -3.2352874 0.23588657 216.25 0 0 0 89.108795
-3.7576485 -3.3017337 0.27758074 388.33334 0 0 0 88.156883
-3.3240376 -3.3432755 0.22309446 215.2 0 0 0 87.086823
-2.7942183 -3.3357899 0.16051452 158.85715 0 0 0 85.702087
-2.3730845 -3.3010314 0.24043347 123 0 0 0 84.510696
2.2990606 -3.2666018 0.16643317 60.333332 0 0 0 64.725067
2.7169535 -3.195504 0.19198953 88.818184 0 0 0 63.287521
3.0626512 -3.261054 0.29247144 291 0 0 0 62.49966
3.8385446 -3.3039572 0.19999623 291.75 0 0 0 60.840691
4.299859 -3.3035002 0.14654669 578.5 0 0 0 59.962147
4.758204 -3.2044945 0.15280573 316.66666 0 0 0 58.988186
5.1965122 -3.2737238 0.27588612 396.25 0 0 0 58.497856
5.8274302 -3.3870819 0.25468001 570 0 0 0 57.941772
6.2062082 -3.3393278 0.1788483 279 0 0 0 57.414112
6.783051 -3.4356 0.28605062 295 0 0 0 57.02544
7.1193309 -3.2798579 0.39009854 541.75 0 0 0 56.441048
15.541895 -3.0928926 0.16026399 11 0 0 0 52.738407
42.667999 -3.1320641 0.36869821 80 0 0 0 50.778881
-5.6972628 -2.8650665 0.080437206 116 0 0 0 92.234947
-5.1441998 -2.8432729 0.19307336 486.39999 0 0 0 91.622337
-4.992878 -2.9869828 0.29217488 390.5 0 0 0 91.084404
-3.2876387 -2.8248472 0.066492647 75.666664 0 0 0 88.329079
2.8725588 -2.868365 0.16925454 61.666668 0 0 0 61.978317
3.0682967 -2.7720101 0.10233279 47.333332 0 0 0 61.197292
10.30619 -2.8606534 0.2545037 831.5 0 0 0 53.90538
11.42343 -2.8694046 0.42388141 469 0 0 0 53.518879
13.29705 -2.9921889 0.48446855 228 0 0 0 53.120712
22.573376 -2.2165432 0.21361224 133 0 0 0 51.173512
42.376015 -2.0651686 0.36623052 93 0 0 0 50.385326
42.138603 -1.016436 0.36433649 85 0 0 0 49.999722
43.134403 0.019856717 0.37211344 22 0 0 0 49.610046
42.475731 1.0638939 0.36726722 47 0 0 0 49.223221
51.901581 2.5756786 0.44054914 35 0 0 0 48.827259
-20.513403 3.0268939 0.15232573 49 0 0 0 1.95206
1.979943 3.4528759 0.16839522 83 0 0 0 33.19627
2.1396885 3.4568145 0.10313424 45.666668 0 0 0 33.71508
-20.682905 3.569752 0.15420383 38 0 0 0 2.3371201
0.97952592 3.8768146 0.2656576 93 0 0 0 28.89946
1.760162 3.6745937 0.2713379 34 0 0 0 32.025288
2.2772882 3.6715412 0.21604086 64.166664 0 0 0 33.713131
51.999821 3.8634369 0.4419544 19 0 0 0 48.438278
0.84566456 4.2779789 0.17702775 93.666664 0 0 0 28.053244
8.2260923 4.4456964 0.11018001 617 0 0 0 41.803501
8.55723 4.3535576 0.11222681 327 0 0 0 42.195328
0.80910009 4.8164182 0.31594378 157 0 0 0 27.562809
1.1041195 4.5474 0.4206537 9 0 0 0 28.704315
2.4236112 4.9981699 0.49395537 26 0 0 0 32.026939
7.9594612 4.8250494 0.10953862 1222 0 0 0 41.01704
8.0592976 4.6170177 0.10955261 1222 0 0 0 41.404861
0.68295991 5.2491055 0.27214009 149.5 0 0 0 26.95256
7.8623676 5.174901 0.11007 1309 0 0 0 40.434013
8.5536356 5.4722056 0.37039089 67 0 0 0 40.633339
13.075729 5.4566584 0.14748859 12 0 0 0 43.371738
51.715782 5.122961 0.44058576 47 0 0 0 48.053329
0.62683564 5.8599625 0.22832657 267.33334 0 0 0 26.55934
7.8538322 5.7418251 0.23484722 869.75 0 0 0 39.652996
8.1795444 5.5240717 0.36095136 64 0 0 0 40.234688
12.369627 5.7093682 0.14306174 243.5 0 0 0 42.786728
19.621679 5.9860501 0.19683054 51 0 0 0 44.932846
0.53053409 6.3660693 0.16383876 423 0 0 0 26.1656
7.7487173 6.2740293 0.23896539 684.5 0 0 0 38.873032
12.284981 6.2290378 0.48899335 64 0 0 0 42.195328
12.688375 6.0439491 0.49834675 15 0 0 0 42.590141
19.189331 6.3752298 0.19438162 208 0 0 0 44.539021
0.41971222 6.9969344 0.26307911 151 0 0 0 25.7763
0.55483592 6.6100321 0.41328636 243 0 0 0 26.1656
7.6597867 6.7969527 0.20108573 1061.6666 0 0 0 38.152279
12.221146 6.7763352 0.49517977 84 0 0 0 41.604179
19.088818 6.8682666 0.19467619 299 0 0 0 44.146999
-11.265235 7.0641189 0.11843427 219 0 0 0 8.5910797
-10.813998 7.3440485 0.11772269 327 0 0 0 9.1692352
0.43086323 7.1629567 0.089614995 205 0 0 0 25.7763
7.6306419 7.2315044 0.29297534 1042.3334 0 0 0 37.633602
19.011127 7.3739057 0.19524136 347 0 0 0 43.761581
-11.328326 7.9031358 0.46435738 295 0 0 0 9.3620701
-8.8207779 7.8968458 0.25899574 508.5 0 0 0 11.32081
-5.6202846 7.8309684 0.33976769 680 0 0 0 14.83437
-5.0236034 7.7655258 0.09917976 801 0 0 0 15.62588
-4.631052 7.7669716 0.21067329 943 0 0 0 16.203129
-4.386497 7.8558965 0.17313911 827 0 0 0 16.653793
7.4519477 7.9229341 0.11974149 1085 0 0 0 36.72303
7.5562344 7.6461554 0.25449371 1001 0 0 0 37.105701
-11.08731 8.1437006 0.46309578 153 0 0 0 9.7595301
-8.6696968 8.1515522 0.2580823 436.5 0 0 0 11.71158
-7.7480154 8.4314613 0.39475051 423 0 0 0 12.88169
-5.3314528 8.2571983 0.34640202 591.66669 0 0 0 15.62256
-4.194768 8.126503 0.21393409 770.5 0 0 0 17.181971
-1.2478135 8.4563656 0.31050876 688.5 0 0 0 22.452011
7.4294004 8.2981339 0.12156468 821 0 0 0 36.325138
7.597611 8.0734901 0.39898184 754 0 0 0 36.72303
-8.6747932 8.5682878 0.41711959 324 0 0 0 12.09632
-7.7627034 8.873621 0.11369207 545 0 0 0 13.26446
-7.2647114 8.9406548 0.11247185 614 0 0 0 13.85485
-1.5858665 8.5641184 0.31528792 640 0 0 0 21.86301
-0.93890715 8.5288324 0.31185323 551 0 0 0 23.034901
7.4535909 8.7473431 0.12406068 584 0 0 0 35.927959
7.6202555 8.5061703 0.40965012 250 0 0 0 36.325138
-9.5067463 9.3974934 0.12247515 212 0 0 0 12.09632
-9.0771065 9.4208612 0.28288737 249.5 0 0 0 12.48809
-8.7179937 9.4988537 0.12026601 372 0 0 0 12.88169
-8.3003941 9.4994888 0.43151033 416 0 0 0 13.26446
-4.1975079 9.4417868 0.27855715 511 0 0 0 18.089136
-3.7526817 9.4608936 0.23337023 792 0 0 0 18.74342
-1.0165414 9.3020544 0.10375238 422 0 0 0 23.034901
-0.55186081 9.2316122 0.33355775 647 0 0 0 23.819571
-0.32806593 9.3698626 0.33784217 659 0 0 0 24.20537
6.8416672 9.1106396 0.26477993 613.5 0 0 0 34.952049
7.6042724 9.3753748 0.43039683 506 0 0 0 35.535542
8.0889111 9.481369 0.44321322 500 0 0 0 35.927959
32.603733 9.0592556 0.29945686 15 0 0 0 45.314621
-17.352585 9.7666473 0.15633106 56 0 0 0 7.8078499
-16.562632 9.8603506 0.15322061 97 0 0 0 8.1922197
-11.630602 9.9375725 0.13309701 238 0 0 0 10.93433
-7.7538996 9.5541973 0.42243218 319 0 0 0 13.85485
-7.2065353 9.5732594 0.26389283 473 0 0 0 14.44395
-6.7848616 9.7316799 0.11558384 310 0 0 0 15.031845
-4.8232918 9.977562 0.24959558 536 0 0 0 17.569321
-4.069737 9.5732441 0.10831828 512 0 0 0 18.348249
-0.80960327 9.6373444 0.34681299 405 0 0 0 23.429701
7.0833182 9.6757259 0.12732972 22 0 0 0 34.755127
7.627871 9.8898315 0.44373441 331 0 0 0 35.148968
-19.377005 10.296858 0.16752639 20 0 0 0 7.4173999
-13.132301 10.162115 0.14008504 251 0 0 0 10.14879
-12.566343 10.222211 0.13811795 253 0 0 0 10.54292
-3.7006726 10.054875 0.24327208 317 0 0 0 19.136141
-3.3255765 10.172647 0.24371997 559.75 0 0 0 19.716715
-2.8029265 10.247251 0.24272822 522 0 0 0 20.506128
-2.2829039 10.30356 0.24203178 557.5 0 0 0 21.28186
-1.7764454 10.409737 0.11150955 459 0 0 0 22.058876
-1.3915733 10.463679 0.11177673 333 0 0 0 22.649281
-0.87257874 10.468604 0.11181251 702 0 0 0 23.429701
-14.769368 10.871187 0.15001489 83 0 0 0 9.7595301
-0.61808753 10.544375 0.11239364 336 0 0 0 23.819571
-0.18560271 10.583415 0.20066488 414.33334 0 0 0 24.472565
0.29347453 10.629433 0.24585102 460.5 0 0 0 25.183754
9.6668177 11.893372 0.15210712 180 0 0 0 35.535542
-26.67041 -5.3035364 0.90399498 25 0 0 0 96.532997
13.8683 -4.5932922 0.8740077 100 0 0 0 54.69384
16.033903 -4.8736591 0.58563751 110 0 0 0 54.295647
-28.2302 -4.1861815 0.94731867 16 0 0 0 97.325211
-18.99332 -4.2638612 0.65716946 113 0 0 0 96.147827
-6.7641296 -4.0500789 0.77063316 293 0 0 0 91.084404
-4.710773 -4.1547384 0.85111874 787.5 0 0 0 88.131226
-4.3032274 -4.2958479 0.90176749 709 0 0 0 87.166031
-2.9852788 -4.4429145 0.99443489 426 0 0 0 84.017059
-2.3269114 -4.3180475 0.91434503 740 0 0 0 82.458626
-1.424644 -4.4224625 0.98265606 346.5 0 0 0 79.528893
-0.52103674 -4.0097818 0.86026043 111 0 0 0 76.598541
-0.21219552 -4.1014123 0.90768743 112.83334 0 0 0 75.359245
0.3418906 -4.0632868 0.87014985 96.75 0 0 0 73.171356
0.74703979 -4.0702639 0.78830981 101.92308 0 0 0 71.628899
1.2453289 -4.2105951 0.86767918 160.75 0 0 0 69.94162
1.7071997 -4.2051916 0.93539846 182.14285 0 0 0 68.375992
3.2405434 -4.0954404 0.88321579 375.75 0 0 0 63.876694
3.6917181 -4.0160799 0.88740218 522.5 0 0 0 62.69458
4.9347405 -4.082634 0.87725645 819 0 0 0 60.547848
5.2747664 -4.0411987 0.9091208 819 0 0 0 59.962143
7.3337493 -4.17729 0.93692654 543 0 0 0 57.8116
7.6932311 -4.1332035 0.7553708 608 0 0 0 57.414112
10.108569 -4.2037487 0.66433471 144 0 0 0 55.856419
11.191022 -4.3319173 0.72461176 183 0 0 0 55.469528
11.940282 -4.2858572 0.76402545 188 0 0 0 55.077526
-7.5527029 -3.7992623 0.72179276 387 0 0 0 92.234947
-7.2726798 -3.7106853 0.69464082 418.75 0 0 0 92.142334
-6.9008245 -3.9056776 0.77508062 365 0 0 0 91.468323
-5.9521527 -3.7656257 0.95028633 670 0 0 0 90.691833
-4.5527382 -3.6360319 0.65023839 399.66666 0 0 0 88.918007
-4.0939212 -3.5213289 0.60413224 194 0 0 0 88.323326
-3.7016823 -3.7786379 0.65815824 462.5 0 0 0 86.969559
-3.2712486 -3.7083831 0.73206276 358.09091 0 0 0 86.127647
-2.7030666 -3.603436 0.7430011 204.89999 0 0 0 84.843933
-2.3194377 -3.7071629 0.76310736 227 0 0 0 83.484177
-1.774599 -3.5940347 0.75335014 60 0 0 0 81.876694
-1.0865963 -3.8408108 0.80067945 42 0 0 0 78.935356
-0.7970503 -3.8835647 0.84426391 81 0 0 0 77.766403
-0.02880325 -3.9418817 0.84022456 66 0 0 0 74.640282
0.16528362 -3.9563935 0.84437102 51.333332 0 0 0 73.851967
0.96135849 -3.9698906 0.66988683 178 0 0 0 70.730896
1.2855476 -3.8741894 0.6329022 123.5 0 0 0 69.403847
1.6799029 -3.8698359 0.68087232 116.625 0 0 0 67.983414
2.3017087 -3.868336 0.77234399 117.15385 0 0 0 65.966728
2.714725 -3.7552216 0.66199189 154.28572 0 0 0 64.546158
3.2670493 -3.722321 0.63853657 261.39999 0 0 0 63.050438
3.7350106 -3.6968849 0.69106644 347.71429 0 0 0 61.942619
4.2574449 -3.7381134 0.7116912 422.16666 0 0 0 61.002934
4.6531873 -3.6015766 0.56841987 340 0 0 0 60.026417
5.2593656 -3.7333388 0.64606887 527.5 0 0 0 59.378521
5.7521439 -3.7340605 0.71223539 448.33334 0 0 0 58.728119
6.2708645 -3.7831218 0.72927326 506 0 0 0 58.202122
6.6540375 -3.7923515 0.66719532 547 0 0 0 57.8116
7.392108 -3.7407358 0.71898097 527 0 0 0 57.02544
-27.978701 -3.4495752 0.93636274 28 0 0 0 97.713287
-5.1119752 -3.3370156 0.64837134 360.39999 0 0 0 90.454033
-4.7142792 -3.4002037 0.64817864 340.83334 0 0 0 89.702065
-3.7300658 -3.4531412 0.57074177 601.5 0 0 0 87.747528
-2.1092343 -3.4889257 0.61489296 74 0 0 0 83.245171
-1.9924957 -3.4844236 0.60600984 68.5 0 0 0 82.853317
7.100625 -3.2706876 0.68123013 714.5 0 0 0 56.441048
13.371051 -3.0089481 0.82355803 58 0 0 0 53.120712
10.315545 -2.8644216 0.65184748 759 0 0 0 53.90538
11.495101 -2.8874874 0.71751112 396 0 0 0 53.518879
22.609327 -2.2242334 0.78230304 112 0 0 0 51.173512
-26.825769 3.9660637 0.86045378 48 0 0 0 1.95206
-25.407255 4.392487 0.82058161 87 0 0 0 2.3371201
0.88327771 4.9216352 0.56758362 203 0 0 0 27.73073
0.92947721 5.1597481 0.7220667 325 0 0 0 27.73073
2.1459162 5.4092999 0.79995787 5 0 0 0 30.84639
1.0157666 5.5956678 0.92063171 24 0 0 0 27.73073
0.80610687 6.0954299 0.83938456 19 0 0 0 26.95256
7.9409657 6.2660751 0.61689955 1072 0 0 0 39.065792
8.2426329 6.1786046 0.62773794 11 0 0 0 39.458313
8.8108072 6.2675195 0.65710455 23 0 0 0 39.847679
0.71993077 6.6265211 0.74269295 550 0 0 0 26.55934
7.7949519 6.6340041 0.62359941 13 0 0 0 38.481506
12.744101 6.8601246 0.86702335 7 0 0 0 41.803501
7.7514982 7.2859521 0.64622897 394 0 0 0 37.69804
12.229543 7.179584 0.67608833 75 0 0 0 41.210953
19.210716 7.4472666 0.71254593 227 0 0 0 43.761581
-14.875987 7.8942013 0.96442884 145 0 0 0 7.4173999
-11.934212 7.6950727 0.82041788 267 0 0 0 8.78374
-11.272658 7.8634477 0.79590458 220 0 0 0 9.3620701
-8.5908356 7.6859751 0.95963609 522 0 0 0 11.32081
-8.1740971 7.8681955 0.94582999 349 0 0 0 11.90395
-5.6296082 7.8437109 0.57456493 919 0 0 0 14.83437
-5.1547408 7.8295379 0.63668799 787.33331 0 0 0 15.493693
-4.8244843 7.8727612 0.66671968 873.5 0 0 0 16.01248
-14.466304 8.1344223 0.95153463 154 0 0 0 7.8078499
-11.048711 8.1145811 0.79443032 397 0 0 0 9.7595301
-7.9097891 8.1957312 0.66892022 611 0 0 0 12.48809
-4.5983748 8.1660271 0.67594373 712 0 0 0 16.588791
19.923843 8.2921371 0.74412721 3 0 0 0 43.371738
-8.3197651 8.6227636 0.99778074 214 0 0 0 12.48809
-7.9896226 8.6974955 0.69275445 234 0 0 0 12.88169
-1.6179881 8.7477007 0.5380367 683 0 0 0 21.86301
-1.2614909 8.5530729 0.5244168 791 0 0 0 22.452011
-0.88095182 8.6555872 0.6716488 321.66666 0 0 0 23.166498
13.133118 8.8355503 0.94302255 9 0 0 0 40.234688
20.166199 8.9809904 0.7599622 5 0 0 0 42.983311
-16.534479 9.3065319 0.62151206 44 0 0 0 7.8078499
-1.0205793 9.335227 0.79981655 527 0 0 0 23.034901
-0.5669269 9.4936199 0.81023872 449 0 0 0 23.819571
6.2479515 9.4908619 0.96924096 429 0 0 0 33.974361
6.8750391 9.3938751 0.84645575 420 0 0 0 34.755127
7.1568375 9.2900438 0.9997533 158 0 0 0 35.148968
-16.252743 9.6778708 0.62038416 72 0 0 0 8.1922197
-0.81408805 9.6681261 0.82547206 499 0 0 0 23.429701
-0.33589542 9.5989103 0.81824219 532 0 0 0 24.20537
5.8665919 9.9449825 0.98367751 454 0 0 0 33.19627
6.018096 9.6518621 0.96991324 499 0 0 0 33.585442
6.6542568 9.5811777 0.99420267 396 0 0 0 34.361061
8.9470243 9.9709358 0.80239791 222 0 0 0 36.325138
64.608635 9.6215115 0.54344571 23 0 0 0 47.268368
-19.078449 10.140917 0.70192814 27 0 0 0 7.4173999
-15.974501 10.048514 0.61969358 114 0 0 0 8.5910797
-15.453514 10.254483 0.61026728 61 0 0 0 8.9764004
-13.098419 10.138395 0.75180352 270.5 0 0 0 10.14879
-12.549599 10.211173 0.73577976 267.5 0 0 0 10.54292
-12.033199 10.287436 0.72124344 233.5 0 0 0 10.93433
-11.524442 10.347739 0.89543164 303 0 0 0 11.32081
-10.809691 10.189493 0.86077476 199 0 0 0 11.71158
-10.360511 10.253311 0.84580088 265 0 0 0 12.09632
6.8522987 10.391768 0.74719745 383 0 0 0 33.974361
7.0124874 10.086123 0.73816675 405 0 0 0 34.361061
8.1107292 10.249533 0.78341275 101 0 0 0 35.342255
-9.2696543 10.622409 0.82072848 81 0 0 0 13.26446
-8.7696037 10.556046 0.80033445 203 0 0 0 13.65323
-8.2667418 10.723818 0.79089075 217 0 0 0 14.25021
-3.7307544 10.983499 0.68791801 69 0 0 0 19.52129
-3.259654 10.887037 0.67532563 60 0 0 0 20.110785
-2.6706698 10.818083 0.66360247 68 0 0 0 20.893398
-2.2535386 10.822939 0.65915006 61 0 0 0 21.47975
-0.63079345 10.828181 0.64937949 69 0 0 0 23.819571
-0.23151159 10.850611 0.65024745 75 0 0 0 24.405766
0.30525729 10.932405 0.65554667 68.5 0 0 0 25.183754
0.71345067 10.991218 0.66030359 81 0 0 0 25.7763
10.161917 10.768255 0.88268977 236 0 0 0 36.72303
10.525799 10.616002 0.89104688 208 0 0 0 37.105701
-5.6436224 11.005051 0.72862524 403 0 0 0 17.181971
-5.1907635 11.104444 0.72312081 185.5 0 0 0 17.76445
-4.7003651 11.098409 0.71216816 100 0 0 0 18.348249
-4.2279816 11.095028 0.70272785 82 0 0 0 18.939781
-3.8056934 11.202623 0.99416792 474 0 0 0 19.52129
-3.2538424 11.381302 0.99554598 76 0 0 0 20.309429
-2.8219762 11.443457 0.9921397 265.5 0 0 0 20.893398
-2.3893867 11.493278 0.98888111 433 0 0 0 21.47975
-2.1078725 11.554792 0.989829 127 0 0 0 21.86301
-1.6815521 11.626359 0.99066955 144.5 0 0 0 22.452011
-0.10073299 11.797619 0.99685955 56 0 0 0 24.606159
0.18979785 11.823042 0.99938369 63 0 0 0 24.990379
61.384926 13.827264 0.52402836 19 0 0 0 46.10178
86.284912 15.01932 0.71496171 13 0 0 0 46.875233
-11.77465 -5.5676265 1.4091898 281 0 0 0 92.627663
-7.5488577 -5.5937805 1.4883809 613 0 0 0 89.500305
-5.5639238 -5.5528035 1.4446942 827 0 0 0 87.162979
-1.5472544 -5.5105767 1.4828292 673 0 0 0 78.935356
37.971188 -5.6300488 1.2933954 74 0 0 0 51.948368
-10.037049 -5.0501413 1.22031 473 0 0 0 92.234947
-9.0407877 -5.4171381 1.4053805 601 0 0 0 91.084404
-6.6947842 -5.3494415 1.3605161 785 0 0 0 88.918015
-5.9319592 -5.1089635 1.2456689 808 0 0 0 88.323326
-3.2910461 -5.3190966 1.3881044 686 0 0 0 83.435188
-2.7344322 -5.3902926 1.4150659 769.33331 0 0 0 82.070671
-2.268456 -5.2451897 1.3398352 798.5 0 0 0 81.091187
-1.9080918 -5.0757189 1.2732682 606 0 0 0 80.308411
-1.2324227 -5.3737206 1.4300081 532 0 0 0 78.155769
-0.79073828 -5.158896 1.3558292 606.66669 0 0 0 76.987755
1.7374167 -5.1447802 1.4135003 569 0 0 0 69.353485
2.152498 -5.2787032 1.4827585 500 0 0 0 68.377426
2.9878356 -5.0450382 1.3819637 661 0 0 0 66.027473
3.3536115 -5.2082605 1.458425 680.5 0 0 0 65.443253
3.9133708 -5.0638924 1.3495656 735 0 0 0 64.07386
4.0770445 -5.0151587 1.3629037 746 0 0 0 63.686119
4.5799856 -5.3544335 1.4824493 673 0 0 0 63.287418
5.4393497 -5.2160363 1.3982282 853 0 0 0 61.712608
6.3798752 -5.009376 1.3017938 892 0 0 0 60.154961
6.914084 -5.1565204 1.3819298 670 0 0 0 59.769329
7.5439873 -5.3399549 1.4782062 666 0 0 0 59.377369
9.4810638 -5.3908901 1.4676522 479 0 0 0 57.8116
10.986737 -5.2136278 1.3328738 468 0 0 0 56.64035
14.738703 -5.2839494 1.3243361 173 0 0 0 55.077526
43.176369 -5.3205338 1.460906 64 0 0 0 51.557301
-20.662062 -4.6384749 1.2298075 93 0 0 0 96.147827
-5.2555361 -4.7541003 1.1307323 640 0 0 0 87.939133
-4.7937517 -4.6631465 1.0690136 893.5 0 0 0 87.359451
-2.735446 -4.9338574 1.1849799 613.5 0 0 0 82.655975
-2.2901304 -4.7955794 1.1185638 616 0 0 0 81.681175
-1.7181488 -4.7578688 1.1310934 506 0 0 0 80.112656
-1.2263674 -4.7980919 1.1665076 444.66666 0 0 0 78.54715
-0.74442041 -4.679122 1.1489379 402.5 0 0 0 77.082443
-0.20693061 -4.8352151 1.2605621 452.25 0 0 0 75.229263
0.26124975 -4.7370296 1.2371603 300.25 0 0 0 73.656227
0.74414521 -4.8050451 1.2680262 405.75 0 0 0 72.095901
1.3072037 -4.8488045 1.28668 446.39999 0 0 0 70.334152
1.8533045 -4.5548248 1.163672 346.66666 0 0 0 68.377304
2.2327125 -4.7945514 1.2491039 320 0 0 0 67.590401
2.7601614 -4.9356146 1.3339013 518 0 0 0 66.414459
3.2345185 -4.7679586 1.218287 472.5 0 0 0 65.049454
3.5454357 -4.8322763 1.2661138 758 0 0 0 64.459381
4.4709358 -4.7373562 1.2135698 964 0 0 0 62.49966
4.9188824 -4.9582262 1.2985382 800 0 0 0 62.116207
5.5807228 -4.6124725 1.1661367 1033 0 0 0 60.547848
6.7087045 -4.5084591 1.0975927 612 0 0 0 58.990021
7.4101706 -4.7163129 1.189484 621 0 0 0 58.597168
8.2922792 -4.9921851 1.3068463 566 0 0 0 58.202122
9.7498732 -4.9267764 1.2011957 552 0 0 0 57.02544
10.992449 -4.5676389 1.0161679 154 0 0 0 55.856419
12.48648 -4.8290877 1.1380582 86 0 0 0 55.469528
-1.6179452 -4.4603677 1.0024824 375 0 0 0 80.116203
-0.57542604 -4.4579487 1.0621718 405 0 0 0 76.598541
-0.34990153 -4.3737969 1.0381356 322 0 0 0 75.815338
0.28846085 -4.303 1.0220009 192 0 0 0 73.459602
0.72173947 -4.3272858 1.0402977 276.39999 0 0 0 71.900009
1.2027888 -4.461741 1.0944128 309 0 0 0 70.334167
1.5710528 -4.4852176 1.1250722 444 0 0 0 69.155136
3.4205821 -4.3220367 1.0322006 712.5 0 0 0 63.87999
3.7162063 -4.3536968 1.0707792 735 0 0 0 63.287418
4.0277681 -4.4874597 1.1261402 744 0 0 0 62.8895
4.6885443 -4.2856374 1.0276197 378 0 0 0 61.324821
5.0396209 -4.3815851 1.0785351 1004 0 0 0 60.94223
6.312623 -4.4733505 1.0520933 801 0 0 0 59.377369
8.0747824 -4.3371754 1.0142791 445 0 0 0 57.414112
-6.1003876 -3.6534843 1.3974299 176 0 0 0 91.084404
-5.9788947 -3.7825215 1.3033634 528.66669 0 0 0 90.691833
-2.7322295 -3.5713606 1.256004 223.44444 0 0 0 85.00145
-2.2369101 -3.6024342 1.0533783 235.5 0 0 0 83.436661
42.649899 -3.1385124 1.4375461 78 0 0 0 50.778881
22.577509 -2.2212713 1.337857 138 0 0 0 51.173512
42.467068 -2.0772963 1.4297559 92 0 0 0 50.385326
42.110161 -1.0233229 1.4170804 87 0 0 0 49.999722
43.079659 0.012126829 1.4485612 20 0 0 0 49.610046
-25.383669 3.7518008 1.4408282 63 0 0 0 1.95206
-25.1754 4.3518019 1.4354153 60 0 0 0 2.3371201
-11.009664 6.9010129 1.0738542 492 0 0 0 8.5910797
-11.849106 7.0347657 1.1363894 208 0 0 0 8.1922197
-11.299144 7.0837898 1.4224112 469 0 0 0 8.5910797
-10.748024 7.2971492 1.2315563 283 0 0 0 9.1692352
-14.390388 7.6309638 1.3363639 290 0 0 0 7.4173999
-10.5797 7.762989 1.401861 334 0 0 0 9.7595301
-8.6938181 7.7788076 1.2516489 259 0 0 0 11.32081
-8.3486853 7.8429928 1.2300851 553 0 0 0 11.71158
-5.6786604 7.9059968 1.2910172 702 0 0 0 14.83437
-10.777804 8.3232069 1.4543078 315 0 0 0 10.14879
-7.698082 8.1689444 1.2073996 481 0 0 0 12.68489
-5.4897799 8.0509624 1.2929232 426 0 0 0 15.22932
-4.6054506 8.1695814 1.4777188 787.5 0 0 0 16.588791
-11.615758 8.5314674 1.1895019 93 0 0 0 9.7595301
-7.499301 8.5662947 1.2249629 463 0 0 0 13.26446
-5.1051974 8.82271 1.1039196 363 0 0 0 16.39378
-1.2920694 8.735487 1.2947783 668 0 0 0 22.452011
-0.79224443 8.6243773 1.2171113 645.5 0 0 0 23.329769
-0.3230584 8.992588 1.4298218 747 0 0 0 24.20537
1.9110793 8.9524937 1.4586766 649 0 0 0 28.11628
2.1959238 8.7062979 1.4322226 527 0 0 0 28.704315
2.6514096 8.6755695 1.4475313 573.5 0 0 0 29.47518
-5.5075307 9.0050344 1.3992453 563 0 0 0 16.01248
-5.3154049 9.1891365 1.4075936 264 0 0 0 16.39378
-1.7034551 9.2148237 1.4843138 729 0 0 0 21.86301
-1.2254962 9.0950108 1.4554133 454 0 0 0 22.649281
-0.54513073 9.0070696 1.4332048 645 0 0 0 23.819571
-0.33412081 9.4420023 1.2662135 194 0 0 0 24.20537
7.5926876 9.3654194 1.1722741 311.5 0 0 0 35.535542
5.8964157 9.9952288 1.2709688 635 0 0 0 33.19627
6.0626454 9.7226877 1.2557386 582 0 0 0 33.585442
-16.875803 10.05068 1.1206952 41 0 0 0 8.1922197
-13.079036 10.118707 1.3608651 255 0 0 0 10.14879
-12.534378 10.194131 1.3309675 275 0 0 0 10.54292
-12.027976 10.278378 1.3046513 282 0 0 0 10.93433
5.7862992 10.381271 1.0110158 423 0 0 0 32.800598
7.0680895 10.169678 1.3545449 287 0 0 0 34.361061
7.9884686 10.356944 1.4288121 126 0 0 0 35.148968
8.862442 10.128702 1.3058894 386 0 0 0 36.126549
11.967725 10.405149 1.3391781 329 0 0 0 38.282742
13.798089 10.304635 1.4514623 246 0 0 0 39.458313
-9.7063189 10.586991 1.1902124 98 0 0 0 12.88169
-9.2772179 10.626783 1.170104 104 0 0 0 13.26446
-8.7767172 10.559988 1.3061075 376.5 0 0 0 13.65323
-8.2735519 10.728266 1.1264977 125.5 0 0 0 14.25021
-7.7250743 10.813857 1.1063689 118 0 0 0 14.83437
-7.2511768 10.689177 1.2325256 670 0 0 0 15.22932
-6.7983232 10.856106 1.3782134 409 0 0 0 15.81918
-5.6268778 10.965833 1.1802503 572.5 0 0 0 17.181971
7.8114228 10.65981 1.4428962 32 0 0 0 34.755127
10.189714 10.801591 1.2558329 148 0 0 0 36.72303
10.565482 10.659765 1.269079 167 0 0 0 37.105701
11.721656 10.709742 1.3405336 364 0 0 0 37.891354
13.553221 10.651936 1.4523913 185 0 0 0 39.065792
-5.9934378 11.011351 1.3508718 460 0 0 0 16.7838
-5.2067647 11.13413 1.1777595 362.5 0 0 0 17.76445
-4.754499 11.222153 1.1684847 278 0 0 0 18.348249
-4.277143 11.21892 1.1525376 455.5 0 0 0 18.939781
-3.6346982 11.303696 1.1892251 308.66666 0 0 0 19.781857
-3.2617061 11.40845 1.2849133 98 0 0 0 20.309429
-2.8193784 11.430801 1.2760427 316 0 0 0 20.893398
-2.3894286 11.491856 1.2729224 498 0 0 0 21.47975
-0.94863456 11.479202 1.2521253 615 0 0 0 23.429701
10.10648 11.255063 1.2782637 161 0 0 0 36.325138
11.589118 11.124045 1.3555684 346 0 0 0 37.504726
13.585375 11.227922 1.4837904 28 0 0 0 38.680271
-2.1081133 11.554327 1.2741909 77 0 0 0 21.86301
-1.678533 11.601234 1.2725649 125 0 0 0 22.452011
-0.66753161 11.520428 1.2548294 548 0 0 0 23.819571
-0.24499492 11.748465 1.2778785 290.5 0 0 0 24.405766
0.38399044 11.828804 1.1916778 53.333332 0 0 0 25.248215
0.77597618 11.875342 1.1505474 276.5 0 0 0 25.7763
1.1673563 11.872353 1.105914 35 0 0 0 26.296844
6.6861978 12.688615 1.2112335 40 0 0 0 32.410408
11.331209 13.242012 1.0312517 127 0 0 0 35.927959
27.376371 -8.3125 1.6731957 117 0 0 0 54.295647
-6.9633627 -6.6203122 1.9945172 573 0 0 0 87.555923
-2.545615 -6.5482297 1.9860996 781 0 0 0 80.500626
5.3459859 -6.5580573 1.9790096 616 0 0 0 63.686119
-12.020241 -6.4253592 1.8077003 188 0 0 0 91.853355
-8.2055225 -6.3983617 1.9018373 345 0 0 0 89.111229
-7.6038284 -6.2339616 1.7989447 488 0 0 0 88.7248
-6.2125783 -6.3526988 1.8470665 638 0 0 0 86.969559
-5.5598435 -6.1208696 1.7210352 765 0 0 0 86.378159
-3.5238433 -6.1916013 1.8360683 572 0 0 0 82.853317
-3.1750648 -6.083827 1.7700994 895 0 0 0 82.265427
-2.2451138 -6.4641027 1.9356887 671.5 0 0 0 79.922119
-1.7639294 -6.2885165 1.8496863 637 0 0 0 78.936699
-1.3278801 -6.1590471 1.7856057 544.5 0 0 0 77.961166
-0.025969503 -6.4876494 1.9982266 577 0 0 0 74.640282
0.28084973 -6.2929168 1.9419793 450.33334 0 0 0 73.851967
0.59506428 -6.3244386 1.9582109 540 0 0 0 73.068993
1.9693894 -6.0602698 1.810277 597 0 0 0 69.551834
2.2343159 -6.0968885 1.8446451 543 0 0 0 68.963867
2.6227906 -6.1948204 1.9104555 563.5 0 0 0 68.179665
3.8260248 -6.0982847 1.8651774 690 0 0 0 65.637749
4.6527591 -6.0086408 1.7813252 639 0 0 0 64.07386
6.3086247 -6.3470697 1.8728846 624 0 0 0 62.116207
6.7125678 -6.4274898 1.9438144 655 0 0 0 61.712608
7.8083696 -6.1234317 1.8294719 520 0 0 0 60.154961
10.222459 -6.321311 1.9107721 364 0 0 0 58.399643
-32.992062 -5.7228608 1.9245194 18 0 0 0 96.92601
-10.187594 -5.7704515 1.5575522 341 0 0 0 91.468323
-8.9723778 -5.9922566 1.7043476 517 0 0 0 90.295509
-8.1252041 -5.7185273 1.572098 506 0 0 0 89.903839
-6.7301826 -5.9397278 1.6452296 580.5 0 0 0 88.131226
-6.0472198 -5.7476206 1.5313089 678 0 0 0 87.555923
-5.0463638 -5.8350496 1.6077911 305 0 0 0 85.982338
-3.9655867 -5.913043 1.6603316 521 0 0 0 84.017059
-3.3806984 -5.6136069 1.5308638 478 0 0 0 83.245171
-2.7471254 -5.9549398 1.6932364 766.5 0 0 0 81.485649
-2.2347434 -5.7318101 1.5909433 756.66669 0 0 0 80.503014
-1.8096845 -5.64044 1.5333226 582.5 0 0 0 79.528893
-1.0582596 -5.9603515 1.7169224 477 0 0 0 77.372803
-0.73742169 -5.7695012 1.6515493 659.66669 0 0 0 76.598091
-0.44087076 -5.6233635 1.6026312 650 0 0 0 75.817085
0.93626356 -5.5717111 1.6074573 576 0 0 0 71.90081
1.3057169 -5.6270771 1.6435626 608 0 0 0 70.923676
1.6397564 -5.7635794 1.7042017 544 0 0 0 70.135803
2.5788906 -5.5256886 1.5841216 607 0 0 0 67.590401
3.2380204 -5.7783146 1.7185286 593 0 0 0 66.414459
3.5414863 -5.9678435 1.7989734 686 0 0 0 66.027473
4.3201265 -5.8740625 1.7104446 647 0 0 0 64.459381
5.1018338 -5.6717491 1.6020161 725 0 0 0 62.8895
5.619514 -5.9429808 1.7149913 647 0 0 0 62.49966
6.2386084 -5.5479717 1.5451502 640.5 0 0 0 61.133526
6.989511 -5.7678399 1.6740469 708 0 0 0 60.547848
8.4612894 -5.6785736 1.6257842 493 0 0 0 58.990021
10.389978 -5.7380705 1.8884606 225 0 0 0 57.612854
10.886224 -5.8366032 1.6570226 309 0 0 0 57.414112
11.09836 -5.6028337 1.6679626 179 0 0 0 57.02544
13.038466 -5.7947474 1.5569749 254 0 0 0 56.241741
-27.200806 -5.4089952 1.5998509 49 0 0 0 96.532997
-0.16034323 -5.3634014 1.5268298 670.66669 0 0 0 75.033318
0.3000176 -5.3413272 1.5233799 468.5 0 0 0 73.656227
0.70100629 -5.3754969 1.5435038 459 0 0 0 72.485703
1.0530397 -5.4498215 1.5801322 474 0 0 0 71.511391
2.1997428 -5.3899555 1.5138354 541.5 0 0 0 68.377243
3.7453976 -5.3699985 1.5395902 656 0 0 0 64.850159
10.770983 -5.4384813 1.919644 175 0 0 0 57.02544
11.327811 -5.3728671 1.993385 245 0 0 0 56.64035
-6.100976 -3.6552346 1.745507 404 0 0 0 91.084404
-5.9779468 -3.7833166 1.7362926 513.5 0 0 0 90.691833
-3.1134496 -3.5940237 1.586169 209 0 0 0 85.982338
-2.6689165 -3.6078751 1.639583 189.14285 0 0 0 84.748207
-3.0937057 -3.4016616 1.7026165 246 0 0 0 86.378159
-2.8951128 -3.4435954 1.6339004 191 0 0 0 85.748711
22.685692 -2.2280719 1.9128904 101 0 0 0 51.173512
47.80798 1.1881121 1.6037769 14 0 0 0 49.223221
51.906776 2.5667071 1.7394686 43 0 0 0 48.827259
52.003162 3.8544509 1.7452502 20 0 0 0 48.438278
51.711468 5.1133528 1.7392788 56 0 0 0 48.053329
-11.236958 7.2321405 1.7514048 381 0 0 0 8.78374
-14.438759 7.656312 1.7347314 232 0 0 0 7.4173999
-10.978898 7.6494908 1.7545748 234 0 0 0 9.3620701
-8.9269314 7.9866967 1.5763814 300 0 0 0 11.32081
-8.4356785 7.9222965 1.6659818 497 0 0 0 11.71158
-5.7429233 7.9966345 1.5469989 886 0 0 0 14.83437
-11.264057 8.2667446 1.8316276 312 0 0 0 9.7595301
-8.127346 8.0131311 1.6445155 413 0 0 0 12.09632
-7.9518132 8.2321463 1.7901052 513 0 0 0 12.48809
-5.2687235 8.1446228 1.5853857 609 0 0 0 15.62339
-4.7847638 8.2525864 1.7368484 703 0 0 0 16.396685
-8.3527985 8.6533928 1.5845687 257 0 0 0 12.48809
-7.8342485 8.7338963 1.8355422 357.5 0 0 0 13.073074
-4.409122 8.5432024 1.5149069 701 0 0 0 17.181971
2.2311282 8.8418179 1.6797775 794 0 0 0 28.704315
2.6904097 8.7993498 1.6956488 742 0 0 0 29.47518
3.0844271 8.8940601 1.5011935 551 0 0 0 30.07066
-8.3781614 9.1180973 1.6312541 204 0 0 0 12.88169
-0.67815721 9.3389854 1.9466345 358 0 0 0 23.624636
1.9518403 9.135581 1.7190225 794 0 0 0 28.11628
3.3844643 9.0273981 1.5369238 321 0 0 0 30.457119
6.3473415 9.3913383 1.5227876 399.5 0 0 0 34.167709
6.8502135 9.2080956 1.6367394 378.66666 0 0 0 34.88641
7.2243176 9.146039 1.7096654 475.5 0 0 0 35.342255
7.6823173 9.4789419 1.9397211 242 0 0 0 35.535542
-0.80968821 9.5758371 1.523519 327 0 0 0 23.429701
1.8086077 9.5962219 1.7946681 643 0 0 0 27.73073
6.1625633 9.7100573 1.7348131 466 0 0 0 33.71508
-18.240583 10.267516 1.709432 17 0 0 0 7.8078499
-12.518579 10.180566 1.7186275 260 0 0 0 10.54292
-12.015322 10.26686 1.684613 276 0 0 0 10.93433
-10.350287 10.238297 1.5560414 368 0 0 0 12.09632
5.9352331 10.064936 1.8572309 368 0 0 0 33.19627
8.8638048 10.388796 1.8272393 355 0 0 0 35.927959
9.2859039 10.097646 1.6656673 345.5 0 0 0 36.524086
9.7004023 10.291504 1.8913481 118 0 0 0 36.72303
14.650807 10.386435 1.512259 111 0 0 0 39.847679
