# .PCD v0.7 - Point Cloud Data file format
VERSION 0.7
FIELDS x y z intensity normal_x normal_y normal_z curvature
SIZE 4 4 4 4 4 4 4 4
TYPE F F F F F F F F
COUNT 1 1 1 1 1 1 1 1
WIDTH 938
HEIGHT 1
VIEWPOINT 0 0 0 1 0 0 0
POINTS 938
DATA ascii
-2.6954024 5.1974387 0.34620351 51 0 0 0 17.257023
-2.4219859 5.1996107 0.1309347 80 0 0 0 17.937902
2.7608426 5.2328086 0.26020271 270.60001 0 0 0 32.534416
13.068844 5.4657717 0.15967579 310 0 0 0 43.3232
13.567863 5.2841206 0.16319486 274 0 0 0 43.715321
14.110823 5.0974331 0.16712554 238 0 0 0 44.098938
-13.875816 5.677103 0.055118196 672 0 0 0 5.8448601
-7.9612055 5.8016238 0.29809618 16 0 0 0 9.7499199
-7.1171398 5.7295451 0.2807031 10 0 0 0 10.52727
-6.8700852 5.7151847 0.13039322 1221.3334 0 0 0 10.783509
-2.4179168 5.7924662 0.24949579 64 0 0 0 18.568981
2.753581 5.6750841 0.16560322 547 0 0 0 31.991899
12.721931 5.6940823 0.15757403 394 0 0 0 42.928768
-13.829271 6.2587585 0.056245923 679.5 0 0 0 6.43191
-6.780889 6.1757298 0.1707509 961.75 0 0 0 11.500715
-2.3681521 6.2845516 0.23303552 129.33333 0 0 0 19.117279
2.8096886 6.1654062 0.21438578 414.5 0 0 0 31.5998
12.633028 6.2263479 0.158536 420.5 0 0 0 42.347633
41.682114 6.2465396 0.40097505 21 0 0 0 47.22966
-6.7751265 6.8077049 0.17933099 529.25 0 0 0 12.274619
-2.3416979 6.7262521 0.2463311 76 0 0 0 19.509871
2.9064391 6.7947397 0.37112209 229.5 0 0 0 31.212219
3.1843178 6.9562855 0.47466829 13 0 0 0 31.59754
12.671439 6.8370333 0.16086499 396 0 0 0 41.763142
-6.7420454 7.2910805 0.18554154 554 0 0 0 12.86431
-2.3124478 7.2279067 0.2611413 51 0 0 0 19.89781
2.818073 7.0599337 0.18959124 522 0 0 0 30.81588
12.689725 7.2560401 0.16248046 372 0 0 0 41.365726
40.414471 7.07691 0.39134887 14 0 0 0 46.8344
-6.7198653 7.764442 0.14902394 588.33331 0 0 0 13.387446
-2.2842515 7.8195972 0.27916873 51.666668 0 0 0 20.29039
12.716448 7.6929002 0.16426854 376 0 0 0 40.975471
39.212288 7.865057 0.38238141 16 0 0 0 46.44154
-6.8563328 8.1923199 0.33041149 253 0 0 0 13.64178
12.736053 8.1396809 0.1660843 345 0 0 0 40.59137
2.6832526 8.8165073 0.21956886 468 0 0 0 29.448265
12.771219 8.6120377 0.1681695 303 0 0 0 40.206322
0.22429292 9.2253609 0.32336473 726 0 0 0 25.155926
0.56080264 9.1468821 0.32291129 765 0 0 0 25.7491
9.3038664 9.4132738 0.47804177 283 0 0 0 37.076462
12.806162 9.1020603 0.17040773 299 0 0 0 39.808079
2.5520918 9.6262093 0.23085344 113.5 0 0 0 28.862869
3.4155519 9.8583755 0.11283934 477 0 0 0 30.03602
3.6749222 9.8158827 0.11394256 236 0 0 0 30.42449
12.013437 9.954648 0.1680599 121 0 0 0 38.644192
12.821471 9.5964985 0.17249726 214 0 0 0 39.41486
-1.3701072 10.136223 0.21910785 492 0 0 0 22.62344
10.968966 10.045525 0.16099519 275 0 0 0 37.85405
11.525121 10.04128 0.16493288 105 0 0 0 38.241341
12.852422 10.122351 0.17487322 192 0 0 0 39.026939
2.6347079 10.974228 0.2556968 418 0 0 0 28.471159
-2.8171244 11.33514 0.23828289 476.75 0 0 0 20.870131
-2.2259517 11.29079 0.23826116 517.75 0 0 0 21.647011
-1.7924833 11.259959 0.23830873 526.5 0 0 0 22.223909
-1.2276305 11.236094 0.23924652 563.5 0 0 0 23.00621
-0.80953658 11.219528 0.2401804 536 0 0 0 23.59359
-0.2564564 11.195105 0.24169379 592.5 0 0 0 24.381962
0.29400975 11.196667 0.10492438 505.5 0 0 0 25.155926
0.88500065 11.103847 0.19970329 697.33331 0 0 0 26.007141
1.25588 11.12504 0.24817288 359 0 0 0 26.52532
1.6662533 11.073368 0.25009063 581.75 0 0 0 27.108261
2.2246034 11.049393 0.2536689 494 0 0 0 27.889296
4.2355399 12.157154 0.4518688 643 0 0 0 30.03602
4.5589795 12.114312 0.45511189 530 0 0 0 30.42449
6.133389 -14.877934 0.95995677 113 0 0 0 68.327156
6.3326936 -14.353156 0.93718481 132 0 0 0 67.936569
2.2870703 -13.344871 0.80979884 176 0 0 0 71.839104
2.7890911 -13.310204 0.81396341 111.5 0 0 0 71.251007
3.2990129 -13.287689 0.81982666 93 0 0 0 70.673759
3.8110821 -13.242869 0.82567871 84.5 0 0 0 70.076065
4.3379526 -13.222157 0.83396053 99 0 0 0 69.498528
4.6907825 -13.19429 0.83937383 64 0 0 0 69.106209
6.2523279 -13.283708 0.87984335 206 0 0 0 67.548225
24.162378 -12.913236 0.95189941 194 0 0 0 57.367271
4.7238975 -12.326306 0.79374343 50 0 0 0 68.71273
24.151798 -12.154286 0.94037968 184 0 0 0 56.976002
5.8830967 -11.750447 0.79179645 67 0 0 0 67.15596
6.1453142 -11.556469 0.78917223 842 0 0 0 66.760834
6.7755117 -11.677483 0.81344879 792.5 0 0 0 66.171425
7.3412638 -11.642793 0.8290711 810 0 0 0 65.585358
7.7338247 -11.62133 0.84066939 819 0 0 0 65.201645
8.1318913 -11.590638 0.67905515 718 0 0 0 64.800179
8.7631721 -11.555719 0.69516015 695.75 0 0 0 64.218369
9.4171162 -11.511598 0.71244729 690.5 0 0 0 63.62899
14.074957 -11.569705 0.6436246 10 0 0 0 60.491539
14.717795 -11.502431 0.65916729 10 0 0 0 60.10144
9.8646088 -11.470324 0.72431058 663 0 0 0 63.241688
12.441453 -11.299882 0.59612244 331 0 0 0 61.283207
12.757839 -11.026861 0.59826261 8 0 0 0 60.88752
15.41454 -11.446948 0.6767481 7 0 0 0 59.717926
16.348633 -11.22879 0.69835114 10.5 0 0 0 59.126667
17.384356 -11.017816 0.7237044 217 0 0 0 58.54351
24.076271 -11.383668 0.92727143 162 0 0 0 56.590061
18.288904 -10.969143 0.74884206 184 0 0 0 58.152641
18.990639 -10.763427 0.76594144 234 0 0 0 57.764038
23.862549 -10.573238 0.90994632 179 0 0 0 56.20491
4.6083841 -10.464461 0.97799206 125 0 0 0 67.936569
24.005365 -9.9378567 0.90640932 241 0 0 0 55.808392
23.958904 -9.2354603 0.89667737 231 0 0 0 55.417721
0.40502742 -8.7983408 0.97063172 517 0 0 0 73.793091
0.62318331 -8.822566 0.97492063 612 0 0 0 73.394836
23.925587 -8.5531273 0.88809383 276 0 0 0 55.030529
0.78938162 -8.2972603 0.68814057 317.42856 0 0 0 73.006989
1.1526506 -8.3197098 0.72363174 317.5 0 0 0 72.331924
0.35903007 -7.872591 0.68102628 676 0 0 0 73.793091
23.88385 -7.881465 0.87985122 278 0 0 0 54.6497
-1.7802277 -7.0168271 0.80057645 319 0 0 0 78.477539
0.1445992 -7.0230608 0.6957103 114.5 0 0 0 74.182602
23.833277 -7.2199135 0.87197679 274 0 0 0 54.246498
-3.1221852 -6.5636511 0.89161831 788.5 0 0 0 81.607727
-2.7413819 -6.7285094 0.92231804 653.16669 0 0 0 80.696976
-2.1880033 -6.7436681 0.81609303 493.16666 0 0 0 79.524467
-1.8696316 -6.8356657 0.74350655 410.5 0 0 0 78.771721
-0.18939693 -6.7256737 0.74995691 813.33331 0 0 0 74.962624
23.796618 -6.5743828 0.86515486 299 0 0 0 53.860359
-4.0583315 -6.0529156 0.98259836 589 0 0 0 83.952759
-3.5009766 -6.1524549 0.95557594 438 0 0 0 82.784073
-3.278168 -6.3100972 0.78864002 517 0 0 0 82.166832
-2.6888669 -6.4427352 0.6456688 775 0 0 0 80.82515
-2.2206635 -6.3925605 0.58594942 425 0 0 0 79.848923
-0.73045784 -6.2297592 0.72386491 852.69232 0 0 0 76.378365
25.434969 -6.3571091 0.91667664 91 0 0 0 53.478111
27.81155 -6.2274952 0.99348086 80 0 0 0 53.08395
-4.2365694 -5.9965529 0.98966831 424 0 0 0 84.34256
-3.2889078 -5.9442325 0.58751655 461 0 0 0 82.589096
-1.1811279 -5.8249755 0.73795652 509.58334 0 0 0 77.701073
-7.3852854 -5.1967101 0.98780382 589 0 0 0 89.827583
-6.7113729 -5.2292686 0.93280053 360.33334 0 0 0 89.03463
4.4355035 -4.6972632 0.73011285 678.33331 0 0 0 62.44952
4.5888033 -4.5349574 0.69768727 628.59998 0 0 0 61.903755
-9.9029598 -4.3892956 0.91560107 426 0 0 0 92.938484
-4.0408506 -4.0289912 0.63661528 1342 0 0 0 87.086014
-3.7372284 -4.1073766 0.6205861 1288.3334 0 0 0 86.302681
-3.2393517 -4.2352095 0.59739858 1173.5 0 0 0 84.930252
-2.7262166 -4.3247528 0.62393916 631 0 0 0 83.487518
4.690331 -4.4992781 0.89481258 515 0 0 0 61.663914
-10.228699 -3.8023911 0.65101159 485 0 0 0 93.923386
-5.7955585 -3.5662286 0.58798903 1102.5 0 0 0 90.801201
-5.2677255 -3.7018709 0.55822277 1219.3334 0 0 0 89.823158
-4.6515651 -3.8552752 0.5621109 1284.25 0 0 0 88.548424
-4.2793918 -3.9643672 0.57963312 1447.75 0 0 0 87.668076
-15.690035 -3.120064 0.93805498 304 0 0 0 96.450562
-14.272684 -3.2041643 0.86075014 225 0 0 0 96.06073
-13.517138 -3.3849299 0.82159197 263 0 0 0 95.671852
-12.500942 -3.4584455 0.76716751 237 0 0 0 95.290565
-11.439213 -3.4688802 0.70975882 181 0 0 0 94.903671
-10.209713 -3.3714859 0.6419282 508 0 0 0 94.511169
-7.5726962 -3.1360817 0.70124149 790 0 0 0 93.337135
-6.7839913 -3.3078792 0.64845276 1031 0 0 0 92.344559
-6.2516356 -3.4369431 0.61479414 1166 0 0 0 91.577057
-17.020779 -2.523855 0.58550841 103 0 0 0 97.240479
-15.147147 -2.6274533 0.5269022 233 0 0 0 96.83857
66.88102 3.3708403 0.6140511 35 0 0 0 48.784939
15.912207 4.4445534 0.59432507 73 0 0 0 45.278999
16.901852 4.2735329 0.62503308 31 0 0 0 45.659321
14.618953 4.8738914 0.55686527 134 0 0 0 44.48838
15.215554 4.658247 0.57382375 121 0 0 0 44.883801
2.8929505 5.2899332 0.53478575 650 0 0 0 32.765839
3.1888297 5.1958976 0.54136807 8.333333 0 0 0 33.549088
3.7556894 5.1983871 0.56877583 12.666667 0 0 0 34.724678
13.069123 5.4638953 0.51471215 301 0 0 0 43.3232
13.569787 5.2828197 0.52815425 217 0 0 0 43.715321
14.089002 5.0874929 0.54230094 175 0 0 0 44.098938
70.57386 5.2974005 0.64692646 12 0 0 0 48.39999
-3.7389908 5.8589344 0.5715946 134 0 0 0 15.798295
-3.2022691 5.7524881 0.54567361 14.5 0 0 0 16.772949
-2.5128102 5.772346 0.52686834 128 0 0 0 18.334789
-2.3764811 5.8461914 0.52900374 113 0 0 0 18.725109
3.3067956 5.8543096 0.75601983 104.5 0 0 0 32.965012
12.667555 5.6679463 0.50491261 309 0 0 0 42.928768
-7.8487983 6.3279057 0.54989088 154 0 0 0 10.52727
-7.1961546 6.2410889 0.52284586 21.5 0 0 0 11.107929
-3.5973716 6.3052711 0.7720226 108.5 0 0 0 16.57263
-3.1726251 6.0545492 0.73034364 18 0 0 0 17.16572
-2.5566285 6.309094 0.73175728 26 0 0 0 18.725109
2.9668441 6.1045828 0.59574741 94 0 0 0 31.991899
12.62537 6.2206092 0.51123786 413 0 0 0 42.347633
-7.0108323 6.8758631 0.54041702 34 0 0 0 12.08005
-6.9961309 6.5322003 0.52663291 577 0 0 0 11.6972
-3.811866 6.8939915 0.64607656 42 0 0 0 16.765079
-2.604434 6.674006 0.85560834 47.5 0 0 0 18.921194
3.0138674 6.5989752 0.63334602 8 0 0 0 31.59754
12.662987 6.8304591 0.52133137 434 0 0 0 41.763142
-6.9926925 7.203145 0.55278331 701 0 0 0 12.46919
-3.6358416 7.4179821 0.87714595 53 0 0 0 17.54756
-3.4631596 7.056138 0.64694345 10 0 0 0 17.54756
-2.5099847 7.2236586 0.82030004 21 0 0 0 19.509871
4.3667703 7.061348 0.51476431 14 0 0 0 33.548359
12.693514 7.2561073 0.52887952 336 0 0 0 41.365726
71.550438 7.1419773 0.65680438 10 0 0 0 48.00972
-3.6013527 7.8375654 0.8097403 41 0 0 0 17.934629
-3.3409507 7.7598262 0.89884138 22 0 0 0 18.334789
-2.4705288 7.7378321 0.67442226 20 0 0 0 19.89781
12.720993 7.6935034 0.53678936 383 0 0 0 40.975471
12.746393 8.1440668 0.54512674 318 0 0 0 40.59137
0.75334388 8.8375359 0.96747983 466 0 0 0 26.13616
1.4124582 8.8073339 0.97614688 726 0 0 0 27.30512
1.7559971 8.8342667 0.98703289 726 0 0 0 27.889296
12.784659 8.6188097 0.55453146 284 0 0 0 40.206322
-8.63095 9.3694134 0.69350147 375 0 0 0 12.86431
-7.8917384 9.4493217 0.67412275 391 0 0 0 13.64178
-3.2166467 9.3521643 0.81205982 15 0 0 0 19.509871
-1.7082134 9.132309 0.99752015 561 0 0 0 21.836439
-1.4761608 9.1225262 0.99372423 574 0 0 0 22.223909
0.28302318 9.3236237 0.72503626 631.5 0 0 0 25.253309
0.54909855 9.0424261 0.98615324 232 0 0 0 25.7491
2.738986 9.3971834 0.59108609 193 0 0 0 29.25774
8.468173 9.4645023 0.77109951 235 0 0 0 36.294159
8.8833799 9.4463224 0.78710216 348 0 0 0 36.68248
9.2858295 9.3964005 0.80171871 267 0 0 0 37.076462
12.800541 9.0958042 0.56366336 258 0 0 0 39.808079
-13.623379 9.9895048 0.89543736 301 0 0 0 9.7499199
-12.755202 9.8361292 0.8566466 365 0 0 0 10.13739
-8.5202169 9.7165766 0.70444953 245 0 0 0 13.26028
-7.7746477 9.7873211 0.68532664 238 0 0 0 14.04063
-6.702136 9.8251448 0.95195395 601 0 0 0 15.21789
-3.554328 9.5752811 0.83605933 23 0 0 0 19.117279
-2.651499 9.5872602 0.69695139 707.5 0 0 0 20.48221
0.11482438 9.5202398 0.80112123 632 0 0 0 24.961161
1.0988886 9.8523006 0.71378589 405.5 0 0 0 26.52532
2.6816008 9.7855768 0.78160495 180.66667 0 0 0 28.994492
12.831136 9.6013365 0.57394642 239 0 0 0 39.41486
-7.5591702 10.009009 0.68903422 308 0 0 0 14.42968
-1.2342495 10.030692 0.71503657 388.5 0 0 0 22.814825
1.4204397 10.352963 0.62185156 250 0 0 0 26.9114
10.659807 10.087308 0.76773328 211 0 0 0 37.598919
11.053899 10.120429 0.53725487 227 0 0 0 37.85405
11.563352 10.072042 0.5493775 442 0 0 0 38.241341
12.730881 10.281466 0.58445728 207 0 0 0 38.835564
-26.465185 10.878104 0.77978337 75 0 0 0 5.8448601
-7.6122336 10.61509 0.71766204 432 0 0 0 14.8218
2.6160257 10.907495 0.80868632 89.5 0 0 0 28.471159
-16.010807 11.16365 0.55314749 129 0 0 0 9.3533497
0.72829503 11.476599 0.67655015 83 0 0 0 25.7491
1.0079933 11.429863 0.67644423 64 0 0 0 26.13616
1.8588868 11.384049 0.68362832 91 0 0 0 27.30512
2.2892179 11.358938 0.68844944 93.5 0 0 0 27.889296
-31.265848 11.974822 0.9049226 22 0 0 0 5.4641199
-1.2878286 11.831452 0.68886626 60 0 0 0 23.00621
-0.84323668 11.742395 0.68404835 56.5 0 0 0 23.59359
-0.2631878 11.623616 0.67885715 74.5 0 0 0 24.38196
-2.7118764 12.209211 0.71497941 80 0 0 0 21.261906
-2.2173452 12.05979 0.7039941 62 0 0 0 21.836439
-1.9085424 12.029876 0.70109093 65 0 0 0 22.223909
3.9103093 12.187201 0.76197749 701 0 0 0 29.63879
4.2295027 12.143453 0.76653451 596 0 0 0 30.03602
4.7273912 12.106882 0.77598059 478 0 0 0 30.620186
2.9682424 -17.242115 1.4713188 47 0 0 0 71.839104
3.3991075 -17.208061 1.4755937 46 0 0 0 71.44593
3.8277037 -17.152496 1.4789618 55 0 0 0 71.056076
4.2694893 -17.14131 1.486981 42 0 0 0 70.673759
4.714088 -17.122528 1.4953524 53 0 0 0 70.269691
6.3626766 -16.558929 1.4957309 155 0 0 0 68.71273
6.4294772 -15.583869 1.423746 230 0 0 0 68.327156
5.9356227 -12.609413 1.1842803 57 0 0 0 67.548225
5.8940096 -11.766906 1.2803979 70 0 0 0 67.15596
6.1625609 -11.583704 1.4369563 857 0 0 0 66.760834
6.7875309 -11.69332 1.3160448 800.75 0 0 0 66.171425
7.344439 -11.643215 1.1722845 784 0 0 0 65.585358
7.7440596 -11.63213 1.1898209 738 0 0 0 65.201645
8.1406116 -11.598529 1.2063903 691 0 0 0 64.800179
8.7748051 -11.566839 1.2357894 725.5 0 0 0 64.218369
9.4276791 -11.520122 1.2665966 617 0 0 0 63.62899
14.040123 -11.540877 1.0877714 9 0 0 0 60.491539
14.774017 -11.545913 1.1213082 10 0 0 0 60.10144
6.082078 -11.433488 1.1039217 570 0 0 0 66.760834
9.8747053 -11.477714 1.2880068 625 0 0 0 63.241688
10.251552 -11.338991 1.3003817 314 0 0 0 62.841969
12.451609 -11.306723 1.2184012 191 0 0 0 61.283207
12.794936 -11.056473 1.2247686 11 0 0 0 60.88752
15.432834 -11.460167 1.1488647 6 0 0 0 59.717926
16.483913 -11.025285 1.1847219 8 0 0 0 58.929832
17.425901 -11.043721 1.2312675 215 0 0 0 58.54351
18.312376 -10.982816 1.273403 219 0 0 0 58.152641
19.009605 -10.773771 1.3025162 194 0 0 0 57.764038
4.6071353 -10.461617 1.2555854 132 0 0 0 67.936569
0.68538094 -9.6366673 1.299024 141 0 0 0 73.394836
0.31209487 -9.1769514 1.235882 238 0 0 0 73.987846
-2.0563514 -8.1272221 1.3343982 759 0 0 0 78.477539
0.79391825 -8.3336535 1.2342973 483.5 0 0 0 73.005669
1.1037058 -8.3281975 1.2390399 503.5 0 0 0 72.428322
-2.2661326 -7.7522683 1.2864537 731.5 0 0 0 79.067734
-3.1219449 -7.0037546 1.2218864 939 0 0 0 81.222191
-2.7787836 -7.157886 1.2239161 809.66669 0 0 0 80.434196
-2.4747453 -7.4322863 1.2481986 630 0 0 0 79.651901
-1.8326589 -7.2318249 1.0070008 388 0 0 0 78.477539
23.799131 -7.2090883 1.4807317 241 0 0 0 54.246498
-3.3834846 -6.8981347 1.2241979 820 0 0 0 81.801819
-0.18918423 -6.7413793 1.0829513 852.33331 0 0 0 74.962624
23.796131 -6.5737343 1.4707104 291 0 0 0 53.860359
-6.3139501 -6.460001 1.4328254 601.5 0 0 0 86.894028
-5.7459798 -6.3289814 1.357583 632 0 0 0 86.298843
-5.2934728 -6.2758646 1.305318 712 0 0 0 85.714539
-4.7299256 -6.105175 1.1164353 691.59998 0 0 0 85.046997
-4.2311931 -6.3102813 1.2106717 863.66669 0 0 0 83.953949
-3.7075224 -6.3354578 1.1708264 600 0 0 0 82.97998
-3.4570715 -6.4376884 1.1656752 422 0 0 0 82.394127
-0.71474862 -6.2547083 1.050089 744 0 0 0 76.33313
30.605614 -6.0658054 1.0843172 23 0 0 0 52.690567
-9.6492977 -5.7835655 1.4984488 476 0 0 0 90.993912
-9.0752592 -5.7461286 1.4322187 494 0 0 0 90.60849
-8.6822348 -5.7998986 1.3931106 505 0 0 0 90.216888
-8.2086983 -5.7790627 1.3406999 628 0 0 0 89.827583
-7.7129645 -5.7173085 1.2836399 614 0 0 0 89.425003
-7.1911373 -5.7492814 1.2324052 679 0 0 0 88.839447
-6.6296811 -5.713129 1.1730331 549 0 0 0 88.257408
-6.2268395 -5.7763281 1.1394947 675.5 0 0 0 87.668076
-5.7301502 -5.8610744 1.1008698 690 0 0 0 86.894028
-5.2654991 -5.9423575 1.0674138 804 0 0 0 86.102997
-1.183434 -5.8393025 1.1057736 431.66666 0 0 0 77.701073
33.672871 -5.8162289 1.1842182 113 0 0 0 52.305031
-12.472569 -5.1667662 1.4601581 251 0 0 0 93.337135
-9.4297762 -5.0388002 1.1633512 552 0 0 0 91.770576
-8.996624 -5.0944796 1.1260766 525 0 0 0 91.38353
-8.3153267 -5.1193457 1.0654907 604.5 0 0 0 90.801201
-7.7283745 -5.1600347 1.0155163 685 0 0 0 90.216888
4.52386 -5.0298939 1.0968294 1100 0 0 0 62.841969
34.403175 -5.0744853 1.2048643 79 0 0 0 51.914902
-11.19253 -4.9612184 1.3272851 320 0 0 0 92.938484
-10.488107 -4.9599509 1.2595435 503 0 0 0 92.539345
-9.8192482 -4.9415393 1.1951638 494 0 0 0 92.149765
4.3945656 -4.6530318 1.2006382 729 0 0 0 62.44952
4.6321301 -4.5535111 1.2977087 625.25 0 0 0 61.863781
-16.471279 -4.1278634 1.4158915 184 0 0 0 95.671852
-14.903513 -4.1260653 1.2925103 274 0 0 0 95.290565
-14.007594 -4.2506142 1.2253104 315 0 0 0 94.903671
-12.961716 -4.2831063 1.1449798 282 0 0 0 94.511169
-12.135315 -4.342895 1.0829719 289 0 0 0 94.123955
-11.097585 -4.2812028 1.0020765 432 0 0 0 93.722809
4.4236798 -4.4594254 1.0219084 754 0 0 0 62.063648
4.6473961 -4.4584112 1.0470345 660 0 0 0 61.663914
34.486103 -4.223145 1.2041879 82 0 0 0 51.526581
-21.081276 -3.1259305 1.2380428 94 0 0 0 97.240479
-17.666855 -3.0645316 1.0471971 190 0 0 0 96.83857
34.44059 -3.3602962 1.1998793 78 0 0 0 51.134941
33.910103 -2.4684932 1.1799648 124 0 0 0 50.74052
37.275261 -1.7932147 1.2916037 16 0 0 0 50.3512
42.06546 -0.98807883 1.4515262 19 0 0 0 49.95343
41.597767 6.227963 1.4518667 16 0 0 0 47.22966
39.492607 7.9154816 1.3919396 32 0 0 0 46.44154
0.31691086 8.9044809 1.1881212 825 0 0 0 25.350691
0.68310928 8.7099924 1.2232515 680.5 0 0 0 26.039921
1.2830942 8.7063599 1.1794686 661 0 0 0 27.108261
1.7680907 8.9122543 1.4437534 744.5 0 0 0 27.889296
-8.3143301 9.2392769 1.2845592 451 0 0 0 13.062295
-7.8473401 9.389472 1.2672746 416 0 0 0 13.64178
-1.7293777 9.2298164 1.3151536 666.33331 0 0 0 21.83931
-1.2111949 9.1787443 1.3157258 559 0 0 0 22.696642
-0.69828266 9.3649664 1.1868607 527.75 0 0 0 23.59359
0.18407059 9.380868 1.4028014 634.66669 0 0 0 25.091003
0.77835512 9.1309099 1.4500051 187 0 0 0 26.13616
8.4530926 9.4530487 1.2412577 362 0 0 0 36.294159
8.876688 9.4444418 1.268508 344.5 0 0 0 36.68248
9.2827711 9.3984318 1.2926958 273 0 0 0 37.076462
18.377407 9.3178968 1.2354501 44 0 0 0 42.152561
40.176052 9.0849705 1.4224402 17 0 0 0 46.055672
-13.191419 9.6656408 1.2719421 153 0 0 0 9.7499199
-9.2564459 9.5688448 1.3713162 381 0 0 0 12.46919
-7.6423955 9.6121387 1.2731781 382 0 0 0 14.04063
-7.4929485 9.9134102 1.2895843 399 0 0 0 14.42968
-6.6416206 9.7333298 1.2275259 510 0 0 0 15.21789
-6.1672068 9.7831802 1.3487738 461.25 0 0 0 15.798295
-5.7878289 9.9714594 1.4879265 518 0 0 0 16.38018
-3.0358732 9.5863705 1.0694469 710 0 0 0 19.89781
-2.8436792 9.8142872 1.0876956 674 0 0 0 20.29039
-0.35769057 9.5430765 1.2666869 507 0 0 0 24.187981
1.0937645 9.8287525 1.0755934 347 0 0 0 26.52532
2.0805397 9.7977743 1.3401394 443 0 0 0 28.081011
5.3716536 9.6893883 1.4914469 224 0 0 0 32.765839
5.9958739 9.6485453 1.2498261 289 0 0 0 33.548359
6.3019423 9.602087 1.2640107 259 0 0 0 33.934727
6.8077078 9.5752268 1.2933115 367 0 0 0 34.528458
7.3224235 9.5292768 1.3230342 454 0 0 0 35.117119
7.7177677 9.5431385 1.2013383 204 0 0 0 35.511719
8.1725006 9.6070805 1.2341869 277.5 0 0 0 35.901592
13.307374 9.9565115 1.001863 566 0 0 0 39.41486
16.376526 9.8909998 1.1490073 117 0 0 0 40.975471
17.044506 9.7281742 1.17799 8 0 0 0 41.365726
17.655201 9.5068016 1.2030755 6 0 0 0 41.763142
20.436586 9.7327709 1.3535216 21 0 0 0 42.542702
-13.212049 10.187153 1.2983656 156 0 0 0 10.13739
-12.276854 10.456425 1.2591035 143 0 0 0 10.91163
-9.1846962 10.22372 1.0858891 234 0 0 0 13.062295
-7.3745337 10.271579 1.3133116 335 0 0 0 14.8218
-4.8205614 10.226139 1.4655044 817 0 0 0 17.741095
-0.89698881 10.445062 1.3839875 175 0 0 0 23.39653
0.12975816 10.218065 1.1048928 162 0 0 0 24.961161
1.8944303 10.130595 1.3765324 359 0 0 0 27.69758
5.401464 10.32158 1.2779655 150 0 0 0 32.380138
16.056704 10.246447 1.1436973 11 0 0 0 40.59137
-4.5298514 10.607293 1.4969894 96 0 0 0 18.334789
15.331108 10.883389 1.1285304 40 0 0 0 39.808079
15.646442 10.536649 1.1325881 21 0 0 0 40.206322
-26.773041 11.004966 1.4934692 46 0 0 0 5.8448601
-7.9573574 11.097806 1.0863891 308 0 0 0 14.8218
4.839417 11.180565 1.0351045 64 0 0 0 31.212219
13.870885 11.481536 1.0807674 120 0 0 0 38.644192
14.593309 11.482989 1.1139377 94 0 0 0 39.026939
-26.527481 11.669676 1.4964523 51 0 0 0 6.2318602
3.1978025 11.990904 1.3484815 483 0 0 0 28.862869
3.5108533 11.970101 1.3565943 542 0 0 0 29.25774
12.111873 11.648212 1.4289694 214 0 0 0 37.471352
12.669728 11.595227 1.460305 204 0 0 0 37.85405
13.291494 11.570303 1.2780399 162 0 0 0 38.241341
-3.2537222 12.4638 1.2082233 385.5 0 0 0 20.67403
-2.6168234 12.497751 1.3559389 198 0 0 0 21.457581
-1.7646675 12.430087 1.1355695 250.66667 0 0 0 22.490265
-1.0424128 12.420368 1.0308139 69 0 0 0 23.39653
-0.7352187 12.408677 1.029722 63 0 0 0 23.790649
-0.27611363 12.291666 1.1703211 533.25 0 0 0 24.381962
0.78572667 12.317544 1.0303241 168 0 0 0 25.7491
1.0932589 12.343556 1.035754 124 0 0 0 26.13616
1.6971246 12.26417 1.1880431 79 0 0 0 26.9114
2.1550627 12.222704 1.0423465 76 0 0 0 27.50135
2.7521996 12.099529 1.1949662 350 0 0 0 28.276085
3.8962312 12.15682 1.2334461 675 0 0 0 29.63879
4.2216234 12.132923 1.2422209 603.5 0 0 0 30.03602
4.7273569 12.116721 1.2590002 535 0 0 0 30.620186
5.2436509 12.099262 1.4379212 483 0 0 0 31.212219
5.7678766 12.060357 1.4589684 474.5 0 0 0 31.79472
-10.787511 12.961559 1.3278039 137 0 0 0 13.64178
-10.234695 12.924079 1.3007356 160 0 0 0 14.04063
-9.7176704 12.904283 1.2771348 189 0 0 0 14.42968
-2.836148 12.525136 1.1553024 127.33334 0 0 0 21.19668
-2.3070047 12.551846 1.0479525 90 0 0 0 21.836439
-19.071489 13.312678 1.2183503 160 0 0 0 9.3533497
-13.409851 13.251759 1.4723539 12 0 0 0 12.08005
-12.741448 13.218863 1.4366271 6 0 0 0 12.46919
6.7780027 -20.583023 1.8178028 73 0 0 0 69.498528
6.6857138 -18.74979 1.673359 66 0 0 0 69.106209
6.3750548 -16.590923 1.9304725 78 0 0 0 68.71273
4.9513259 -16.404697 1.8609784 21 0 0 0 69.882431
6.437304 -15.602688 1.8356199 338 0 0 0 68.327156
4.8513832 -14.764918 1.6917301 26 0 0 0 69.498528
4.8174381 -13.536482 1.743968 75 0 0 0 69.106209
24.226372 -12.946884 1.6277699 97 0 0 0 57.367271
24.180368 -12.168157 1.6051456 127 0 0 0 56.976002
0.26092228 -11.575974 1.8353029 170 0 0 0 74.182602
0.56584102 -11.992528 1.9022031 135 0 0 0 73.793091
5.8765187 -11.727058 1.7589642 85 0 0 0 67.15596
6.1650081 -11.583355 1.7600443 869 0 0 0 66.760834
6.7927561 -11.697695 1.8140454 764.5 0 0 0 66.171425
7.3580046 -11.662207 1.6792643 662.5 0 0 0 65.585358
7.7477255 -11.635254 1.7023113 696 0 0 0 65.201645
8.1519661 -11.612297 1.7276436 680.5 0 0 0 64.800179
8.7831936 -11.575228 1.769195 662.75 0 0 0 64.218369
9.4393291 -11.532011 1.8140302 586 0 0 0 63.62899
13.556026 -11.709224 1.9550229 8 0 0 0 60.88752
14.098107 -11.583813 1.7692658 8 0 0 0 60.491539
14.769316 -11.537779 1.588264 11 0 0 0 60.10144
9.8873262 -11.492151 1.6584251 569 0 0 0 63.241688
10.246254 -11.332981 1.6714568 400 0 0 0 62.841969
12.473577 -11.324242 1.8407123 95 0 0 0 61.283207
16.210445 -11.424494 1.6790558 13 0 0 0 59.323502
16.507847 -11.036731 1.6815737 9 0 0 0 58.929832
17.447327 -11.052632 1.7477818 206 0 0 0 58.54351
24.048695 -11.370178 1.5785141 191 0 0 0 56.590061
18.302206 -10.972015 1.8048742 179 0 0 0 58.152641
19.034039 -10.782804 1.8497031 174 0 0 0 57.764038
23.855272 -10.569543 1.5494983 182 0 0 0 56.20491
-1.1511209 -10.200676 1.8825641 259 0 0 0 76.330597
4.609694 -10.462427 1.5371281 138 0 0 0 67.936569
24.002729 -9.936285 1.54337 202 0 0 0 55.808392
-2.6666753 -9.1315594 1.9779892 494 0 0 0 79.067734
23.98263 -9.2440987 1.5278603 224 0 0 0 55.417721
-3.5502393 -8.5301352 1.9207091 917 0 0 0 80.821747
-3.2577209 -8.7190218 1.9350092 596 0 0 0 80.240417
-2.97593 -8.9524422 1.9611914 519 0 0 0 79.651901
-2.2840767 -8.5921564 1.6327002 854.5 0 0 0 78.67366
24.033482 -8.5911198 1.5178802 42 0 0 0 55.030529
-5.1220813 -8.0680695 1.9848626 583 0 0 0 83.566528
-4.750392 -8.1259899 1.9556906 574.5 0 0 0 82.97998
-4.2502918 -8.1644554 1.9133238 595 0 0 0 82.195023
-3.8653827 -8.4036694 1.9228363 630 0 0 0 81.414963
-2.6123621 -8.1872358 1.578671 689 0 0 0 79.458786
-5.3360424 -7.9672885 1.9914262 623 0 0 0 83.952759
-3.5659468 -7.5047092 1.526301 758 0 0 0 81.607727
-3.2333527 -7.7666268 1.5455106 757.66669 0 0 0 80.826286
-2.8654308 -7.9568009 1.5533946 628 0 0 0 80.045937
0.72813427 -7.6584044 1.8942 46 0 0 0 73.005669
24.06498 -7.9406042 1.5077603 15 0 0 0 54.6497
-7.2989917 -7.4701791 1.9095649 467.5 0 0 0 86.894028
-6.7442651 -7.4314904 1.836014 407 0 0 0 86.298843
-6.285336 -7.2753029 1.7603179 512 0 0 0 85.907158
-5.9250245 -7.2070251 1.709217 626 0 0 0 85.521919
-4.9549398 -7.0176597 1.5764387 611 0 0 0 84.34256
-4.1392136 -7.0772419 1.5063241 768 0 0 0 82.97998
-3.839457 -7.3699379 1.5264992 715 0 0 0 82.195023
-10.2743 -6.5060921 1.917564 399 0 0 0 90.60849
-9.7678328 -6.5259175 1.8534141 528 0 0 0 90.216888
-9.3919754 -6.6131625 1.813006 426 0 0 0 89.827583
-7.253901 -6.5686631 1.5493933 700 0 0 0 87.861717
-6.9087906 -6.5707612 1.7438556 478 0 0 0 87.474434
-5.2848597 -6.928606 1.5986762 671 0 0 0 84.928268
-4.6041269 -6.8706546 1.5189633 636 0 0 0 83.952759
-4.4224911 -6.9619951 1.5149335 562 0 0 0 83.566528
-13.784704 -6.1137266 1.9973613 239 0 0 0 92.938484
-12.742806 -6.0296154 1.8693993 287 0 0 0 92.539345
-8.4195843 -6.2418342 1.6571054 227 0 0 0 89.425003
-7.7006507 -6.2101917 1.6462513 422.66666 0 0 0 88.774864
-7.3126993 -6.3028207 1.6462305 541 0 0 0 88.257408
-6.9140553 -6.158525 1.8471804 420.33334 0 0 0 87.993614
25.465748 -6.3642263 1.5615689 80 0 0 0 53.478111
28.326183 -6.3418889 1.7230234 145 0 0 0 53.08395
30.540176 -6.0521569 1.8455768 16 0 0 0 52.690567
-11.579259 -5.83044 1.7218071 333 0 0 0 92.149765
-10.683827 -5.7118392 1.6111499 374 0 0 0 91.770576
-10.047497 -5.6924062 1.5372995 388 0 0 0 91.38353
-8.0253553 -5.6497827 1.7962569 381 0 0 0 89.827583
-7.656014 -5.7723899 1.9128684 348.66666 0 0 0 89.294403
-7.4904637 -5.8418369 1.7395177 338 0 0 0 89.033203
-16.955595 -5.1453905 1.9059389 139 0 0 0 94.903671
-15.299776 -5.0559263 1.736295 238 0 0 0 94.511169
-14.285849 -5.1127863 1.6369295 308 0 0 0 94.123955
-13.401364 -5.1703463 1.5514321 301 0 0 0 93.722809
4.4430008 -4.7597523 1.821676 628 0 0 0 62.547634
4.669374 -4.6361494 1.7200783 547.14288 0 0 0 61.947456
-21.238604 -4.2273426 1.7961811 133 0 0 0 96.450562
-17.963587 -4.0361328 1.5323042 86 0 0 0 96.06073
0.8456558 8.7173929 1.6048119 666.5 0 0 0 26.33074
1.1646218 8.659482 1.6029346 564 0 0 0 26.9114
1.6680938 8.9931402 1.9039032 394 0 0 0 27.69758
-8.7155056 9.4516945 1.79878 367 0 0 0 12.86431
-8.2600908 9.4049129 1.7536352 466 0 0 0 13.26028
-7.8839202 9.4292564 1.5724466 583 0 0 0 13.64178
0.34098849 9.4552698 1.7269293 523 0 0 0 25.350691
0.68272614 9.3543453 1.9450359 362 0 0 0 25.942631
1.3546798 9.1814785 1.9293462 283.5 0 0 0 27.108261
1.9200628 9.0858116 1.8204808 651.5 0 0 0 28.081011
2.185982 9.2015047 1.5029454 278 0 0 0 28.471159
7.6722245 9.492856 1.6450107 443 0 0 0 35.511719
8.450799 9.4557257 1.7090149 341 0 0 0 36.294159
8.8494129 9.4208479 1.7417321 376 0 0 0 36.68248
9.2779665 9.3986979 1.7793915 255 0 0 0 37.076462
17.404381 9.3774176 1.6804217 85 0 0 0 41.763142
18.326283 9.2972403 1.745398 35 0 0 0 42.152561
-8.0120735 9.5834827 1.9041567 426 0 0 0 13.64178
-7.6972823 9.841361 1.8061069 387.66666 0 0 0 14.170314
-6.2807312 9.9614677 1.8059645 431 0 0 0 15.798295
-2.0616643 9.7157621 1.5504111 118 0 0 0 21.457581
-1.7832808 9.539629 1.517234 628 0 0 0 21.836439
-1.2205424 9.8550663 1.8006835 353.5 0 0 0 22.814825
-0.59747672 9.616045 1.5139991 804 0 0 0 23.790649
0.11062323 9.5687742 1.7447476 598 0 0 0 24.961161
5.3636293 9.6769323 1.7640791 264 0 0 0 32.765839
5.7587724 9.6228075 1.6027435 423 0 0 0 33.29224
6.2861547 9.5835419 1.5441682 435 0 0 0 33.934727
6.8017378 9.5713539 1.5823283 293 0 0 0 34.528458
7.3067002 9.5138741 1.6167166 398 0 0 0 35.117119
8.1612921 9.5994129 1.6975124 280 0 0 0 35.901592
16.355047 9.8831587 1.6249194 109 0 0 0 40.975471
16.814955 9.6028318 1.6464111 165 0 0 0 41.365726
20.44911 9.7442856 1.9199715 16 0 0 0 42.542702
-13.463564 10.381935 1.732424 182 0 0 0 10.13739
-7.4307108 10.343985 1.9462529 374 0 0 0 14.8218
-5.7235279 10.145444 1.6470079 500.5 0 0 0 16.57263
0.64035594 10.378102 1.8957874 377 0 0 0 25.7491
1.6292473 10.092129 1.6173749 558 0 0 0 27.30512
5.3817234 10.290776 1.5603789 174 0 0 0 32.380138
16.00695 10.220001 1.6147033 26 0 0 0 40.59137
-13.385371 10.853927 1.7572808 237 0 0 0 10.52727
-12.651423 10.777494 1.6974062 44 0 0 0 10.91163
15.325418 10.884685 1.5976954 50 0 0 0 39.808079
15.639864 10.537454 1.6032282 30 0 0 0 40.206322
15.049845 11.257358 1.596838 42 0 0 0 39.41486
-31.312401 11.992551 1.723384 40 0 0 0 5.4641199
2.8807337 11.996224 1.6430197 585 0 0 0 28.471159
3.1874757 11.967685 1.8039582 568 0 0 0 28.862869
3.5017114 11.952966 1.8154588 598.5 0 0 0 29.25774
5.4752293 11.835676 1.7448615 63 0 0 0 31.59754
5.7202191 11.606622 1.7327583 243 0 0 0 31.991899
12.097059 11.63552 1.8363109 276 0 0 0 37.471352
12.669418 11.596369 1.878821 207 0 0 0 37.85405
13.266589 11.552904 1.9240872 200 0 0 0 38.241341
13.941699 11.5453 1.5382507 38 0 0 0 38.644192
14.63264 11.519283 1.582014 79 0 0 0 39.026939
-3.586313 12.465243 1.6891336 581 0 0 0 20.29039
-3.2580347 12.461837 1.8382037 474.5 0 0 0 20.67403
-0.23019712 12.276341 1.8216982 634.33331 0 0 0 24.446619
1.3710243 12.147999 1.9234265 247 0 0 0 26.52532
1.7075275 12.370124 1.9655076 42 0 0 0 26.9114
3.8909256 12.153075 1.7022895 611 0 0 0 29.63879
4.2157693 12.128027 1.7139415 579 0 0 0 30.03602
4.7236357 12.118639 1.7376392 483 0 0 0 30.620186
5.2368922 12.092336 1.7615838 492 0 0 0 31.212219
-6.4536195 12.535407 1.8168173 412 0 0 0 17.16572
-4.7008438 12.747468 1.7617288 31 0 0 0 19.117279
-4.1876798 12.779684 1.7472188 66 0 0 0 19.70384
-2.9786677 12.661112 1.6974657 58 0 0 0 21.066231
-16.133408 13.103292 1.6117234 93 0 0 0 10.52727
-14.945935 13.39852 1.5614519 6 0 0 0 11.30423
-14.07851 13.250639 1.740554 8.5 0 0 0 11.6972
-13.440803 13.281116 1.9318007 14 0 0 0 12.08005
-1.5974727 14.872131 1.5903174 16 0 0 0 23.00621
6.9388232 -22.940245 2.0059092 46 0 0 0 69.882431
9.2318172 -19.564407 2.3434618 52 0 0 0 67.548225
3.3606772 -19.495464 2.1394696 35 0 0 0 71.839104
3.8469243 -19.451946 2.1450186 35 0 0 0 71.44593
4.3221588 -19.34775 2.1452696 33 0 0 0 71.056076
4.8028665 -19.264715 2.149101 36 0 0 0 70.673759
5.1552844 -18.712635 2.1024687 28 0 0 0 70.269691
6.3791733 -16.592947 2.3682134 116 0 0 0 68.71273
6.4267235 -15.569493 2.2463725 180 0 0 0 68.327156
0.30846751 -13.457609 2.4610472 186 0 0 0 74.182602
0.96995658 -13.455156 2.1336193 223 0 0 0 73.394836
6.2645063 -13.297219 2.3301067 207 0 0 0 67.548225
-0.022180313 -12.564481 2.2988629 329 0 0 0 74.57238
24.222662 -12.938978 2.3122206 96 0 0 0 57.367271
-0.31894031 -12.090732 2.2137086 353 0 0 0 74.959602
24.210007 -12.177251 2.282783 21 0 0 0 56.976002
-1.183278 -11.799919 2.4612062 375 0 0 0 76.134689
-0.58990252 -11.558143 2.1191773 354 0 0 0 75.355904
5.863822 -11.701811 2.2416224 126.5 0 0 0 67.15596
6.1661134 -11.585321 2.2481232 821.5 0 0 0 66.760834
6.7337494 -11.706367 2.2567923 706 0 0 0 66.237854
7.3624444 -11.666812 2.1917255 714 0 0 0 65.585358
7.7567267 -11.64634 2.2230113 670 0 0 0 65.201645
8.1521101 -11.610177 2.2536986 553 0 0 0 64.800179
8.5780792 -11.598771 2.2916238 524 0 0 0 64.413658
9.2294979 -11.558378 2.3495255 516 0 0 0 63.826038
14.135519 -11.609877 2.4466703 11 0 0 0 60.491539
14.791406 -11.554668 2.0473626 8 0 0 0 60.10144
15.499319 -11.504529 2.1047022 7 0 0 0 59.717926
-1.386839 -11.072871 2.3174591 378 0 0 0 76.526497
9.8920994 -11.49337 2.2203779 518.5 0 0 0 63.241688
10.245974 -11.328522 2.0473673 288 0 0 0 62.841969
12.448369 -11.297235 2.2509742 36 0 0 0 61.283207
12.765126 -11.024323 2.258785 6 0 0 0 60.88752
16.320194 -11.203754 2.1582532 6 0 0 0 59.126667
17.463074 -11.062229 2.2524586 164 0 0 0 58.54351
18.354391 -11.002851 2.3307531 151 0 0 0 58.152641
24.038675 -11.359828 2.2408707 154 0 0 0 56.590061
-1.6070983 -10.693201 2.2461448 428 0 0 0 76.92128
-0.83131558 -10.970742 2.0158155 400 0 0 0 75.750038
19.049538 -10.791185 2.3840611 184 0 0 0 57.764038
23.844858 -10.55947 2.1991887 160 0 0 0 56.20491
-2.8279912 -10.158166 2.4466915 443 0 0 0 78.869789
-2.0166655 -10.036008 2.1272516 507 0 0 0 77.696251
-1.8060577 -10.289293 2.1706436 524 0 0 0 77.315216
-3.7057869 -9.5682869 2.3803563 502 0 0 0 80.434898
-3.256748 -9.816185 2.4000676 475.33334 0 0 0 79.654503
-2.2225473 -9.8083181 2.09008 517 0 0 0 78.091743
23.986712 -9.9242678 2.1897714 182 0 0 0 55.808392
-4.5637522 -9.0410662 2.3493407 572 0 0 0 81.995918
-4.2280679 -9.20152 2.3494205 558.5 0 0 0 81.414963
-3.8973577 -9.3741426 2.3553052 425 0 0 0 80.821747
-2.3990104 -9.4987049 2.036495 590 0 0 0 78.477539
24.001167 -9.2459135 2.170516 204 0 0 0 55.417721
-6.2080026 -8.8020649 2.4960883 381 0 0 0 84.34256
-5.7500129 -8.8218231 2.4412699 448 0 0 0 83.759644
-5.1822176 -8.871418 2.3827953 460.5 0 0 0 82.97998
-4.5837393 -8.5518923 2.2519915 466 0 0 0 82.394127
23.940628 -8.5527782 2.1462903 60 0 0 0 55.030529
-7.8340397 -8.2206898 2.3522003 362 0 0 0 86.702049
-7.2499542 -8.1876221 2.2666545 296.5 0 0 0 86.102997
-6.6653337 -8.1099997 2.1769011 464 0 0 0 85.521919
-6.1659098 -8.088316 2.1102781 467.5 0 0 0 84.928268
-5.7003179 -8.077177 2.0520658 625 0 0 0 84.34256
-4.5368776 -8.464015 2.4644759 358 0 0 0 82.394127
0.82016337 -7.6250982 2.2664983 254.5 0 0 0 72.813393
24.000841 -7.9143252 2.134253 13 0 0 0 54.6497
-13.403037 -7.166646 2.3884676 204 0 0 0 91.770576
-12.490322 -7.0775256 2.2578452 245 0 0 0 91.38353
-7.3153949 -7.3105302 2.3976061 164 0 0 0 87.086014
23.803816 -7.2054486 2.101449 267 0 0 0 54.246498
-10.924444 -6.5485497 2.0068336 323 0 0 0 90.993912
-6.915555 -6.741786 2.1231627 312.5 0 0 0 87.280228
23.784678 -6.5655808 2.0855989 249 0 0 0 53.860359
-16.453768 -6.3517141 2.330514 137 0 0 0 93.722809
-15.386555 -6.3775587 2.2026799 202 0 0 0 93.337135
-7.594677 -6.2295356 2.2762363 239.5 0 0 0 88.645683
-7.1710978 -6.3372402 2.4555182 276 0 0 0 88.059563
-6.9615402 -6.1533403 2.1572316 252.5 0 0 0 88.059563
25.464098 -6.3585162 2.2162199 71 0 0 0 53.478111
28.265314 -6.3224506 2.4418745 144 0 0 0 53.08395
-22.446812 -5.6255803 2.4787533 93 0 0 0 95.671852
-15.582911 -5.5801921 2.1892204 114 0 0 0 94.123955
-8.2783594 -5.8302498 2.3480718 200 0 0 0 89.827583
-7.8377957 -5.7130008 2.2513523 302.66666 0 0 0 89.559204
-7.3321838 -5.8657494 2.1798158 294 0 0 0 88.839447
33.632381 -5.8084559 2.019722 119 0 0 0 52.305031
-19.244192 -5.3280039 2.1435504 90 0 0 0 95.290565
34.352951 -5.0662603 2.0546138 92 0 0 0 51.914902
4.3959913 -4.8860912 2.124929 547 0 0 0 62.841969
4.6023941 -4.725657 2.2467773 440.39999 0 0 0 62.217999
-27.604019 -4.098021 2.3047411 49 0 0 0 97.240479
-24.586908 -4.2693315 2.0646033 78 0 0 0 96.83857
34.464458 -4.2196469 2.0548596 61 0 0 0 51.526581
34.403111 -3.3557706 2.0462313 69 0 0 0 51.134941
33.882156 -2.4655759 2.012095 143 0 0 0 50.74052
38.55682 -1.8538156 2.2810988 15 0 0 0 50.3512
69.591705 1.7848071 2.3761363 22 0 0 0 49.184128
66.902191 3.3622534 2.2882321 8 0 0 0 48.784939
70.657066 5.2934766 2.4182479 101 0 0 0 48.39999
0.73939806 8.7844257 2.0468199 574 0 0 0 26.136862
1.3311659 8.8025427 2.144788 552.33331 0 0 0 27.173882
1.6615309 8.9722767 2.1228342 282 0 0 0 27.69758
10.977442 8.6647329 2.2323461 378 0 0 0 39.026939
69.16362 8.6149197 2.3796403 22 0 0 0 47.61652
0.32478923 9.1804819 2.1278534 659 0 0 0 25.350691
0.88588774 9.1315718 2.3542366 415.5 0 0 0 26.33074
1.2226273 9.0854282 2.3546176 329 0 0 0 26.9114
1.6958957 9.1518393 2.3931484 413 0 0 0 27.69758
17.535755 9.4489632 2.1781864 4 0 0 0 41.763142
18.326416 9.2983999 2.2461691 29 0 0 0 42.152561
40.142403 9.0789309 2.4304016 18 0 0 0 46.055672
-12.784011 9.8488636 2.0395131 315 0 0 0 10.13739
-8.3254051 9.7153368 2.2630343 413 0 0 0 13.45103
0.35389817 9.7887344 2.2653503 573.5 0 0 0 25.350691
0.57720065 9.555336 2.4522099 316 0 0 0 25.7491
1.0820905 9.7773523 2.0403061 304 0 0 0 26.52532
16.352827 9.8829594 2.0903566 107 0 0 0 40.975471
17.011909 9.7158747 2.1425927 6 0 0 0 41.365726
20.410755 9.7272415 2.4672842 15 0 0 0 42.542702
-12.267488 10.186699 2.0180979 293 0 0 0 10.71945
-8.0553446 10.131438 2.2916768 354 0 0 0 14.04063
-7.8780751 10.422355 2.3147953 292 0 0 0 14.42968
16.061197 10.255632 2.0844212 7 0 0 0 40.59137
-12.5659 10.69807 2.4936464 95 0 0 0 10.91163
-12.163286 10.878171 2.067081 19 0 0 0 11.30423
15.314868 10.878487 2.0544088 38 0 0 0 39.808079
15.648046 10.544147 2.0638766 16 0 0 0 40.206322
3.7541792 11.274632 2.4705777 374.5 0 0 0 29.837406
4.2137432 11.247166 2.4984746 272 0 0 0 30.42449
6.767261 11.498202 2.450654 682 0 0 0 33.164181
15.057003 11.263993 2.0557966 38 0 0 0 39.41486
-30.636806 11.726526 2.4996247 58 0 0 0 5.4641199
2.8749328 11.982044 2.2513406 590 0 0 0 28.471159
3.3393054 11.947822 2.2687995 530 0 0 0 29.060305
5.4836082 11.857251 2.234201 55 0 0 0 31.59754
5.7115335 11.592777 2.2113872 147.5 0 0 0 31.991899
6.1766896 11.557473 2.2981184 216.66667 0 0 0 32.508705
7.4281878 11.927361 2.2310717 141 0 0 0 33.548359
7.8297992 11.905206 2.262959 366 0 0 0 33.934727
8.2478666 11.889047 2.2983742 347 0 0 0 34.33366
8.6657143 11.853889 2.3327148 293 0 0 0 34.723259
9.0874023 11.806079 2.3672011 264 0 0 0 35.117119
9.5544729 11.796647 2.4121594 300 0 0 0 35.511719
10.002028 11.742814 2.4512625 250 0 0 0 35.901592
12.07209 11.617197 2.2463136 201 0 0 0 37.471352
12.648979 11.583282 2.2993565 226 0 0 0 37.85405
13.2651 11.557101 2.3582597 185 0 0 0 38.241341
14.175402 11.741828 2.2383327 9.5 0 0 0 38.644192
14.687707 11.563741 2.0433128 11 0 0 0 39.026939
-3.5848103 12.453048 2.1666636 506.5 0 0 0 20.29039
-3.2579517 12.454045 2.3131862 437 0 0 0 20.67403
-1.9734938 12.39314 2.2636189 361 0 0 0 22.223909
-1.0547814 12.491282 2.2669666 43 0 0 0 23.39653
-0.74664253 12.495849 2.2657182 31 0 0 0 23.790649
-0.28204057 12.263165 2.2237697 574.5 0 0 0 24.38196
2.1661286 12.320457 2.2811222 38.5 0 0 0 27.50135
3.8840547 12.13745 2.1736794 557.5 0 0 0 29.63879
4.2093573 12.114905 2.1887567 601.5 0 0 0 30.03602
4.7144241 12.099516 2.2177155 467.75 0 0 0 30.620186
5.2289348 12.078337 2.2490222 419 0 0 0 31.212219
-9.7216434 12.901093 2.0619428 90 0 0 0 14.42968
-8.8334942 12.992188 2.3966863 32 0 0 0 15.21789
-6.8563676 12.553673 2.1926689 237 0 0 0 16.765079
-6.2096076 12.554223 2.265754 307.33334 0 0 0 17.42028
-5.8112078 12.785354 2.1595712 39 0 0 0 17.934629
-5.4387665 12.783748 2.3097129 37.5 0 0 0 18.334789
-4.8363037 12.631285 2.2527556 194.25 0 0 0 18.921194
-4.1813917 12.752926 2.2396607 45 0 0 0 19.70384
-2.8698862 12.648993 2.2263474 64.666664 0 0 0 21.19668
-2.3223059 12.597891 2.3080099 51 0 0 0 21.836439
-14.105989 13.269928 2.4504189 11 0 0 0 11.6972
-13.465788 13.299867 2.3974054 5 0 0 0 12.08005
-12.769637 13.240612 2.3329225 11 0 0 0 12.46919
-9.3370333 13.041042 2.0495555 15 0 0 0 14.8218
-8.8750715 13.056282 2.0199108 16 0 0 0 15.21789
3.5908308 -20.795677 2.7988639 42 0 0 0 71.839104
4.0966797 -20.684708 2.7974019 29 0 0 0 71.44593
4.6383071 -20.734562 2.8191755 35 0 0 0 71.056076
5.1536808 -20.646122 2.8241818 20 0 0 0 70.673759
6.645834 -20.1721 2.8208909 59 0 0 0 69.498528
9.2315006 -19.55485 2.8746617 37 0 0 0 67.548225
6.374361 -16.580479 2.8063045 242 0 0 0 68.71273
6.4474816 -15.619441 2.6719041 19 0 0 0 68.327156
0.71811932 -15.046246 2.7505128 193 0 0 0 73.793091
6.5240183 -14.770008 2.5553432 14 0 0 0 67.936569
-0.020996541 -14.255938 2.954334 235 0 0 0 74.57238
1.0379888 -14.368567 2.6325972 106 0 0 0 73.394836
6.2289476 -14.105996 2.8240325 238 0 0 0 67.936569
-0.34453791 -13.162943 2.7307656 326 0 0 0 74.959602
-1.2832167 -12.844444 2.9917352 244 0 0 0 76.134689
-0.64529437 -12.701271 2.6380718 338 0 0 0 75.355904
24.333321 -12.997486 2.9938729 30 0 0 0 57.367271
-1.5404315 -12.342606 2.8834486 240 0 0 0 76.526497
-0.92800754 -12.293583 2.5578465 338 0 0 0 75.750038
24.197493 -12.170493 2.9407501 5 0 0 0 56.976002
-1.7540205 -11.702093 2.7441399 347 0 0 0 76.92128
5.8759766 -11.725817 2.7317021 149 0 0 0 67.15596
6.167645 -11.588082 2.7346172 678 0 0 0 66.760834
6.8646083 -11.710312 2.7156203 604.33331 0 0 0 66.104996
7.3703771 -11.679165 2.7065694 570 0 0 0 65.585358
7.7620831 -11.654177 2.7441897 552.5 0 0 0 65.201645
8.1676998 -11.632085 2.7855363 571.5 0 0 0 64.800179
8.5808249 -11.602333 2.6501064 576 0 0 0 64.413658
9.2348499 -11.564863 2.717834 473 0 0 0 63.826038
13.358746 -11.534804 2.7994134 7 0 0 0 60.88752
14.810981 -11.565429 2.5127597 12 0 0 0 60.10144
-3.1018765 -11.150843 2.966337 319 0 0 0 78.869789
-2.854248 -11.329166 2.9944279 283 0 0 0 78.477539
-1.9737709 -11.271136 2.6542323 307 0 0 0 77.315216
9.8933496 -11.494563 2.7846701 471 0 0 0 63.241688
10.272039 -11.356853 2.8118446 361 0 0 0 62.841969
12.420377 -11.271682 2.6619017 11 0 0 0 61.283207
13.918067 -11.431595 2.8563287 14 0 0 0 60.491539
14.510659 -11.331372 2.9192526 19 0 0 0 60.10144
15.291496 -11.346134 2.7791116 18 0 0 0 59.717926
16.327442 -11.204096 2.6469228 15.5 0 0 0 59.126667
17.448952 -11.048687 2.7593617 196 0 0 0 58.54351
18.377352 -11.011845 2.861315 183 0 0 0 58.152641
24.072918 -11.375499 2.8919663 156 0 0 0 56.590061
-3.5128202 -10.587057 2.8590744 259 0 0 0 79.651901
-3.2745478 -10.742697 2.8787742 447 0 0 0 79.265678
-2.3133292 -10.850473 2.5739202 360.5 0 0 0 77.893997
11.968535 -10.862949 2.9676502 17 0 0 0 61.283207
12.18718 -10.526557 2.9573786 7 0 0 0 60.88752
15.41935 -10.86367 2.9906478 14 0 0 0 59.323502
19.069782 -10.797842 2.9263587 179 0 0 0 57.764038
23.863249 -10.567122 2.8360336 174 0 0 0 56.20491
-4.3325663 -10.075704 2.8110209 382.5 0 0 0 81.021973
-3.8155911 -10.227014 2.798115 445 0 0 0 80.240417
-2.6432076 -10.483885 2.5083771 298 0 0 0 78.477539
12.398107 -10.187222 2.9474483 5 0 0 0 60.491539
15.705495 -10.496981 2.9955618 12 0 0 0 58.929832
-6.2550302 -9.5981503 2.9341009 350.5 0 0 0 83.759644
-5.7491951 -9.5747261 2.8609602 324 0 0 0 83.175888
-4.8147373 -9.8399887 2.8074656 376 0 0 0 81.801819
23.984394 -9.9228287 2.8213143 211 0 0 0 55.808392
-8.5797234 -9.0077763 2.877789 328 0 0 0 86.702049
-8.197587 -9.0396757 2.8236194 245 0 0 0 86.298843
-5.3817148 -9.4804258 2.7934427 216 0 0 0 82.784073
23.674475 -9.119854 2.7590804 28 0 0 0 55.417721
-7.7625041 -8.9925871 2.7495911 259 0 0 0 85.907158
-7.336637 -8.9319706 2.6762311 343 0 0 0 85.521919
-6.7785664 -8.8970375 2.5909579 452.5 0 0 0 84.928268
-13.487687 -8.086297 2.8589504 123 0 0 0 90.993912
0.98402953 -8.1898346 2.7417068 16 0 0 0 72.621117
1.1799605 -8.1235476 2.8298688 45.5 0 0 0 72.235527
23.749249 -8.4840717 2.7433608 24 0 0 0 55.030529
-17.235559 -7.6449051 2.9552443 95 0 0 0 92.938484
-16.089325 -7.6139383 2.7916927 143 0 0 0 92.539345
-12.537453 -7.9405112 2.6997528 223 0 0 0 90.60849
-11.598049 -7.7499251 2.5394928 243 0 0 0 90.216888
-7.5637813 -7.5592117 2.7400982 215 0 0 0 87.086014
0.78031987 -7.6728945 2.753891 82.5 0 0 0 72.909531
23.979111 -7.9066777 2.7470038 7 0 0 0 54.6497
-14.809062 -7.4577351 2.6027164 139 0 0 0 92.149765
-7.4778395 -7.1154571 2.6459665 179 0 0 0 87.474434
0.3279376 -7.1527848 2.7334423 8 0 0 0 73.793091
0.50290728 -7.1412611 2.6458192 49 0 0 0 73.394836
23.787535 -7.2000294 2.7050934 248 0 0 0 54.246498
-20.567026 -6.800941 2.8547981 76 0 0 0 94.511169
-7.5744586 -6.5310206 2.8126032 172 0 0 0 88.257408
23.773485 -6.5619893 2.6850762 253 0 0 0 53.860359
-7.6977329 -6.1598148 2.6516004 233.5 0 0 0 88.839447
25.5217 -6.3723145 2.8615246 23 0 0 0 53.478111
30.63859 -6.0653481 2.6304088 34 0 0 0 52.690567
-24.966444 -5.609695 2.7373807 69 0 0 0 96.06073
33.631756 -5.8014903 2.8708386 43 0 0 0 52.305031
-27.407654 -5.4552817 2.9863491 33 0 0 0 96.450562
4.7157378 -4.7441115 2.5745192 365 0 0 0 62.059025
-25.796583 -4.4793811 2.8002155 48 0 0 0 96.83857
-25.786097 -3.8281393 2.788255 47 0 0 0 97.240479
-54.53651 2.6262238 2.768069 12 0 0 0 0.39135
73.829041 7.3585191 2.5305023 20 0 0 0 48.00972
1.1944129 8.8973846 2.5294762 585 0 0 0 26.9114
10.991786 8.6770086 2.5833609 382 0 0 0 39.026939
11.030064 8.7080278 2.9395001 17 0 0 0 39.026939
0.99564552 9.0970058 2.5761864 648 0 0 0 26.52532
1.439334 9.0175142 2.573952 541 0 0 0 27.30512
17.544752 9.4588614 2.6712706 5 0 0 0 41.763142
18.341925 9.3113747 2.7557254 29 0 0 0 42.152561
0.703511 9.6623707 2.7227111 481.5 0 0 0 25.942631
16.338793 9.879571 2.5599487 96 0 0 0 40.975471
16.934475 9.6769247 2.6145117 9 0 0 0 41.365726
15.992993 10.217428 2.5442741 7 0 0 0 40.59137
15.306681 10.878639 2.7501743 28.5 0 0 0 39.808079
15.628424 10.536807 2.7609117 19 0 0 0 40.206322
15.032074 11.251536 2.7491593 25.5 0 0 0 39.41486
2.8706365 11.976027 2.7040944 437.5 0 0 0 28.471159
3.2829046 11.948148 2.7735682 434.66666 0 0 0 28.994492
3.5016398 11.962193 2.5868599 335 0 0 0 29.25774
4.1567659 11.981577 2.9452953 607 0 0 0 30.03602
5.6097035 11.755123 2.7108026 109 0 0 0 31.79472
6.0586925 11.569914 2.7196951 101 0 0 0 32.380138
6.6511478 11.964831 2.8498137 238 0 0 0 32.765839
7.2913418 11.926784 2.7957439 299.33334 0 0 0 33.4203
7.817626 11.889803 2.7886858 283 0 0 0 33.934727
8.2319746 11.86825 2.6528413 297 0 0 0 34.33366
8.6558046 11.842272 2.6944914 286 0 0 0 34.723259
9.0796843 11.797886 2.7350676 245 0 0 0 35.117119
9.7633419 11.753225 2.8076606 245 0 0 0 35.706657
10.48575 11.712256 2.8886106 216 0 0 0 36.294159
10.758704 11.718663 2.7273028 137 0 0 0 36.488319
11.009258 11.699062 2.5528924 121 0 0 0 36.68248
11.518891 11.649059 2.6033914 157 0 0 0 37.076462
12.066203 11.613051 2.6611376 166 0 0 0 37.471352
12.635374 11.572354 2.7224441 201 0 0 0 37.85405
13.243327 11.539673 2.7906904 203 0 0 0 38.241341
14.043262 11.637221 2.8965983 10 0 0 0 38.644192
14.661908 11.549068 2.500571 5 0 0 0 39.026939
-3.5853224 12.441687 2.7992845 403 0 0 0 20.29039
-3.2600591 12.450413 2.7848239 384 0 0 0 20.67403
-1.8205209 12.392101 2.7203023 270.75 0 0 0 22.423676
-1.2040564 12.396691 2.7091262 159.5 0 0 0 23.20137
-0.74265194 12.362848 2.6969924 183 0 0 0 23.790649
-0.28462717 12.253413 2.6727302 530 0 0 0 24.38196
0.16934723 12.338865 2.6929009 207.5 0 0 0 24.961161
2.5990469 12.160213 2.8805254 361 0 0 0 28.081011
3.8374984 12.011268 2.9270687 572 0 0 0 29.63879
4.7000036 12.071305 2.8499713 305 0 0 0 30.620186
5.2226009 12.067995 2.7341628 365 0 0 0 31.212219
-9.1975851 12.839833 2.7955294 135 0 0 0 14.8218
-8.8266716 12.979886 2.7806594 26 0 0 0 15.21789
-8.3459997 12.939201 2.7303073 33 0 0 0 15.60219
-7.7087669 12.966034 2.6788611 21 0 0 0 16.18729
-6.8469148 12.532323 2.7150836 370.5 0 0 0 16.765079
-6.3270307 12.530544 2.7293568 343 0 0 0 17.292999
-5.7814074 12.714026 2.6616943 72 0 0 0 17.934629
-5.3675399 12.608143 2.7827034 280 0 0 0 18.334789
-4.8067207 12.543966 2.7319617 342 0 0 0 18.921194
-4.2908335 12.557702 2.7022753 309 0 0 0 19.509871
-3.9468703 12.544616 2.6803441 178 0 0 0 19.89781
-2.8138266 12.624786 2.8021045 49.25 0 0 0 21.261906
-2.3184433 12.558996 2.7700243 46 0 0 0 21.836439
-14.050847 13.216176 2.9150078 9 0 0 0 11.6972
-13.331733 13.164796 2.8341846 26 0 0 0 12.08005
-12.59094 13.052051 2.7461886 72 0 0 0 12.46919
40.143898 14.442964 2.5165663 6 0 0 0 44.098938
41.869801 16.235739 2.6463099 8 0 0 0 43.715321
40.855572 18.200781 2.6347482 9 0 0 0 42.928768
6.5588551 -21.677233 3.0049577 38 0 0 0 69.882431
5.2180352 -20.902212 3.3920693 22 0 0 0 70.673759
6.5670009 -19.934175 3.3076558 83 0 0 0 69.498528
1.7985282 -18.453852 3.3790793 87 0 0 0 73.005669
