# .PCD v0.7 - Point Cloud Data file format
VERSION 0.7
FIELDS x y z intensity normal_x normal_y normal_z curvature
SIZE 4 4 4 4 4 4 4 4
TYPE F F F F F F F F
COUNT 1 1 1 1 1 1 1 1
WIDTH 941
HEIGHT 1
VIEWPOINT 0 0 0 1 0 0 0
POINTS 941
DATA ascii
3.1931574 11.291868 1.1702881 581.5 0 0 0 29.10133
3.7328453 11.233111 1.2304983 498.66666 0 0 0 29.815142
4.2542391 11.233784 1.2015638 63 0 0 0 30.47043
4.7609839 11.161311 1.2639004 77.333336 0 0 0 31.123884
-0.23244858 11.633598 1.1452568 536.75 0 0 0 24.412855
0.33743048 11.580523 1.2840186 718.5 0 0 0 25.191275
0.7628997 11.535512 1.2833326 783 0 0 0 25.7843
1.045634 11.50389 1.283676 685 0 0 0 26.173969
-9.8342314 12.480068 1.3053106 143 0 0 0 14.06335
-9.3477421 12.47585 1.283146 9 0 0 0 14.45093
-8.885746 12.481555 1.2635021 14 0 0 0 14.84155
-8.3406763 12.339551 1.2309638 174 0 0 0 15.23672
-7.8984733 12.321838 1.2120224 9 0 0 0 15.63334
-7.4862189 12.330235 1.1968237 6 0 0 0 16.02
-6.7246304 12.038727 1.3149281 379 0 0 0 16.59613
-6.2209187 12.166964 1.3059306 367.5 0 0 0 17.18889
-5.8521066 12.169467 1.2927952 586 0 0 0 17.57597
-20.152407 13.424455 1.3403262 18 0 0 0 8.9787598
-9.1418037 -17.050158 1.5655488 30 0 0 0 82.505249
13.327597 -16.341311 1.786589 150 0 0 0 63.72826
13.529206 -15.782378 1.7643107 213 0 0 0 63.329578
-9.0802345 -15.104871 1.8571725 25 0 0 0 83.292252
13.576567 -15.074177 1.7251891 189 0 0 0 62.931641
-9.1539936 -14.415135 1.8008125 56 0 0 0 83.675423
-5.8801637 -14.124651 1.8028028 45.5 0 0 0 80.938713
13.562587 -14.336487 1.6816806 248 0 0 0 62.541714
-9.1304321 -13.627754 1.7316153 39 0 0 0 84.064629
13.517356 -13.605235 1.6375955 347 0 0 0 62.158089
-5.8445415 -13.118652 1.5186721 47 0 0 0 81.336792
-9.1352711 -12.937505 1.6734623 33 0 0 0 84.459312
13.447535 -12.887807 1.5937179 220 0 0 0 61.754566
-9.1485653 -12.306763 1.8097878 40.5 0 0 0 84.857002
-5.8704486 -12.356344 1.783888 26 0 0 0 81.727592
-9.2049541 -11.769002 1.7650237 74 0 0 0 85.241371
-5.9109597 -11.692723 1.7099928 65 0 0 0 82.118797
-4.513936 -11.627451 1.7836782 881.5 0 0 0 80.547043
-4.2320786 -11.745178 1.7858024 718 0 0 0 80.16243
-3.7583542 -11.764114 1.7676356 891.5 0 0 0 79.574661
-3.2842708 -11.752003 1.747547 933.5 0 0 0 78.980576
-2.8212607 -11.737557 1.7301641 966.5 0 0 0 78.398239
-2.2168312 -11.717239 1.710853 969.25 0 0 0 77.612305
-1.7729447 -11.708849 1.7001262 972.5 0 0 0 77.037315
-1.3343121 -11.692945 1.6909697 1028.5 0 0 0 76.446671
-0.75286591 -11.60129 1.6724806 1110.75 0 0 0 75.666519
-0.18199329 -11.58025 1.6679995 1043.25 0 0 0 74.882462
0.24384594 -11.6435 1.6783652 979.5 0 0 0 74.290573
0.67108649 -11.626616 1.6800573 940.75 0 0 0 73.699051
1.2427292 -11.611288 1.686718 1000 0 0 0 72.920891
1.6741838 -11.599517 1.6942006 1068 0 0 0 72.330002
2.7726223 -11.883949 1.7674134 70 0 0 0 70.967514
3.2374096 -11.884663 1.7860637 54 0 0 0 70.375343
3.7050736 -11.861262 1.8041515 55.5 0 0 0 69.789177
4.1824617 -11.842461 1.8253542 46.5 0 0 0 69.197777
4.6759057 -11.830347 1.6937907 44.5 0 0 0 68.617104
5.1772208 -11.809865 1.7189699 35 0 0 0 68.023392
5.6601648 -11.719997 1.7374706 23.5 0 0 0 67.439285
-9.2026978 -11.18813 1.5350137 54 0 0 0 85.641678
-5.9352379 -11.058444 1.6395454 39 0 0 0 82.505249
1.9223528 -11.350548 1.6660378 61 0 0 0 71.944633
2.2115676 -11.360128 1.6761308 48.5 0 0 0 71.555153
5.947422 -11.240682 1.7009939 49 0 0 0 66.8508
6.4337149 -11.467465 1.7593236 802 0 0 0 66.455818
6.8079238 -11.464988 1.7853693 714 0 0 0 66.069244
7.1842585 -11.448407 1.8110673 659 0 0 0 65.679779
7.7776165 -11.433763 1.6848457 730.5 0 0 0 65.091682
8.2969208 -11.282312 1.7085834 694.5 0 0 0 64.501717
8.6987734 -11.239082 1.735055 383 0 0 0 64.11615
13.238441 -11.31162 1.7792138 380 0 0 0 60.852825
-10.567812 -10.549998 1.5837792 271 0 0 0 87.213242
-10.392249 -10.895758 1.5960315 171 0 0 0 86.826019
13.39022 -10.524673 1.8822137 397 0 0 0 60.196991
-10.724055 -10.193973 1.5703191 213 0 0 0 87.60656
-10.942235 -9.9027739 1.5670857 137 0 0 0 87.990013
13.400135 -9.7580929 1.8354094 232.5 0 0 0 59.614834
-12.21276 -9.0478811 1.6162628 322 0 0 0 89.551743
13.457685 -9.0592976 1.7991085 137 0 0 0 59.03093
-12.441741 -8.7538185 1.6185954 327 0 0 0 89.955452
13.486385 -8.6049824 1.7760695 20 0 0 0 58.637421
-13.033784 -8.2468157 1.6424702 318 0 0 0 90.74353
-12.683503 -8.4671898 1.6234089 285 0 0 0 90.347183
13.298264 -8.0328436 1.7272538 593 0 0 0 58.241753
-14.32664 -7.6533904 1.7309815 253 0 0 0 91.904739
-13.871289 -7.85289 1.6983206 217 0 0 0 91.519875
-13.338144 -7.9886956 1.6563683 291 0 0 0 91.13607
-9.6771078 -7.5441203 1.9145263 496 0 0 0 89.16272
13.278893 -7.5823174 1.7018929 555 0 0 0 57.850712
-16.452579 -7.2905383 1.9176962 172 0 0 0 93.076355
-15.405444 -7.2832198 1.8165418 250 0 0 0 92.678642
-14.834584 -7.4634333 1.7700255 199 0 0 0 92.286163
13.285879 -7.1592393 1.6814359 639 0 0 0 57.452793
13.998138 -7.1029887 1.7484566 327 0 0 0 57.063759
14.844676 -7.0772705 1.8311076 288 0 0 0 56.678219
16.183933 -7.2297182 1.755923 10.5 0 0 0 56.279232
16.983271 -7.0892892 1.5985522 28 0 0 0 55.893471
17.945866 -6.9765611 1.6718206 208 0 0 0 55.506111
19.260607 -6.945632 1.7764932 159 0 0 0 55.113831
19.606112 -6.5296354 1.7937737 185 0 0 0 54.72974
23.554293 -6.5761781 1.5076406 187 0 0 0 53.940521
-17.51399 -6.2657895 1.5335125 155 0 0 0 94.260475
-17.356028 -6.2093115 1.9672709 106 0 0 0 94.260475
19.719677 -6.0328317 1.7912138 66 0 0 0 54.331161
23.943071 -6.0539742 1.5232553 200 0 0 0 53.553768
-20.453833 -5.6608758 1.7489741 107 0 0 0 95.422287
-19.593121 -5.9436269 1.6872154 101 0 0 0 95.036621
-18.077291 -5.9715724 1.5699778 167 0 0 0 94.645821
-17.409929 -5.7511292 1.9582025 89 0 0 0 94.645821
-21.752901 -5.4497824 1.8475939 108 0 0 0 95.815559
-17.721174 -5.3757401 1.978693 65 0 0 0 95.036621
-5.3304596 -5.0633125 1.7878282 637 0 0 0 87.60656
24.040857 -5.4534221 1.5215882 138 0 0 0 53.155098
-5.756865 -4.636703 1.8309339 549.33331 0 0 0 88.904938
-5.4392633 -4.8239923 1.7163168 660.20001 0 0 0 88.143799
22.465908 -4.5161524 1.9901204 272 0 0 0 52.772633
24.036572 -4.8342276 1.514496 135 0 0 0 52.772633
23.999762 -4.2155981 1.5063018 141 0 0 0 52.377113
22.463247 -3.9433739 1.9817272 276 0 0 0 52.377113
22.46089 -3.3756411 1.9745318 189 0 0 0 51.98196
24.159409 -3.0278301 1.5066937 29 0 0 0 51.590553
22.724119 -2.8452537 1.9912851 71 0 0 0 51.590553
-8.7699461 8.8023643 1.8265976 443 0 0 0 12.23223
-8.2654219 8.998765 1.8993533 414 0 0 0 12.88757
8.2192507 8.9206896 1.8213543 37.25 0 0 0 36.541763
8.8562737 8.921958 1.7302103 11 0 0 0 37.123638
9.2478094 8.8657637 1.7628099 6 0 0 0 37.522831
-8.0296021 9.1830502 1.7485757 507.5 0 0 0 13.27064
-7.8437524 9.4272976 1.6082406 491 0 0 0 13.65985
-3.2381232 9.4904385 1.5893543 424 0 0 0 19.527519
-2.8392143 9.4362888 1.5648903 665.5 0 0 0 20.117599
-2.3318181 9.3913956 1.5403669 644 0 0 0 20.900999
-1.7233108 9.357296 1.518636 392 0 0 0 21.870689
-1.3630276 9.305829 1.5037458 654.5 0 0 0 22.459475
6.7074919 9.381958 1.7312959 83.25 0 0 0 34.575085
7.2787924 9.1833506 1.7596663 35.25 0 0 0 35.359509
7.7582741 9.0753498 1.7928932 23 0 0 0 35.94548
-11.355838 9.7104549 1.5759797 403 0 0 0 10.93883
-10.655792 9.8058338 1.5307804 444 0 0 0 11.521
-7.9335833 9.5348797 1.9312307 387 0 0 0 13.65985
-4.2091179 9.5728989 1.6504636 545.5 0 0 0 18.160271
-3.6418681 9.5167561 1.6122246 617.5 0 0 0 18.945965
-2.0403433 9.7548733 1.5876638 124 0 0 0 21.487499
5.9048634 9.981102 1.7381585 36 0 0 0 33.212662
6.2242489 9.684742 1.7271637 70.75 0 0 0 33.796585
-15.647866 10.397784 1.5116758 193 0 0 0 8.9787598
-9.4009018 10.255829 1.8174005 163 0 0 0 12.88757
5.4895015 10.418581 1.7630365 28.5 0 0 0 32.426441
5.6883574 10.179905 1.7469183 29 0 0 0 32.81691
-15.562307 10.899255 1.5302575 64 0 0 0 9.3648701
5.1968937 10.814481 1.7945238 21.5 0 0 0 31.847912
1.2287256 11.471474 1.7576593 589.33331 0 0 0 26.436691
1.7488198 11.424757 1.7155943 532.5 0 0 0 27.155645
2.3168235 11.360401 1.7236625 615.75 0 0 0 27.933319
2.7475674 11.31691 1.7330174 657 0 0 0 28.51952
3.1832502 11.272655 1.7449743 664.75 0 0 0 29.10133
3.7711165 11.206826 1.7635925 439.25 0 0 0 29.882154
4.2717485 11.290406 1.8014678 58 0 0 0 30.47043
4.7382035 11.244105 1.8223757 50.75 0 0 0 31.057976
-0.23672222 11.621875 1.714944 612.25 0 0 0 24.412855
0.33328623 11.568794 1.710672 656 0 0 0 25.191275
0.75803286 11.521023 1.708802 594 0 0 0 25.7843
1.042384 11.503265 1.5678619 726 0 0 0 26.173969
-8.3473654 12.342882 1.7741764 199.5 0 0 0 15.23672
-7.783535 12.463255 1.9328288 15 0 0 0 15.82667
-6.7236099 12.02724 1.8180329 371.5 0 0 0 16.59613
-6.2246404 12.16398 1.80589 383 0 0 0 17.18889
-5.855895 12.166676 1.7868091 555 0 0 0 17.57597
-16.65435 12.932602 1.6993914 121 0 0 0 10.15259
-9.0398197 -16.858049 2.0122271 20 0 0 0 82.505249
13.335888 -16.35437 2.3010287 169 0 0 0 63.72826
-9.0357885 -15.906488 2.3752077 22 0 0 0 82.900177
13.513616 -15.767033 2.2675259 245 0 0 0 63.329578
17.458942 -15.914987 2.0139892 20 0 0 0 61.366871
-9.0726032 -15.097011 2.2884142 28 0 0 0 83.292252
13.561381 -15.059979 2.2163899 186 0 0 0 62.931641
-9.0674067 -14.283045 2.1997163 31 0 0 0 83.675423
13.560951 -14.337192 2.1616774 179 0 0 0 62.541714
-9.665905 -13.694814 2.1806545 240 0 0 0 84.459312
-9.1277122 -13.627996 2.1340499 42 0 0 0 84.064629
13.516651 -13.606794 2.104238 287 0 0 0 62.158089
13.455707 -12.897722 2.0482817 238 0 0 0 61.754566
-10.342128 -12.27125 2.0912256 255.5 0 0 0 85.836548
-11.074735 -11.616021 2.0929394 221 0 0 0 86.826019
-10.794509 -11.891928 2.0936451 222 0 0 0 86.427452
-4.5186434 -11.637161 2.2474735 779 0 0 0 80.547043
-4.2435369 -11.774389 2.2536025 554 0 0 0 80.16243
-3.7605572 -11.767891 2.2257934 789.5 0 0 0 79.574661
-3.2841856 -11.747849 2.1987386 865 0 0 0 78.980576
-2.8255315 -11.749622 2.3279397 830.5 0 0 0 78.398239
-2.2205932 -11.728605 2.3012526 890.5 0 0 0 77.612305
-1.7756135 -11.716093 2.2856441 906.5 0 0 0 77.037315
-1.3379778 -11.710539 2.2749844 837 0 0 0 76.446671
-0.75518954 -11.611756 2.2481298 915.5 0 0 0 75.666519
-0.18383913 -11.589607 2.2413373 938.5 0 0 0 74.882462
0.24204713 -11.645958 2.2536283 967.5 0 0 0 74.290573
0.66950226 -11.632744 2.2560782 928.25 0 0 0 73.699051
1.2416006 -11.61934 2.2647235 922.75 0 0 0 72.920891
1.6743023 -11.614485 2.2757251 869 0 0 0 72.330002
2.714381 -11.860532 2.3121865 58.666668 0 0 0 71.031776
3.2349291 -11.88219 2.2425032 52 0 0 0 70.375343
3.7040229 -11.864093 2.2657475 38.5 0 0 0 69.789177
4.1841736 -11.852596 2.2934706 43 0 0 0 69.197777
4.6785421 -11.842049 2.1680942 42.5 0 0 0 68.617104
5.1834774 -11.828591 2.2012172 37 0 0 0 68.023392
5.605269 -11.733264 2.1653583 35.666668 0 0 0 67.503426
-11.299546 -11.2851 2.0834506 220 0 0 0 87.213242
1.9243648 -11.374345 2.2390175 57.5 0 0 0 71.944633
2.2158172 -11.392466 2.2539768 56 0 0 0 71.555153
5.8654265 -11.313465 2.2301846 31.333334 0 0 0 66.982819
6.4411788 -11.484478 2.2511082 675 0 0 0 66.455818
6.8079119 -11.468642 2.2813253 722.5 0 0 0 66.069244
7.1863861 -11.455337 2.3144813 642 0 0 0 65.679779
7.7770653 -11.433949 2.1976309 615.5 0 0 0 65.091682
8.3017178 -11.289971 2.2293212 721 0 0 0 64.501717
8.6967096 -11.237556 2.2619107 257 0 0 0 64.11615
13.275675 -11.248394 2.3486362 319 0 0 0 60.787079
-11.564372 -10.997331 2.0827925 219 0 0 0 87.60656
13.387945 -10.520764 2.3014405 344 0 0 0 60.196991
13.391091 -9.7495279 2.2424483 432.5 0 0 0 59.614834
-13.647384 -9.114502 2.1473753 242 0 0 0 90.347183
-13.184436 -9.2801352 2.109262 227 0 0 0 89.955452
13.43889 -9.0446711 2.1959467 538 0 0 0 59.03093
-15.088834 -8.5460138 2.2704666 154 0 0 0 91.519875
-14.569965 -8.7303553 2.2235177 230 0 0 0 91.13607
-14.070599 -8.9066648 2.1795444 225 0 0 0 90.74353
13.420908 -8.5613909 2.1600935 388 0 0 0 58.637421
-16.598379 -8.3548498 2.4330585 152 0 0 0 92.286163
-15.818883 -8.4544983 2.3484585 164 0 0 0 91.904739
13.304988 -8.0355282 2.3041701 495 0 0 0 58.241753
13.287479 -7.5858221 2.2703886 494.5 0 0 0 57.850712
-18.285748 -7.0523438 2.0881286 106 0 0 0 93.85495
-17.639307 -7.3046389 2.0337389 177 0 0 0 93.461929
13.283148 -7.1563816 2.2406714 468.5 0 0 0 57.452793
14.028527 -7.1163101 2.1401222 307 0 0 0 57.063759
14.866261 -7.0853772 2.2398751 285 0 0 0 56.678219
16.18782 -7.2296572 2.4094679 24 0 0 0 56.279232
17.125887 -7.1496315 2.0637667 33 0 0 0 55.893471
17.958261 -6.9823942 2.1423569 210 0 0 0 55.506111
19.266687 -6.9488535 2.2759864 178 0 0 0 55.113831
20.771395 -6.9173126 2.4312868 138 0 0 0 54.72974
-17.694136 -6.3338284 2.4667339 90 0 0 0 94.260475
22.49522 -6.2782221 2.0245013 207 0 0 0 53.940521
-17.721098 -5.8574176 2.451216 73 0 0 0 94.645821
22.497826 -5.6864986 2.0128655 301 0 0 0 53.553768
-26.338055 -5.2408614 2.2091157 81 0 0 0 96.584099
-24.10743 -5.4149418 2.0337443 64 0 0 0 96.198723
-18.413528 -5.09619 2.0416179 55 0 0 0 95.422287
-17.928036 -5.4419689 2.4617889 99 0 0 0 95.036621
22.481163 -5.0975494 2.000813 273 0 0 0 53.155098
-28.616558 -4.9678001 2.3883216 42 0 0 0 96.97702
-6.0572248 -4.7201719 2.152833 25 0 0 0 89.16272
-5.6559896 -4.6913533 2.2854791 280.25 0 0 0 88.675659
-5.4386835 -4.8237271 2.1811783 593 0 0 0 88.143799
36.444874 -1.8507046 2.2414916 32 0 0 0 50.41748
59.201714 -0.087413691 2.1635058 37 0 0 0 49.641071
-39.964321 0.98329717 2.2913146 14 0 0 0 0
59.076397 1.3650432 2.1607997 213 0 0 0 49.253601
59.456036 4.3038979 2.1817255 20 0 0 0 48.467079
59.312862 5.7620001 2.1820319 18 0 0 0 48.081161
36.158112 7.1512327 2.2703326 39 0 0 0 46.509541
59.407776 7.2490926 2.1921897 6 0 0 0 47.693481
8.2137794 8.9158688 2.2728174 28.5 0 0 0 36.541763
8.8706875 8.9376488 2.2036443 9.5 0 0 0 37.123638
9.3016195 8.9177523 2.0934129 8 0 0 0 37.522831
-8.6546097 9.1985359 2.2722173 244.5 0 0 0 12.690611
-8.2016373 9.3798265 2.2443893 252 0 0 0 13.27064
6.7050567 9.380825 2.3038664 45.5 0 0 0 34.575085
7.2806368 9.1879082 2.3426535 26.75 0 0 0 35.359509
7.7519641 9.0695391 2.2366588 25 0 0 0 35.94548
-8.1829596 9.8370981 2.3061547 237 0 0 0 13.65985
5.8906069 9.9604435 2.3090663 35.5 0 0 0 33.212662
6.2199836 9.6809492 2.297699 48.25 0 0 0 33.796585
-8.0421696 10.16727 2.019093 241 0 0 0 14.06335
-7.9384007 10.031852 2.3075123 346 0 0 0 14.06335
5.4833689 10.410755 2.345783 25.5 0 0 0 32.426441
5.6680098 10.147371 2.3185241 36.5 0 0 0 32.81691
31.278053 10.307427 2.0339868 47 0 0 0 44.560162
5.1971531 10.81815 2.2423012 16 0 0 0 31.84791
-6.145144 11.297906 2.3333104 239 0 0 0 16.790939
-5.7765164 11.265559 2.2992563 242 0 0 0 17.18889
-5.4539394 11.308402 2.2823198 82 0 0 0 17.57597
-3.6920321 11.490041 2.3044391 152 0 0 0 19.788353
-3.2728238 11.455738 2.3268881 546 0 0 0 20.316429
-2.9626532 11.420219 2.3064871 176.5 0 0 0 20.710289
1.1780269 11.463768 2.2784069 256 0 0 0 26.37101
1.7450734 11.416079 2.2861617 341.75 0 0 0 27.155645
2.3121824 11.348066 2.2954855 604 0 0 0 27.933319
2.7414856 11.30143 2.3068762 624.5 0 0 0 28.51952
3.1789122 11.264997 2.3239403 565.25 0 0 0 29.10133
3.7155981 11.200478 2.2964408 498.33334 0 0 0 29.815142
4.2731519 11.298202 2.2525668 56 0 0 0 30.47043
4.736062 11.24295 2.2766669 48 0 0 0 31.057976
-5.2047915 11.505188 2.2973995 83 0 0 0 17.96603
-4.2352991 11.547797 2.2443712 123 0 0 0 19.142349
-2.7632594 11.857322 2.2316151 372 0 0 0 21.091709
-2.2509301 11.817658 2.3067551 526.66669 0 0 0 21.74296
-1.696108 11.753466 2.3297024 545.25 0 0 0 22.459475
-1.252479 11.716336 2.3142476 518 0 0 0 23.042061
-0.81466168 11.666225 2.2999265 587.5 0 0 0 23.631565
-0.23903856 11.605046 2.2864494 651.25 0 0 0 24.412855
0.33007455 11.547709 2.2790089 597.25 0 0 0 25.191275
0.75554383 11.519274 2.2796345 277 0 0 0 25.7843
-36.749252 12.158642 2.0897326 45 0 0 0 4.6887002
-9.8412294 12.479075 2.0785825 125 0 0 0 14.06335
-8.3314228 12.312235 2.3181107 142 0 0 0 15.23672
-7.7615261 12.424696 2.2880073 19 0 0 0 15.82667
-6.7222147 12.02145 2.1566777 415.5 0 0 0 16.59613
-6.2297969 12.170803 2.1439738 368 0 0 0 17.18889
-5.8585563 12.168728 2.1201324 442 0 0 0 17.57597
-5.109417 12.083985 2.3879428 292 0 0 0 18.354509
-4.7586694 12.067792 2.3634272 342 0 0 0 18.74958
-16.644304 12.922229 2.2075007 146 0 0 0 10.15259
-15.891266 12.969788 2.1516826 158 0 0 0 10.54714
-13.45295 12.713425 2.4029927 149 0 0 0 11.7165
-12.358069 12.874392 2.321923 16 0 0 0 12.49365
-9.2969217 12.608753 2.180696 10.666667 0 0 0 14.581136
-8.9330912 12.535608 2.3972061 14 0 0 0 14.84155
31.280405 12.936659 2.0896857 24 0 0 0 43.391521
-17.9039 13.216929 2.3276591 26 0 0 0 9.7626295
32.111313 15.169757 2.1902988 19 0 0 0 42.60923
-11.264272 15.864237 2.0671666 8 0 0 0 14.84155
-11.171149 17.499933 2.2091048 9 0 0 0 15.63334
30.12084 17.054031 2.1350937 17 0 0 0 41.423847
-10.927048 18.082453 2.2502162 9 0 0 0 16.02
31.246567 18.719315 2.2443688 18 0 0 0 41.036098
57.196156 20.403641 2.2286043 15 0 0 0 44.167622
28.077753 20.82653 2.1540966 34 0 0 0 39.478088
28.572721 22.301723 2.2314448 23 0 0 0 39.085339
28.35515 23.275839 2.2573845 22 0 0 0 38.699432
-8.9627314 -16.718019 2.9299457 21 0 0 0 82.505249
13.33497 -16.350401 2.8201337 136 0 0 0 63.72826
-9.5532598 -15.897441 2.8661311 190 0 0 0 83.292252
-9.0627403 -15.952759 2.835259 8 0 0 0 82.900177
13.531943 -15.785575 2.7823079 210 0 0 0 63.329578
17.474728 -15.931905 2.5911989 22 0 0 0 61.366871
-9.6655674 -15.226281 2.7882609 74 0 0 0 83.675423
13.605673 -15.106318 2.7239528 96 0 0 0 62.931641
-10.421408 -14.766425 2.7951097 87 0 0 0 84.459312
-10.513513 -14.147967 2.7273471 187 0 0 0 84.857002
-10.655331 -13.628338 2.6778626 193 0 0 0 85.241371
-9.0889015 -13.569098 2.5283453 29 0 0 0 84.064629
13.507161 -13.594831 2.5746708 246 0 0 0 62.158089
-10.7718 -13.102742 2.6269255 194 0 0 0 85.641678
-11.214854 -12.664165 2.6210985 174.5 0 0 0 86.229439
13.483629 -12.92309 2.7439456 230.5 0 0 0 61.754566
-11.642546 -12.211998 2.615365 188 0 0 0 86.826019
13.483611 -12.304426 2.9113412 63 0 0 0 61.366871
-12.194525 -11.597001 2.610225 147 0 0 0 87.60656
-11.937879 -11.923082 2.6161022 156 0 0 0 87.213242
-4.5237212 -11.650864 2.7093058 719 0 0 0 80.547043
-4.2375188 -11.75807 2.709708 558.5 0 0 0 80.16243
-3.7663264 -11.786129 2.6839209 750.5 0 0 0 79.574661
-3.2897389 -11.768029 2.6515133 739.5 0 0 0 78.980576
-2.829586 -11.770639 2.7761369 738.5 0 0 0 78.398239
-2.2238641 -11.751781 2.7445056 716 0 0 0 77.612305
-1.7774012 -11.734159 2.7245095 806 0 0 0 77.037315
-1.2902761 -11.722916 2.805423 788 0 0 0 76.380898
-0.75527531 -11.617479 2.8190522 789 0 0 0 75.666519
-0.1836547 -11.575315 2.8051395 776 0 0 0 74.882462
0.24160871 -11.619467 2.8168843 732 0 0 0 74.290573
0.66778028 -11.602034 2.8186514 769 0 0 0 73.699051
1.1922959 -11.601676 2.7831309 771.33331 0 0 0 72.984871
1.6759417 -11.622123 2.7084918 740 0 0 0 72.330002
2.2473805 -11.549634 2.7165725 42 0 0 0 71.555153
2.7726405 -11.678388 2.6744254 39 0 0 0 70.903252
3.2625968 -11.614966 2.6909838 35.666668 0 0 0 70.244698
3.6609569 -11.731204 2.5429645 39.5 0 0 0 69.789177
4.2930593 -11.705143 2.5829816 36.5 0 0 0 69.006348
4.7903814 -11.710588 2.6233332 39 0 0 0 68.419281
5.2899284 -11.682831 2.6615655 55.5 0 0 0 67.82756
5.7522435 -11.555006 2.6811764 58 0 0 0 67.246849
1.3570526 -11.390284 2.9266574 36 0 0 0 72.728943
1.9245719 -11.372759 2.6624022 87 0 0 0 71.944633
3.8649809 -11.397711 2.7874179 28 0 0 0 69.396362
4.2923579 -11.276267 2.7968607 28 0 0 0 68.814926
4.7183881 -11.145268 2.8083434 26.5 0 0 0 68.221336
5.9621444 -11.276008 2.6518285 78 0 0 0 66.8508
6.437429 -11.481626 2.7374027 654 0 0 0 66.455818
6.8202891 -11.493019 2.7806323 557 0 0 0 66.069244
7.1923761 -11.468373 2.818073 608 0 0 0 65.679779
7.7709918 -11.428869 2.7090211 519.25 0 0 0 65.091682
8.2971802 -11.28707 2.7484708 637.5 0 0 0 64.501717
8.6958199 -11.239555 2.7894888 129 0 0 0 64.11615
13.208317 -11.473498 2.7941766 341 0 0 0 60.98431
1.6894419 -10.802206 2.7931411 28.5 0 0 0 72.137314
2.2162895 -10.706505 2.7957149 32 0 0 0 71.357727
2.7378678 -10.586376 2.7991388 36.5 0 0 0 70.575027
3.1582212 -10.589803 2.8307905 23 0 0 0 69.983398
5.25635 -10.895261 2.8106375 28 0 0 0 67.439285
5.8132296 -10.677242 2.8281488 33 0 0 0 66.653305
13.319343 -10.737425 2.735981 294 0 0 0 60.393417
-13.791413 -10.221931 2.6667173 173 0 0 0 89.551743
1.4905047 -10.376539 2.9386773 52 0 0 0 72.330002
1.7491615 -10.367108 2.948411 33 0 0 0 71.944633
2.1444941 -10.370571 2.9717634 38 0 0 0 71.357727
2.5447676 -10.369709 2.9981091 37 0 0 0 70.774719
3.398299 -10.453598 2.8176405 43 0 0 0 69.594955
3.8091602 -10.399185 2.8413832 42 0 0 0 69.006348
4.224596 -10.340217 2.8678648 52 0 0 0 68.419281
4.6662354 -10.317177 2.9096491 33.5 0 0 0 67.82756
5.275569 -10.287214 2.9736061 35.5 0 0 0 67.048828
6.360446 -10.428878 2.8452251 33 0 0 0 65.874512
-15.23665 -9.6451836 2.8030622 158 0 0 0 90.74353
-14.532726 -9.7061176 2.7163689 217 0 0 0 90.347183
-14.097057 -9.9228935 2.6789436 233 0 0 0 89.955452
12.943154 -9.6714706 2.9893589 202 0 0 0 59.81102
13.357026 -9.9777699 2.6695201 313 0 0 0 59.81102
-16.396778 -9.2871656 2.9301465 173 0 0 0 91.519875
-15.642561 -9.3733854 2.8354378 147 0 0 0 91.13607
13.137198 -9.3206892 2.5820303 23 0 0 0 59.418648
13.215706 -8.8971882 2.7549682 199.5 0 0 0 59.03093
-18.706579 -8.2936096 2.6786473 135 0 0 0 93.076355
-17.577557 -8.3143053 2.5457201 132 0 0 0 92.678642
13.265124 -8.313693 2.7733889 263.66666 0 0 0 58.505535
-18.456604 -7.6469951 2.6173272 85 0 0 0 93.461929
-9.6878643 -7.5535965 2.6714473 395 0 0 0 89.16272
13.274578 -7.5802011 2.8375943 387 0 0 0 57.850712
-9.9194822 -7.1659689 2.812108 254.5 0 0 0 89.753601
13.278994 -7.1557617 2.8019426 376 0 0 0 57.452793
14.009259 -7.1076441 2.5273564 327 0 0 0 57.063759
14.867599 -7.0870724 2.6490817 247 0 0 0 56.678219
15.805161 -7.0605273 2.7833772 257 0 0 0 56.279232
16.849373 -7.0333033 2.9347818 236 0 0 0 55.893471
17.309675 -7.2235751 2.5480294 33 0 0 0 55.893471
-27.178928 -6.8093519 2.9800813 70 0 0 0 95.815559
-18.03562 -6.9595094 2.535054 51 0 0 0 93.85495
17.987524 -6.9911551 2.6217165 174 0 0 0 55.506111
19.293768 -6.9558225 2.784909 136 0 0 0 55.113831
20.71854 -6.8968005 2.9636884 141 0 0 0 54.72974
22.436552 -6.8618836 2.6039362 91 0 0 0 54.331161
12.632412 -6.4133043 2.6353307 110 0 0 0 57.063759
13.53629 -5.6568446 2.730953 79 0 0 0 55.893471
-5.4021778 -5.1345491 2.7269733 261.5 0 0 0 87.60656
-5.6492529 -4.6311188 2.6744776 174.5 0 0 0 88.776047
-5.3982902 -4.76722 2.63673 410.5 0 0 0 88.182243
30.33008 7.5736027 2.7125289 13 0 0 0 45.724819
30.38884 8.387886 2.7353208 29 0 0 0 45.337009
8.2000513 8.9042187 2.7177589 29.25 0 0 0 36.541763
8.7734051 8.843708 2.7952468 128.5 0 0 0 37.123638
-8.362525 9.3296185 2.5620899 409.5 0 0 0 13.079105
6.7051253 9.3864441 2.7313223 42 0 0 0 34.575085
7.2596626 9.1668663 2.7694798 22.5 0 0 0 35.359509
7.7243843 9.0406704 2.669467 18 0 0 0 35.94548
10.673037 9.2608728 2.9934218 36 0 0 0 38.301552
30.718609 9.2980804 2.7842095 4 0 0 0 44.954559
5.8867083 9.9601917 2.7364016 34 0 0 0 33.212662
6.210093 9.6722679 2.8618317 43.75 0 0 0 33.796585
5.5940218 10.319692 2.7745357 24.5 0 0 0 32.621674
31.202467 10.288955 2.8493369 27 0 0 0 44.560162
5.190289 10.80934 2.684073 18.25 0 0 0 31.84791
0.74915445 11.491795 2.8398376 525.5 0 0 0 25.7843
1.1721746 11.449416 2.8409538 563.25 0 0 0 26.37101
1.7383611 11.400887 2.8500094 537.5 0 0 0 27.155645
2.2565458 11.334104 2.811291 540 0 0 0 27.869017
2.7385256 11.304503 2.7363055 523 0 0 0 28.51952
3.1728253 11.257284 2.7537067 518.5 0 0 0 29.10133
3.8117666 11.189342 2.6887786 358 0 0 0 29.949165
4.264761 11.283531 2.6956232 57.5 0 0 0 30.47043
4.7229905 11.219095 2.721597 44.25 0 0 0 31.057976
30.849644 11.021619 2.8412602 9 0 0 0 44.167622
-6.5186691 11.99447 2.8096015 332 0 0 0 16.790939
-4.1479654 11.754435 2.7353196 223 0 0 0 19.334934
-3.8050601 11.681541 2.6978076 300 0 0 0 19.723145
-3.2200584 11.812553 2.8408899 395 0 0 0 20.513359
-2.7695498 11.871138 2.682487 345.5 0 0 0 21.091709
-2.3529761 11.809949 2.7018898 481.33334 0 0 0 21.615229
-1.6989417 11.744152 2.7640018 495.5 0 0 0 22.459475
-1.2547648 11.698978 2.7435017 502 0 0 0 23.042061
-0.81837535 11.66363 2.7294579 471 0 0 0 23.631565
-0.19567488 11.599153 2.8071125 545.33331 0 0 0 24.479706
0.32534236 11.539943 2.8443303 535.5 0 0 0 25.191275
30.556953 11.772892 2.8401959 25 0 0 0 43.781719
-9.2874289 12.378583 2.7889285 188 0 0 0 14.45093
-8.8080311 12.354868 2.7370839 198 0 0 0 14.84155
-8.3430643 12.326735 2.6876576 185 0 0 0 15.23672
-7.8911157 12.293394 2.6402986 6 0 0 0 15.63334
-7.4624128 12.271599 2.7743692 25 0 0 0 16.02
-6.9245429 12.03472 2.6848845 311 0 0 0 16.40132
-6.2203507 12.145161 2.810564 229 0 0 0 17.18889
-5.8473539 12.137871 2.7775056 277 0 0 0 17.57597
-5.3023834 12.1197 2.731061 345.5 0 0 0 18.160271
-4.7589226 12.059193 2.838007 326 0 0 0 18.74958
-4.4041715 12.005335 2.9579692 354 0 0 0 19.142349
-16.652235 12.921244 2.7237179 135 0 0 0 10.15259
-15.895713 12.966279 2.6536424 150 0 0 0 10.54714
-14.420389 12.978317 2.9928308 15 0 0 0 11.3255
-13.443821 12.702146 2.856415 167 0 0 0 11.7165
-19.016012 13.328639 2.993727 9 0 0 0 9.3648701
-17.869556 13.183989 2.866106 47 0 0 0 9.7626295
29.825012 13.21123 2.8293254 19 0 0 0 43.002659
29.776619 14.076128 2.8562264 31 0 0 0 42.60923
29.233456 14.710512 2.8381114 27 0 0 0 42.214321
27.675741 15.680104 2.759248 6 0 0 0 41.423847
-9.0060444 -20.247839 3.4169462 12 0 0 0 81.336792
-8.95998 -18.88225 3.2245722 15 0 0 0 81.727592
-8.9718533 -17.768347 3.072715 7 0 0 0 82.118797
13.321213 -16.336584 3.3399129 134 0 0 0 63.72826
-10.641754 -15.891256 3.4279006 138 0 0 0 84.064629
13.407073 -15.64327 3.2678967 207 0 0 0 63.329578
-10.790512 -15.289485 3.3553319 128 0 0 0 84.459312
16.587317 -15.122581 3.0144715 18 0 0 0 61.366871
-11.025401 -14.837218 3.3153334 170 0 0 0 84.857002
13.389668 -14.870023 3.1776106 237 0 0 0 62.931641
-11.194419 -14.318284 3.2608101 139 0 0 0 85.241371
13.378759 -14.145252 3.095372 257 0 0 0 62.541714
-11.329074 -13.781066 3.2019775 184 0 0 0 85.641678
12.844658 -13.585138 3.4374895 141 0 0 0 62.541714
13.462723 -13.552582 3.0401378 116 0 0 0 62.158089
-11.790303 -13.314152 3.1933818 153.5 0 0 0 86.229439
13.341966 -13.433784 3.483083 221 0 0 0 62.158089
-12.203496 -12.800732 3.1768279 140 0 0 0 86.826019
13.329977 -12.779625 3.400517 264 0 0 0 61.754566
-12.670162 -12.348444 3.179502 142 0 0 0 87.409897
-4.5258989 -11.656229 3.3242369 603 0 0 0 80.547043
-4.205359 -11.66787 3.2979307 654.5 0 0 0 80.16243
-3.7288315 -11.667544 3.2584369 659 0 0 0 79.574661
-3.2582755 -11.653444 3.2198505 624 0 0 0 78.980576
-2.8019269 -11.650111 3.1899095 681 0 0 0 78.398239
-2.2031033 -11.63503 3.1542346 544.5 0 0 0 77.612305
-1.7688024 -11.668489 3.1441464 480.5 0 0 0 77.037315
-1.3781885 -11.633052 3.170716 748.66669 0 0 0 76.512444
-0.75284654 -11.572086 3.2377381 680.5 0 0 0 75.666519
-0.1851387 -11.552692 3.2280719 655.5 0 0 0 74.882462
0.23878357 -11.55877 3.2314305 653 0 0 0 74.290573
0.66252446 -11.540243 3.2328677 658 0 0 0 73.699051
1.2310658 -11.536774 3.2472606 726 0 0 0 72.920891
12.80062 -11.685648 3.1963155 178 0 0 0 61.366871
3.4261446 -11.480719 3.3637609 126 0 0 0 69.983398
3.7296164 -11.46425 3.3863673 629 0 0 0 69.594955
4.1969032 -11.44909 3.4279718 618 0 0 0 69.006348
4.6758008 -11.43655 3.4755321 631 0 0 0 68.419281
6.7640305 -11.39918 3.4087837 419 0 0 0 66.069244
7.1400537 -11.385774 3.4577475 459 0 0 0 65.679779
7.715416 -11.346498 3.1954401 533 0 0 0 65.091682
8.3031578 -11.294246 3.2665815 469 0 0 0 64.501717
8.7222672 -11.272621 3.3228066 29 0 0 0 64.11615
13.19945 -11.467691 3.2263408 274 0 0 0 60.98431
-14.779131 -10.67498 3.2814794 191 0 0 0 89.753601
12.891102 -10.658167 3.2945628 152.5 0 0 0 60.589848
-16.058367 -10.165594 3.4222703 142 0 0 0 90.74353
-15.484921 -10.342404 3.3524928 135 0 0 0 90.347183
2.811034 -10.352189 3.0135732 25 0 0 0 70.375343
5.7369485 -10.241509 3.021312 23 0 0 0 66.455818
12.976885 -10.202357 3.0515373 179 0 0 0 60.196991
-19.544456 -9.2450085 3.3613675 146 0 0 0 92.678642
-18.596634 -9.3610916 3.2366459 120 0 0 0 92.286163
-17.454803 -9.3292179 3.0771005 129 0 0 0 91.904739
13.325271 -9.4549856 3.0240815 122 0 0 0 59.418648
12.88729 -8.2262869 3.2127359 218 0 0 0 58.637421
12.878931 -7.7823467 3.1641064 210 0 0 0 58.241753
-18.809113 -7.2581015 3.1407561 91 0 0 0 93.85495
-10.009217 -7.0457234 3.1128533 165 0 0 0 89.955452
12.892471 -7.3641443 3.1239383 257 0 0 0 57.850712
14.030246 -7.1203656 3.3105991 145 0 0 0 57.063759
14.867518 -7.0886202 3.2619872 222.5 0 0 0 56.678219
15.779266 -7.0500641 3.2082539 121 0 0 0 56.279232
-29.559153 -6.6396294 3.2214153 43 0 0 0 96.198723
-18.843956 -6.7455621 3.1196826 94 0 0 0 94.260475
12.873536 -6.9393582 3.0790319 320 0 0 0 57.452793
17.9814 -6.9898386 3.0998659 158 0 0 0 55.506111
19.303066 -6.9602208 3.2957046 133 0 0 0 55.113831
22.449947 -6.8627348 3.1843367 82 0 0 0 54.331161
36.400269 -1.8427514 3.1481483 22 0 0 0 50.41748
-64.928383 3.2841861 3.4404039 6 0 0 0 0.38707
36.264156 4.4323792 3.1608629 10 0 0 0 47.693481
36.162395 5.3258576 3.163003 31 0 0 0 47.294441
29.088749 7.2642727 3.3336062 9 0 0 0 45.724819
36.190155 7.1641369 3.1930065 24 0 0 0 46.509541
52.874298 7.7754998 3.2727242 1501 0 0 0 47.294441
8.1494608 8.9261198 3.2618895 13.666667 0 0 0 36.475422
8.7520342 8.8251791 3.2503452 13 0 0 0 37.123638
6.6972227 9.377121 3.1570821 37.5 0 0 0 34.575085
7.277576 9.1907263 3.2125101 23 0 0 0 35.359509
7.7318835 9.0529442 3.262398 14 0 0 0 35.94548
9.9560566 9.0864401 3.1889429 6 0 0 0 37.909901
5.8670673 9.9297428 3.156476 27.5 0 0 0 33.212662
6.1926556 9.6472797 3.2826548 24 0 0 0 33.796585
5.4579411 10.372984 3.2053285 20.5 0 0 0 32.426441
5.6631193 10.147856 3.1791878 19.5 0 0 0 32.81691
5.1730309 10.781058 3.2677693 16.75 0 0 0 31.84791
1.169724 11.442904 3.2670894 463 0 0 0 26.37101
1.735227 11.39203 3.2765119 447 0 0 0 27.155645
2.3506324 11.32655 3.1964912 473.33334 0 0 0 27.997622
2.7312255 11.28191 3.1611767 482 0 0 0 28.51952
3.1670499 11.242629 3.1834049 492.75 0 0 0 29.10133
3.7549126 11.181616 3.2173975 381.5 0 0 0 29.882154
4.2566695 11.271004 3.2877254 42.5 0 0 0 30.47043
4.7236457 11.227877 3.3259661 38.25 0 0 0 31.057974
-6.5136509 11.975205 3.3045616 295 0 0 0 16.790939
-4.0631533 11.967832 3.2354834 390 0 0 0 19.527519
-3.7318051 11.943166 3.2056961 389 0 0 0 19.91877
-3.243058 11.889498 3.3140597 374 0 0 0 20.513359
-2.7658625 11.837336 3.2723572 389 0 0 0 21.091709
-2.3039649 11.798041 3.239536 420 0 0 0 21.679094
-1.7003844 11.740648 3.2014754 424.5 0 0 0 22.459473
-1.2558436 11.690261 3.1761146 449 0 0 0 23.042061
-0.81915808 11.644662 3.1567054 496.5 0 0 0 23.631565
-0.29234922 11.593295 3.1875904 478.33334 0 0 0 24.346003
0.32330155 11.532421 3.2712252 443.5 0 0 0 25.191275
0.7481575 11.502279 3.2708659 445 0 0 0 25.7843
-10.285306 12.399757 3.2922554 190 0 0 0 13.65985
-9.8247871 12.449667 3.2435763 152 0 0 0 14.06335
-9.326046 12.427914 3.1805153 29 0 0 0 14.45093
-8.8036957 12.342131 3.2905631 88 0 0 0 14.84155
-8.3343878 12.307022 3.2287705 188.5 0 0 0 15.23672
-7.8993025 12.299459 3.1779022 59 0 0 0 15.63334
-7.4543281 12.248626 3.2947245 62 0 0 0 16.02
-6.916882 12.011606 3.1878924 285 0 0 0 16.40132
-6.1839027 12.062365 3.2882781 358 0 0 0 17.18889
-5.8587303 12.151149 3.2749214 313.5 0 0 0 17.57597
-5.2992353 12.100933 3.2110264 290 0 0 0 18.160271
-4.7583609 12.048494 3.310967 352 0 0 0 18.74958
-4.4073281 12.009863 3.2723808 335 0 0 0 19.142349
-16.606607 12.883009 3.2334869 106 0 0 0 10.15259
-15.894454 12.962674 3.1581254 157 0 0 0 10.54714
-14.330561 12.89417 3.4486182 4 0 0 0 11.3255
-13.412756 12.669951 3.3038151 129 0 0 0 11.7165
-12.950335 12.844992 3.2686467 7 0 0 0 12.10152
-17.992987 13.273096 3.4360952 16 0 0 0 9.7626295
-15.380773 13.18149 3.1215782 9 0 0 0 10.93883
28.177935 13.322698 3.4644279 24 0 0 0 42.60923
32.274822 13.354315 3.0267162 17 0 0 0 43.391521
-41.947906 13.874232 3.4775624 7 0 0 0 4.6887002
27.972195 14.078013 3.4803319 23 0 0 0 42.214321
29.645098 18.776188 3.0389857 10 0 0 0 40.652679
30.782858 20.572416 3.2038255 8 0 0 0 40.254311
28.89628 21.441551 3.1138952 31 0 0 0 39.478088
29.895433 21.061893 3.1645403 12 0 0 0 39.867359
29.478418 23.016935 3.2344058 18 0 0 0 39.085339
28.624891 23.506987 3.2030373 12 0 0 0 38.699432
-9.8708296 -19.55118 3.9189587 80 0 0 0 82.118797
-9.0462189 -19.06242 3.7764719 23 0 0 0 81.727592
-10.100944 -18.84449 3.8267741 52 0 0 0 82.505249
-9.9421864 -17.502941 3.6049547 62 0 0 0 82.900177
-10.363157 -17.246746 3.6037736 128 0 0 0 83.292252
-10.52462 -16.581179 3.518698 140 0 0 0 83.675423
-12.1504 -14.780995 3.9018583 89 0 0 0 85.641678
-12.811657 -14.115849 3.8890719 83 0 0 0 86.427452
-12.401564 -14.354992 3.8694515 126 0 0 0 86.031425
12.871269 -14.299077 3.5336528 134 0 0 0 62.931641
-13.180931 -13.826816 3.8980336 124 0 0 0 86.826019
-13.6662 -13.320055 3.8958402 114 0 0 0 87.409897
-4.5281954 -11.665746 3.7886012 517 0 0 0 80.547043
-4.207303 -11.676957 3.7584519 530 0 0 0 80.16243
-3.676321 -11.66787 3.8063183 607.66669 0 0 0 79.508217
-3.2613597 -11.663427 3.8191619 562.5 0 0 0 78.980576
-2.8015122 -11.646774 3.7791748 583.75 0 0 0 78.398239
-2.2024698 -11.628419 3.7357192 586.5 0 0 0 77.612305
-1.7604293 -11.608676 3.7072623 605 0 0 0 77.037315
-1.3273371 -11.606628 3.6903431 601.75 0 0 0 76.446671
-0.75289369 -11.566552 3.6637411 618.75 0 0 0 75.666519
-0.1853931 -11.550854 3.6537662 632.75 0 0 0 74.882462
0.23843345 -11.559675 3.6583042 631.5 0 0 0 74.290573
0.6626482 -11.547515 3.6618302 619.75 0 0 0 73.699051
1.2305121 -11.536167 3.6754766 628 0 0 0 72.920891
1.8033855 -11.524009 3.6978121 624 0 0 0 72.137314
2.2359691 -11.505911 3.7175264 615.5 0 0 0 71.555153
2.8254719 -11.505296 3.9069762 510 0 0 0 70.774719
12.759392 -11.650081 3.6125188 167 0 0 0 61.366871
2.6262579 -11.491833 3.6922522 643.33331 0 0 0 71.031776
3.2735615 -11.48179 3.7926693 568.25 0 0 0 70.179367
3.7292905 -11.465361 3.8323791 587.5 0 0 0 69.594955
4.1995907 -11.453522 3.7294626 575 0 0 0 69.006348
4.679318 -11.442492 3.7815757 555 0 0 0 68.419281
5.1705723 -11.423732 3.6843128 559.25 0 0 0 67.82756
5.6737003 -11.400438 3.7437239 560.5 0 0 0 67.246849
6.150784 -11.405187 3.7582989 524.33331 0 0 0 66.719139
6.7511067 -11.379992 3.7320297 523 0 0 0 66.069244
7.1321888 -11.375684 3.7885256 448 0 0 0 65.679779
7.7217617 -11.359063 3.7073736 457.25 0 0 0 65.091682
8.3074484 -11.303278 3.7884917 430.5 0 0 0 64.501717
12.753946 -11.084072 3.5359926 186 0 0 0 60.98431
14.208396 -11.168017 3.7828321 199 0 0 0 60.196991
14.914994 -11.139956 3.8973167 211 0 0 0 59.81102
-17.901325 -10.139727 3.7046809 103 0 0 0 91.519875
-16.777483 -10.053779 3.5223212 106 0 0 0 91.13607
-22.949341 -9.5089922 3.8606067 63 0 0 0 93.461929
-20.615675 -9.1402988 3.5061629 71 0 0 0 93.076355
-29.14172 -8.0712709 3.9547133 27 0 0 0 95.422287
30.976934 -7.8233232 3.5342159 35 0 0 0 53.553768
15.836236 -7.0764618 3.6480968 183 0 0 0 56.279232
16.894833 -7.0543127 3.8495896 168 0 0 0 55.893471
18.022585 -7.0068426 3.5872183 145 0 0 0 55.506111
15.455637 -6.9048934 3.9773066 31 0 0 0 56.279232
19.312107 -6.9645276 3.8071823 117 0 0 0 55.113831
20.786261 -6.9203267 3.5171452 118 0 0 0 54.72974
22.521143 -6.8854961 3.778934 83 0 0 0 54.331161
-32.656124 -6.498167 3.5392411 47 0 0 0 96.584099
32.000759 -5.6119766 3.5971143 15 0 0 0 52.377113
59.43008 -5.9510231 3.6407554 32 0 0 0 51.206421
31.279669 -4.6962948 3.504185 25 0 0 0 51.98196
59.396217 -4.4767928 3.6324553 8 0 0 0 50.811527
35.90456 -2.7051904 3.9863415 30 0 0 0 50.811527
59.3722 -1.5482571 3.6249397 20 0 0 0 50.03154
59.143024 -0.088207759 3.6112142 49 0 0 0 49.641071
59.084709 1.3644669 3.6098871 82 0 0 0 49.253601
59.489571 4.3057652 3.6450975 32 0 0 0 48.467079
59.20425 5.7510033 3.6363094 19 0 0 0 48.081161
59.118809 7.2135081 3.6417501 7 0 0 0 47.693481
7.6439424 8.9534922 3.9584785 8 0 0 0 35.94548
8.2493467 8.8899679 3.6748259 16 0 0 0 36.608105
8.7675447 8.8434896 3.7203903 92.5 0 0 0 37.123638
9.3344097 8.956193 3.7049181 12 0 0 0 37.522831
9.8417206 8.984477 3.8155746 13 0 0 0 37.909901
31.504644 8.6955242 3.6303194 23 0 0 0 45.337009
6.6650496 9.3368998 3.7124903 138.75 0 0 0 34.575085
7.2149277 9.1159611 3.7632494 40.25 0 0 0 35.359509
7.7098184 9.0320501 3.6967237 11 0 0 0 35.94548
9.9604445 9.0912161 3.523562 5 0 0 0 37.909901
5.8456321 9.8990269 3.7173705 140 0 0 0 33.212662
6.16852 9.6144342 3.6957636 150.5 0 0 0 33.796585
5.4623404 10.387024 3.7920978 13.5 0 0 0 32.426441
5.6520987 10.133801 3.7510676 46.5 0 0 0 32.81691
31.303625 10.322584 3.6613183 22 0 0 0 44.560162
33.144054 10.031182 3.844183 17 0 0 0 44.954559
58.878845 10.1423 3.6548448 25 0 0 0 46.900471
5.2004018 10.731644 3.8016016 14.666667 0 0 0 31.912729
0.74386185 11.481506 3.6909468 430 0 0 0 25.7843
1.1664829 11.438063 3.691504 458.5 0 0 0 26.37101
1.7302237 11.377355 3.6987164 446.75 0 0 0 27.155645
2.2984204 11.323935 3.7172501 405.25 0 0 0 27.933321
2.7275977 11.280352 3.7357287 419 0 0 0 28.51952
3.161715 11.235628 3.7597752 397.5 0 0 0 29.10133
3.7475643 11.169626 3.7980492 301 0 0 0 29.882154
4.2496972 11.262927 3.7323759 20 0 0 0 30.47043
4.7058487 11.195507 3.7675252 30.5 0 0 0 31.057976
-6.776216 11.983594 3.7303498 286.66666 0 0 0 16.531195
-4.2328157 11.972023 3.7200072 332.5 0 0 0 19.334934
-3.7324545 11.93419 3.6667399 333 0 0 0 19.91877
-3.2448087 11.879864 3.7666833 331 0 0 0 20.513359
-2.7693188 11.833656 3.7208014 311 0 0 0 21.091709
-2.3041863 11.779283 3.8268108 373.75 0 0 0 21.679094
-1.701786 11.723537 3.7818184 383.25 0 0 0 22.459475
-1.2579994 11.675483 3.751925 438 0 0 0 23.042061
-0.82236499 11.639475 3.7317324 384 0 0 0 23.631565
-0.24783902 11.579825 3.7086723 431.5 0 0 0 24.412853
0.32007489 11.520049 3.6943245 409.5 0 0 0 25.191275
32.450985 11.59306 3.8258915 19 0 0 0 44.167622
-11.964138 12.445203 3.9395485 172 0 0 0 12.49365
-11.367044 12.414442 3.8439736 169 0 0 0 12.88757
-10.788322 12.373203 3.7516618 150 0 0 0 13.27064
-10.282855 12.389688 3.6823661 155 0 0 0 13.65985
-9.7408733 12.333507 3.7879534 132 0 0 0 14.06335
-9.2365952 12.298532 3.7093933 124.5 0 0 0 14.45093
-8.6773233 12.156077 3.7887993 150 0 0 0 14.84155
-8.2604313 12.189607 3.7380254 101 0 0 0 15.23672
-7.8580027 12.227348 3.6923666 175 0 0 0 15.63334
-7.377831 12.116355 3.7805762 212 0 0 0 16.02
-6.168437 12.026535 3.7786162 337 0 0 0 17.18889
-5.8563128 12.140676 3.7707911 311 0 0 0 17.57597
-5.2368007 12.082916 3.7957671 289 0 0 0 18.225016
-4.7551384 12.030869 3.7853785 303.5 0 0 0 18.74958
31.814419 12.256902 3.7857726 23 0 0 0 43.781719
-16.595932 12.872112 3.7482803 109 0 0 0 10.15259
-15.878703 12.947154 3.6592 121 0 0 0 10.54714
-14.844155 12.712706 3.9718964 121 0 0 0 10.93883
-14.058853 12.644995 3.8457174 139 0 0 0 11.3255
-13.344938 12.602746 3.7359676 140 0 0 0 11.7165
-12.787859 12.679687 3.6680565 116 0 0 0 12.10152
-12.321546 12.827982 3.6255457 11 0 0 0 12.49365
-19.024975 13.332318 3.5669489 6 0 0 0 9.3648701
-17.977089 13.258654 3.9828906 11 0 0 0 9.7626295
-15.249907 13.065797 3.5893061 10 0 0 0 10.93883
29.496387 13.06659 3.5844636 17 0 0 0 43.002659
31.56197 13.060501 3.7927561 9 0 0 0 43.391521
58.694332 13.109755 3.6800461 6 0 0 0 46.125473
29.393723 16.652063 3.7507391 14 0 0 0 41.423847
29.882996 17.913582 3.8665102 14 0 0 0 41.036098
56.846298 20.279709 3.6948671 9 0 0 0 44.167622
56.646442 21.792414 3.7154393 7 0 0 0 43.781719
56.671131 25.064686 3.7924132 12 0 0 0 43.002659
56.609314 28.44141 3.8758495 14 0 0 0 42.214321
56.168133 29.971008 3.8943179 6 0 0 0 41.822369
-8.9076242 -21.424498 4.1496396 7 0 0 0 80.938713
-10.286602 -19.189907 4.4311466 83 0 0 0 82.505249
-10.534359 -18.546131 4.341763 65 0 0 0 82.900177
-10.787618 -17.953209 4.2645054 18 0 0 0 83.292252
-11.342943 -16.939167 4.1524968 80 0 0 0 84.064629
-11.592153 -16.426378 4.0961838 85 0 0 0 84.459312
-11.88561 -15.995877 4.0611277 112 0 0 0 84.857002
-12.115555 -15.497558 4.0098147 151 0 0 0 85.241371
-12.280488 -14.94415 4.4165897 143 0 0 0 85.641678
-13.433597 -14.096643 4.4485965 35 0 0 0 86.826019
-13.759319 -13.748073 4.4445772 46 0 0 0 87.213242
-16.331415 -12.105696 4.1539183 106 0 0 0 89.551743
-16.712339 -11.764869 4.1773682 129 0 0 0 89.955452
-4.535502 -11.682184 4.2561827 437.5 0 0 0 80.547043
-4.2144175 -11.694077 4.2226329 473 0 0 0 80.16243
-3.7870502 -11.688435 4.2249069 454 0 0 0 79.641106
-3.2592125 -11.663722 4.2644439 496 0 0 0 78.980576
-2.8009419 -11.653124 4.2219238 479 0 0 0 78.398239
-2.2027857 -11.638622 4.3194242 483 0 0 0 77.612305
-1.7615528 -11.626514 4.2890806 442.5 0 0 0 77.037315
-1.327008 -11.616802 4.2667928 456.25 0 0 0 76.446671
-0.75231832 -11.5796 4.236825 460.75 0 0 0 75.666519
-0.18426949 -11.559887 4.223546 505 0 0 0 74.882462
0.23990813 -11.571726 4.2297621 449.5 0 0 0 74.290573
0.6645242 -11.560074 4.2337613 518.75 0 0 0 73.699051
1.2327048 -11.546112 4.2483535 509.5 0 0 0 72.920891
1.8061261 -11.534397 4.2742004 480.25 0 0 0 72.137314
2.2401524 -11.522205 4.2990417 489 0 0 0 71.555153
2.6319444 -11.51497 4.3769488 456.66666 0 0 0 71.031776
-20.602406 -11.012237 4.2038193 36 0 0 0 91.904739
2.8267612 -11.497915 4.1948709 488 0 0 0 70.774719
3.2780156 -11.49189 4.2368174 466 0 0 0 70.179367
3.7317574 -11.46821 4.2781453 508 0 0 0 69.594955
4.1991401 -11.456858 4.1818614 504.5 0 0 0 69.006348
4.6790104 -11.446375 4.2402992 491 0 0 0 68.419281
5.1743202 -11.435203 4.3069415 464.25 0 0 0 67.82756
5.6814013 -11.422333 4.2233386 436 0 0 0 67.246849
6.2701831 -11.405377 4.2039361 478.33334 0 0 0 66.587471
6.7587457 -11.394163 4.2269311 437 0 0 0 66.069244
7.1273403 -11.369333 4.283329 436 0 0 0 65.679779
7.7234793 -11.360905 4.2173901 436.5 0 0 0 65.091682
8.3138647 -11.311068 4.3117304 385 0 0 0 64.501717
15.688513 -11.126072 4.0270705 154 0 0 0 59.418648
14.898554 -10.565674 4.274766 82 0 0 0 59.418648
15.965786 -10.74264 4.0310259 55 0 0 0 59.03093
15.587119 -10.486448 4.3974805 88 0 0 0 59.03093
-26.784275 -7.4183717 4.3248806 25 0 0 0 95.422287
18.087362 -7.0329843 4.0792379 121 0 0 0 55.506111
15.74559 -6.5741506 4.0099969 85 0 0 0 55.893471
16.735258 -6.5068812 4.2188091 75 0 0 0 55.506111
19.381487 -6.9905109 4.3295217 115 0 0 0 55.113831
20.800222 -6.9260225 4.0640106 114 0 0 0 54.72974
22.513693 -6.8842978 4.3624177 71 0 0 0 54.331161
31.283775 -6.2784352 4.3189802 10 0 0 0 52.772633
32.110123 -5.626318 4.4129338 9 0 0 0 52.377113
30.306709 -4.5460982 4.152091 16 0 0 0 51.98196
36.252747 -4.5324764 4.0422678 18 0 0 0 51.590553
36.917126 -3.696094 4.1053324 15 0 0 0 51.206421
31.257069 -3.1263218 4.2568617 10 0 0 0 51.206421
36.364456 -1.8416106 4.031651 15 0 0 0 50.41748
36.20919 5.3326039 4.0583243 16 0 0 0 47.294441
30.519316 6.0484838 4.2245307 10 0 0 0 46.509541
36.906116 6.3664451 4.1522851 30 0 0 0 46.900471
28.915684 7.2266216 4.0494266 14 0 0 0 45.724819
36.019249 7.1303458 4.0723066 19 0 0 0 46.509541
36.469963 8.1567125 4.1443553 18 0 0 0 46.125473
7.5919323 8.9009438 4.3665285 7 0 0 0 35.94548
8.2923174 8.7940788 4.2138772 7.5 0 0 0 36.740791
8.6602879 8.7394819 4.288619 6 0 0 0 37.123638
10.338038 8.9816236 4.2592649 5 0 0 0 38.301552
30.974062 8.5553513 4.3626781 21 0 0 0 45.337009
6.4990835 9.3563795 4.3911514 10 0 0 0 34.37801
6.6838531 9.2896557 4.2238898 12 0 0 0 34.640778
7.1747298 9.0731516 4.3172188 4.5 0 0 0 35.359509
29.969379 9.0779381 4.2526908 26 0 0 0 44.954559
5.8412976 9.9007397 4.2856951 10.5 0 0 0 33.212662
6.1246185 9.6409807 4.213325 13.666667 0 0 0 33.73175
29.627512 9.7769527 4.2373796 16 0 0 0 44.560162
5.4376693 10.350068 4.2116151 11 0 0 0 32.426441
5.6427836 10.126858 4.3204775 11.5 0 0 0 32.81691
5.1233978 10.80445 4.2060242 9.333333 0 0 0 31.783091
0.45476401 11.490977 4.3943572 284 0 0 0 25.38476
0.73761916 11.469416 4.2527204 307.5 0 0 0 25.7843
1.1598314 11.426407 4.2532344 334.5 0 0 0 26.37101
1.7231766 11.366622 4.2614717 313.75 0 0 0 27.155645
2.2896111 11.307423 4.2802534 324.25 0 0 0 27.933319
2.717442 11.260978 4.3003702 298 0 0 0 28.51952
3.1523147 11.221421 4.3296781 290.75 0 0 0 29.10133
3.7388442 11.158243 4.2297621 248.5 0 0 0 29.882154
4.304564 11.138164 4.1963439 11.666667 0 0 0 30.60037
4.7050834 11.069783 4.1301341 12 0 0 0 31.123884
-6.7074933 11.965509 4.1670747 220 0 0 0 16.59613
-6.4946251 11.928278 4.4616442 266 0 0 0 16.790939
-4.1767468 11.958827 4.2821317 262.66666 0 0 0 19.39913
-3.7277575 11.90522 4.2719631 295.5 0 0 0 19.91877
-3.243674 11.866919 4.2171345 286 0 0 0 20.513359
-2.7685118 11.820692 4.1653986 320 0 0 0 21.091709
-2.308203 11.772355 4.2670059 297 0 0 0 21.679094
-1.6557981 11.704021 4.3060985 311.33334 0 0 0 22.525179
-1.2625443 11.664286 4.325006 285 0 0 0 23.042061
-0.82665694 11.619743 4.2984085 310.25 0 0 0 23.631565
-0.25313553 11.56453 4.2727604 314 0 0 0 24.412853
0.26744905 11.513745 4.2111502 331 0 0 0 25.12678
-40.578007 12.322859 4.3623691 11 0 0 0 4.29669
-11.971973 12.450874 4.3634706 123 0 0 0 12.49365
-11.348941 12.391866 4.2477264 136 0 0 0 12.88757
-10.759565 12.337224 4.1409526 145 0 0 0 13.27064
-10.194367 12.277798 4.236589 170.5 0 0 0 13.65985
-9.6554708 12.219933 4.3300586 112 0 0 0 14.06335
-9.149332 12.176649 4.2374287 143 0 0 0 14.45093
-8.6766987 12.152348 4.1570354 215 0 0 0 14.84155
-8.1995354 12.091822 4.2488022 192 0 0 0 15.23672
-7.7554469 12.058577 4.1722798 207.5 0 0 0 15.63334
-7.31991 12.010387 4.2682056 226 0 0 0 16.02
-6.1769352 12.03573 4.2801046 294.5 0 0 0 17.18889
-5.8496199 12.118467 4.2599144 255.5 0 0 0 17.57597
-5.3494697 12.067462 4.2365003 256.66666 0 0 0 18.095522
-4.7490172 12.012004 4.2566624 308 0 0 0 18.74958
-16.591845 12.866383 4.2608714 121 0 0 0 10.15259
-15.681882 12.782836 4.108705 135 0 0 0 10.54714
-14.8256 12.689701 4.4409914 117 0 0 0 10.93883
-14.069804 12.647993 4.3082509 138 0 0 0 11.3255
-13.330155 12.581738 4.1770163 125 0 0 0 11.7165
-12.619585 12.503026 4.2679424 137.5 0 0 0 12.10152
30.593044 12.667171 4.4946294 7 0 0 0 43.391521
31.403673 20.987785 4.1873946 10 0 0 0 40.254311
28.545595 22.292112 4.0154777 16 0 0 0 39.085339
30.325607 22.501143 4.1853447 13 0 0 0 39.478088
-9.4056501 -22.622622 4.9817805 83 0 0 0 80.938713
-9.5681028 -21.50971 4.7880259 57 0 0 0 81.336792
-9.7685575 -20.586161 4.6354675 101 0 0 0 81.727592
-10.029333 -19.863916 4.5277386 71 0 0 0 82.118797
-10.277753 -19.179729 4.9601068 23 0 0 0 82.505249
-10.494151 -18.481239 4.8455572 30 0 0 0 82.900177
-10.803491 -17.985479 4.784308 34 0 0 0 83.292252
-11.332112 -16.928324 4.6471086 19 0 0 0 84.064629
-11.577372 -16.410566 4.5824623 41 0 0 0 84.459312
-11.852942 -15.956855 4.5364347 74 0 0 0 84.857002
-12.041436 -15.406733 4.9429312 23 0 0 0 85.241371
-12.265291 -14.925006 4.8844151 139 0 0 0 85.641678
-13.006116 -14.334398 4.8954363 36 0 0 0 86.427452
-19.891727 -13.287425 4.885601 68 0 0 0 90.347183
-19.675152 -12.456367 4.7583008 42 0 0 0 90.74353
-4.5382848 -11.692983 4.7196598 341 0 0 0 80.547043
-4.2153325 -11.700315 4.6804147 409 0 0 0 80.16243
-3.7336535 -11.687117 4.6189709 404 0 0 0 79.574661
-3.2676864 -11.691769 4.5712533 365 0 0 0 78.980576
-2.8041837 -11.663697 4.5188799 425 0 0 0 78.398239
3.1282504 -11.505152 4.5178623 475 0 0 0 70.375343
-22.460478 -11.306766 4.5242624 66 0 0 0 92.286163
-20.604446 -11.013316 4.7784104 32 0 0 0 91.904739
-19.768763 -11.197918 4.646214 27 0 0 0 91.519875
-18.958591 -11.361397 4.5192909 38 0 0 0 91.13607
3.4302015 -11.495246 4.5474691 459 0 0 0 69.983398
3.7356234 -11.483588 4.579565 451 0 0 0 69.594955
4.202641 -11.465494 4.6341114 447 0 0 0 69.006348
4.6800408 -11.447809 4.6957636 443 0 0 0 68.419281
5.1817708 -11.450487 4.7751331 399 0 0 0 67.82756
5.6883678 -11.430315 4.6967125 395 0 0 0 67.246849
6.2170334 -11.415792 4.7848907 366.75 0 0 0 66.653305
6.7630687 -11.398261 4.7183142 323 0 0 0 66.069244
7.1473885 -11.398015 4.7912121 374 0 0 0 65.679779
7.7342815 -11.379862 4.7341123 319.75 0 0 0 65.091682
8.3141994 -11.317815 4.6615758 333 0 0 0 64.501717
17.403801 -11.093011 4.8288231 129 0 0 0 58.637421
18.253534 -11.011701 4.9883189 180 0 0 0 58.241753
-22.708893 -10.742359 4.5216212 80 0 0 0 92.678642
-23.672029 -10.49579 4.6615672 51 0 0 0 93.076355
18.380785 -8.7542286 4.7728653 21 0 0 0 56.678219
-26.257671 -7.2725878 4.9145184 15 0 0 0 95.422287
