# .PCD v0.7 - Point Cloud Data file format
VERSION 0.7
FIELDS x y z intensity normal_x normal_y normal_z curvature
SIZE 4 4 4 4 4 4 4 4
TYPE F F F F F F F F
COUNT 1 1 1 1 1 1 1 1
WIDTH 951
HEIGHT 1
VIEWPOINT 0 0 0 1 0 0 0
POINTS 951
DATA ascii
29.253428 10.446296 1.7762855 42 0 0 0 44.085739
29.185022 11.235306 1.7872511 33 0 0 0 43.693439
32.198616 13.309603 1.9862068 4 0 0 0 43.302151
-2.331043 13.532765 1.8268262 203 0 0 0 21.835609
-3.2095332 14.391534 1.9603988 322 0 0 0 21.053619
-2.7695136 14.023314 1.9008135 204 0 0 0 21.44319
-36.521576 28.783968 1.6277943 24 0 0 0 10.14265
-42.14637 36.707291 1.9411516 14 0 0 0 10.91978
18.36792 -36.230556 2.373662 24 0 0 0 67.118958
11.361383 -19.90501 2.4813321 37 0 0 0 66.341217
34.238136 -19.336874 2.2876196 23 0 0 0 57.738289
12.439418 -18.495382 2.4142332 7 0 0 0 65.166031
8.3996792 -17.593563 2.1151958 29 0 0 0 67.514633
-24.448952 -17.453625 2.3968058 60 0 0 0 89.799889
7.2401142 -17.283873 2.4943478 178 0 0 0 68.291924
-23.301233 -15.788693 2.2454562 88 0 0 0 90.193581
15.753626 -14.928509 2.3499324 11 0 0 0 61.637753
16.20496 -14.264565 2.3373153 5657 0 0 0 61.054714
-21.116535 -13.568501 2.0041943 200 0 0 0 90.583961
-0.78124434 -13.18235 2.3052084 576 0 0 0 75.593666
-1.2725468 -12.686219 2.224035 704 0 0 0 76.246109
-2.0052192 -12.026008 2.2274137 799 0 0 0 77.288383
-1.739223 -12.270999 2.2643571 782 0 0 0 76.888969
18.156363 -12.084194 2.3580832 86 0 0 0 58.912701
-2.5139697 -11.560987 2.3066752 794 0 0 0 78.058922
-2.26371 -11.790474 2.3409216 820 0 0 0 77.671341
-2.8774192 -11.236113 2.261286 878.75 0 0 0 78.651596
-3.6759977 -10.512897 2.307014 1009 0 0 0 80.013313
-3.341012 -10.816246 2.2065234 954.5 0 0 0 79.430672
-17.702484 -10.188202 2.1310396 36 0 0 0 91.356392
-4.1061425 -10.124547 2.2624533 1148 0 0 0 80.799477
-3.8183689 -10.377277 2.1088324 961 0 0 0 80.277885
-17.768816 -9.6542645 2.1083953 124 0 0 0 91.742622
-5.0252633 -9.5764704 2.236928 341 0 0 0 82.366562
-4.6233935 -9.6604462 2.3479805 1042 0 0 0 81.774826
-4.3170977 -9.939312 2.243567 1075 0 0 0 81.189079
-5.6136541 -9.0195761 2.1957512 337 0 0 0 83.533058
-5.2776647 -9.2207003 2.3265254 505 0 0 0 82.945236
-4.9514894 -9.4392166 2.4662733 468 0 0 0 82.366562
-5.8096018 -8.7519512 2.3249404 691.40002 0 0 0 83.99942
-6.5490961 -8.1118135 2.2791767 353.5 0 0 0 85.48571
-6.2619972 -8.3681746 2.2856925 469.5 0 0 0 84.89814
-16.010969 -7.7121887 2.2921844 265 0 0 0 92.51181
-6.7906213 -7.8069735 2.2613649 568 0 0 0 86.078835
13.513434 -7.6219387 2.450412 61 0 0 0 57.738289
-7.20052 -7.3179531 2.2423069 1036.6666 0 0 0 87.057922
13.839796 -7.3657336 2.2797456 82.5 0 0 0 57.345039
14.66948 -7.3528199 2.1831686 110 0 0 0 56.953472
-15.205142 -6.8708901 2.1531279 205 0 0 0 92.903587
-7.7610984 -6.8042817 2.2515461 1008.5 0 0 0 88.222504
14.717365 -6.9316144 2.1641695 119 0 0 0 56.553646
15.665985 -6.6865211 2.2637882 72 0 0 0 55.977196
-14.451473 -6.1084361 2.2201037 528 0 0 0 93.307846
-8.1370506 -6.4561939 2.2635577 1018 0 0 0 89.009239
16.026609 -6.1566405 2.2804739 154 0 0 0 55.387981
16.865181 -6.0095954 2.3761461 56 0 0 0 55.00412
-15.269506 -5.5874448 2.0949707 457 0 0 0 94.088791
-14.956883 -5.8930502 2.2725282 449 0 0 0 93.695511
-7.758019 -5.5598965 2.433696 232 0 0 0 89.799889
-7.4116664 -5.5936651 2.2549124 110.5 0 0 0 89.40107
-6.8104997 -5.6866322 2.3781414 62.5 0 0 0 88.608246
16.995598 -5.5912533 2.3739383 66 0 0 0 54.61692
-15.605455 -5.2794161 2.1206648 409 0 0 0 94.484085
-8.0635014 -5.4838123 2.3651209 58.5 0 0 0 90.193581
17.183964 -5.1907859 2.3810425 86 0 0 0 54.220921
-15.9297 -4.9564738 2.1455889 234 0 0 0 94.882248
17.229069 -4.7474904 2.3700049 120 0 0 0 53.837261
19.031866 -4.7500415 2.1153364 132 0 0 0 53.441441
24.846159 -4.9240413 2.104748 24 0 0 0 52.66309
17.690498 -3.2774811 2.3836391 122.5 0 0 0 52.46479
18.617762 -2.7469335 2.4905586 103 0 0 0 51.885899
18.044226 -2.2124367 2.4063382 88 0 0 0 51.490101
-19.696186 -1.5873461 2.0332537 65 0 0 0 98.376419
18.542608 -1.8140533 2.4646108 104 0 0 0 51.09539
19.487181 -1.9099516 2.1072595 69 0 0 0 51.09539
-20.143137 -1.1263351 2.0736864 227 0 0 0 98.75943
18.665133 -1.3656712 2.4748724 10 0 0 0 50.704338
19.573315 -1.435603 2.1113312 83 0 0 0 50.704338
20.92424 -1.0204269 2.2506032 16 0 0 0 50.320847
-20.683527 -0.64766359 2.1246126 202 0 0 0 99.150093
20.921665 -0.50728452 2.2475741 15 0 0 0 49.927799
18.178465 -0.43750262 2.4042697 87 0 0 0 49.927799
18.090109 0.0076906709 2.3914151 47 0 0 0 49.533527
23.258858 0.57537675 2.4931345 76 0 0 0 49.1497
22.159706 1.0916898 2.3782809 91 0 0 0 48.762089
22.592056 1.6684159 2.4268136 44 0 0 0 48.375111
20.955563 2.5842853 2.2628059 37 0 0 0 47.5882
24.292879 2.9957411 2.0232668 37 0 0 0 47.5882
23.987724 5.3812056 2.0287049 47 0 0 0 46.024273
0.91595888 7.4731827 2.2194152 29.5 0 0 0 26.51799
1.2656863 7.3274555 2.2846024 42 0 0 0 27.296492
1.802561 7.2156906 2.2850864 45.777779 0 0 0 28.459988
2.2617543 7.1531258 2.3043592 35 0 0 0 29.433668
2.7895939 7.1640601 2.2247632 29.142857 0 0 0 30.465818
3.2920091 7.1918855 2.2320211 23.833334 0 0 0 31.385046
3.850359 7.4208307 2.25387 20.75 0 0 0 32.164967
29.230322 7.3133221 2.4775751 29 0 0 0 45.6362
0.283591 7.845541 2.2162402 20.833334 0 0 0 25.15094
0.65007842 7.6176782 2.2536652 27.25 0 0 0 25.93508
4.2708631 7.5400414 2.2273033 12.333333 0 0 0 32.75034
4.7103591 7.7103119 2.1715105 12.666667 0 0 0 33.265743
-0.17845237 8.1968021 2.2550511 16.285715 0 0 0 24.227621
5.6090593 8.3878965 2.0917764 12 0 0 0 33.9161
-0.75750798 8.7659874 2.2629623 10.333333 0 0 0 23.194809
-1.1438572 9.2817822 2.2890818 9 0 0 0 22.61281
6.3732023 9.0397873 2.1534042 30 0 0 0 34.31002
-1.5128188 10.234083 2.2758389 235 0 0 0 22.22064
7.4553595 10.039049 2.2756946 19 0 0 0 34.693314
9.6485033 12.342209 2.4540684 64 0 0 0 35.083591
-6.186079 13.143638 2.2979829 504 0 0 0 17.536739
-5.8968349 13.36993 2.3105628 668 0 0 0 17.9312
-2.3214149 13.483812 2.3275852 221.5 0 0 0 21.835609
10.62252 13.58661 2.2712767 69 0 0 0 35.083591
-3.2035811 14.368979 2.3212075 498 0 0 0 21.053619
-2.7686121 14.023499 2.2540972 221 0 0 0 21.44319
-3.7892365 15.236361 2.2793632 44.5 0 0 0 20.668779
-4.3718085 15.909225 2.1913054 132 0 0 0 20.27413
-5.025507 16.684572 2.31336 118 0 0 0 19.891581
34.205555 17.180248 2.1760502 26 0 0 0 42.135113
-5.7558479 17.548176 2.4508543 82 0 0 0 19.496241
21.714073 -40.356365 2.6739025 34 0 0 0 66.726166
23.93165 -39.691326 2.7044935 47 0 0 0 65.946754
24.785667 -38.920345 2.6928015 42 0 0 0 65.552422
25.529579 -38.00209 2.6720653 17 0 0 0 65.166031
26.257885 -37.091297 2.6526599 43 0 0 0 64.775681
27.002918 -36.229424 2.6375976 30 0 0 0 64.386841
27.836657 -35.500397 2.6331685 30 0 0 0 63.988499
29.359079 -33.885883 2.616534 23 0 0 0 63.212528
30.282492 -33.270172 2.6248662 32 0 0 0 62.820999
31.409803 -32.856159 2.651135 48 0 0 0 62.423111
32.208828 -30.547773 2.5886097 7 0 0 0 61.637753
33.028389 -29.82382 2.594192 20 0 0 0 61.255329
33.736282 -28.996056 2.5923929 23 0 0 0 60.854099
34.517769 -28.228561 2.5975747 26 0 0 0 60.465714
36.640324 -25.721119 2.6046054 23 0 0 0 59.298119
38.027203 -24.005619 2.6139021 30 0 0 0 58.521
38.823517 -23.199127 2.6273239 8 0 0 0 58.131233
12.01471 -18.837614 2.9690418 17 0 0 0 65.552422
12.36374 -18.376865 2.9435418 6 0 0 0 65.166031
6.2127843 -17.139229 2.8777661 56 0 0 0 69.075134
7.2219424 -17.242289 2.9506783 54 0 0 0 68.291924
-22.969688 -15.562096 2.8884428 45 0 0 0 90.193581
44.182098 -14.557008 2.6873987 24 0 0 0 54.61692
-21.120043 -13.568634 2.614758 185 0 0 0 90.583961
-0.88077039 -13.011248 2.7036133 602 0 0 0 75.724762
-1.3218004 -12.655583 2.7939711 594.5 0 0 0 76.309967
-2.0050049 -12.023409 2.675849 672.5 0 0 0 77.288383
-1.7389838 -12.267897 2.7202389 671.5 0 0 0 76.888969
18.139973 -12.068964 2.8911593 72 0 0 0 58.912701
-19.691181 -11.984175 2.9694927 70 0 0 0 90.974922
-2.5127411 -11.559052 2.7412384 734 0 0 0 78.058922
-2.2626252 -11.789153 2.7820163 678 0 0 0 77.671341
-2.8780296 -11.239939 2.8311357 793 0 0 0 78.651596
-3.6767855 -10.517136 2.7175491 843 0 0 0 80.013313
-3.3413622 -10.818354 2.7623537 816 0 0 0 79.430664
-17.685686 -10.181038 2.6315894 23 0 0 0 91.356392
-4.1056137 -10.124935 2.664165 852 0 0 0 80.799477
-3.8925762 -10.317327 2.6892066 898 0 0 0 80.410172
-17.667776 -9.6019592 2.5918462 107 0 0 0 91.742622
-4.6588473 -9.631649 2.8278399 864 0 0 0 81.840767
-4.314539 -9.9350281 2.6408038 965.5 0 0 0 81.189079
-5.2193952 -9.1178703 2.8192892 883.5 0 0 0 82.945236
-4.9268227 -9.3898716 2.8460531 866 0 0 0 82.366562
-5.7018313 -8.6816854 2.7861879 896.16669 0 0 0 83.921692
-16.480564 -8.4403543 2.8469334 163 0 0 0 92.130913
-6.1698427 -8.2447929 2.7605259 884.25 0 0 0 84.89814
14.100981 -8.4149408 2.5921278 94 0 0 0 58.131233
-15.734594 -7.5782046 2.6860526 136 0 0 0 92.51181
-6.728271 -7.7332702 2.7457187 899.25 0 0 0 86.078842
-6.4511528 -7.9901304 2.7516384 880.5 0 0 0 85.48571
15.549454 -7.7943549 2.7422342 107 0 0 0 56.953472
-7.1967139 -7.3129907 2.7466953 859.83331 0 0 0 87.057922
13.510046 -7.190237 2.7956014 54 0 0 0 57.345039
15.247269 -7.1814718 2.6576123 119 0 0 0 56.553646
16.633841 -7.3431706 2.8640168 44 0 0 0 56.168633
-14.879416 -6.7218857 2.9171567 201 0 0 0 92.903587
-7.6628079 -6.8857994 2.7554009 883.25 0 0 0 88.029633
16.58181 -6.8403311 2.825248 47 0 0 0 55.785759
-14.475627 -6.1170158 2.8080072 433 0 0 0 93.307846
-8.1342573 -6.4531379 2.7744975 652 0 0 0 89.009239
16.909973 -6.4962573 2.8522861 152 0 0 0 55.387981
17.140871 -6.107934 2.8644073 46 0 0 0 55.00412
-15.235493 -5.5735173 2.6927958 399.5 0 0 0 94.088791
-14.846359 -5.8480873 2.8491542 418 0 0 0 93.695511
-7.7518516 -5.5546269 2.6690361 183 0 0 0 89.799889
-7.1878071 -5.5625234 2.6573119 101 0 0 0 89.205154
17.318726 -5.69765 2.8692799 112 0 0 0 54.61692
-15.619775 -5.2832551 2.5312428 379 0 0 0 94.484085
-8.0650082 -5.4835324 2.7277715 85 0 0 0 90.193581
19.897902 -4.9626131 2.7139397 36 0 0 0 53.441441
18.29195 -4.089088 2.9462116 95 0 0 0 53.04916
19.050247 -4.2586751 2.5842235 27 0 0 0 53.04916
17.952951 -3.5542269 2.8768568 119 0 0 0 52.66309
18.600927 -3.2115524 2.9654713 95 0 0 0 52.266487
18.562191 -2.7387226 2.9472544 48 0 0 0 51.885899
17.523821 -2.1485889 2.7745142 153 0 0 0 51.490101
17.786171 -1.7400016 2.8074055 67 0 0 0 51.09539
-20.203617 -1.1326324 2.5781724 73 0 0 0 98.75943
17.610186 -1.2884275 2.7735806 134 0 0 0 50.704338
20.703175 -1.0060073 2.7366233 51 0 0 0 50.320847
-20.714985 -0.65169001 2.6381986 228 0 0 0 99.150093
18.962486 0.0080386773 2.9740999 17 0 0 0 49.533527
24.09873 0.005825303 2.5820007 48 0 0 0 49.533527
22.314037 0.55592769 2.9419439 26 0 0 0 49.1497
20.851063 1.5435463 2.7564316 43 0 0 0 48.375111
21.157928 2.0883195 2.8015947 16 0 0 0 47.977367
24.563967 2.4200704 2.6402154 35 0 0 0 47.977367
25.169748 3.7317233 2.7189171 34 0 0 0 47.202961
24.784302 4.297399 2.6874173 36 0 0 0 46.815929
24.768366 6.1971254 2.7248149 16 0 0 0 45.6362
27.175066 6.0959563 2.9699192 18 0 0 0 46.024273
0.91614217 7.4754028 2.6827872 26.333334 0 0 0 26.51799
1.2653066 7.33182 2.742543 23.5 0 0 0 27.296488
1.8046314 7.2292943 2.7466707 24.333334 0 0 0 28.45999
2.2621698 7.1588459 2.7670336 22.5 0 0 0 29.433664
2.7514727 7.1419263 2.7259085 47.666668 0 0 0 30.409231
3.2815783 7.1698861 2.8061039 112.5 0 0 0 31.385046
3.8123181 7.3495536 2.7412357 50.166668 0 0 0 32.164967
-0.0053021838 7.9770651 2.8403931 9 0 0 0 24.55805
0.28062102 7.7777867 2.770314 133.66667 0 0 0 25.15094
0.64741248 7.5887451 2.7127507 22.666666 0 0 0 25.935081
4.2704868 7.5392647 2.7611437 9.5 0 0 0 32.75034
4.7511034 7.7478666 2.7354655 13 0 0 0 33.291473
-0.62450761 8.4549627 2.8095694 12 0 0 0 23.387989
-0.26340535 8.2015305 2.7190166 59.142857 0 0 0 24.062407
29.324512 8.1050739 2.5003986 12 0 0 0 45.254353
-28.991962 8.9729347 2.5989685 22 0 0 0 4.2923098
-0.78824812 8.7122278 2.7541962 84.666664 0 0 0 23.130417
6.3000665 8.9384365 2.6661448 31.5 0 0 0 34.31002
-1.126541 9.13978 2.7085834 9 0 0 0 22.61281
-29.181469 9.8198977 2.6346598 59 0 0 0 4.6851802
29.590273 9.7616491 2.5581298 24 0 0 0 44.46619
-1.5073571 10.198977 2.7746773 190 0 0 0 22.22064
7.4750204 10.066298 2.7435372 37.5 0 0 0 34.693314
-6.2012115 13.17829 2.6637695 322 0 0 0 17.536739
-5.8947911 13.367686 2.6711473 124 0 0 0 17.9312
-2.3196471 13.481162 2.8323452 217 0 0 0 21.835609
31.816702 13.157993 2.8203208 13 0 0 0 43.302151
-2.7611382 13.992329 2.7768712 189.5 0 0 0 21.44319
31.497307 13.938963 2.8206334 27 0 0 0 42.91573
-3.2076845 14.392043 2.6893835 370 0 0 0 21.053619
-3.7734337 15.178603 2.8515036 167 0 0 0 20.668779
-4.3673973 15.899195 2.8009129 108.5 0 0 0 20.27413
32.65205 16.406923 2.9887588 13 0 0 0 42.135113
-5.011096 16.640356 2.7368512 127 0 0 0 19.891581
-5.7419157 17.509342 2.9009662 90 0 0 0 19.496241
-6.7368994 18.250853 2.5818539 53.5 0 0 0 18.906225
-12.120294 20.365995 2.5664513 103 0 0 0 15.98251
-11.60246 20.628881 2.5615315 125 0 0 0 16.375971
-8.5454979 20.784441 2.9789689 104 0 0 0 18.32707
-11.228172 21.160852 2.5906961 39 0 0 0 16.763189
-11.159042 23.782286 2.8344479 94 0 0 0 17.536739
-38.980625 27.745743 2.8508224 14 0 0 0 9.3593998
-35.29303 29.246807 2.7228711 10 0 0 0 10.53056
18.32762 -36.138546 3.3764763 22 0 0 0 67.118958
24.88854 -30.176172 3.2610362 20 0 0 0 63.59832
10.922738 -20.266411 3.0580399 75 0 0 0 66.726166
11.296655 -19.784851 3.0266974 48 0 0 0 66.341217
0.56512064 -19.123932 3.4837995 46 0 0 0 74.162727
-0.36571008 -18.863697 3.4341965 39 0 0 0 74.943527
5.6227016 -18.25795 3.2480884 55 0 0 0 69.863312
6.1203842 -18.271723 3.0395403 48 0 0 0 69.465805
12.370388 -18.387909 3.4933567 17 0 0 0 65.166031
8.040863 -17.954855 3.1038723 28 0 0 0 67.910706
-24.45192 -17.453045 3.1271975 60 0 0 0 89.799889
7.4120765 -16.548128 3.3118241 43 0 0 0 67.910706
8.4835463 -16.700975 3.4207184 10 0 0 0 67.118958
7.8540955 -16.444788 3.3286352 92 0 0 0 67.514633
-21.134937 -13.581247 3.2350383 159 0 0 0 90.583961
-0.88392842 -13.070267 3.1969361 544 0 0 0 75.724762
-1.3235464 -12.670766 3.2656398 545.5 0 0 0 76.309967
-2.0090981 -12.043591 3.2812791 600.5 0 0 0 77.288383
-1.7419703 -12.284058 3.3342195 537 0 0 0 76.888969
18.155834 -12.079774 3.4330013 83 0 0 0 58.912701
-2.5165424 -11.570301 3.1816812 622 0 0 0 78.058922
-2.2670572 -11.80513 3.2302387 614 0 0 0 77.671341
-3.0053473 -11.158557 3.248302 674 0 0 0 78.850449
-2.7646992 -11.364264 3.287755 650 0 0 0 78.452736
-3.6796751 -10.523092 3.2699828 734 0 0 0 80.013313
-3.3480482 -10.837122 3.3276467 676.5 0 0 0 79.430664
-17.713194 -10.195183 3.1417775 54 0 0 0 91.356392
-4.1119938 -10.138526 3.2086086 758.5 0 0 0 80.799477
-3.8995335 -10.333477 3.2393854 735 0 0 0 80.410172
-4.5923414 -9.6954737 3.1893742 778 0 0 0 81.708885
-4.3219337 -9.9500008 3.1810088 747 0 0 0 81.189079
-17.430521 -9.4718304 3.0489607 114 0 0 0 91.742622
-5.2277136 -9.1307316 3.3431919 693 0 0 0 82.945236
-4.9293227 -9.3958359 3.2406225 773 0 0 0 82.366562
-5.7102585 -8.6928482 3.304023 730.16669 0 0 0 83.921692
12.311389 -8.6273594 3.4857659 29 0 0 0 59.298119
13.644972 -8.6024857 3.3426492 26 0 0 0 58.521
14.070417 -8.8708105 3.0370228 22 0 0 0 58.521
-16.459913 -8.4284182 3.3015506 141 0 0 0 92.130913
-6.2400293 -8.2103415 3.2997062 707.79999 0 0 0 85.015656
12.483757 -8.3003378 3.4757488 27 0 0 0 58.912701
17.225958 -8.1142378 3.4693546 60 0 0 0 56.553646
-15.696079 -7.5584455 3.1112435 167 0 0 0 92.51181
-6.7432222 -7.7491517 3.2592938 716.75 0 0 0 86.078835
-6.4584532 -7.9999838 3.1358078 684 0 0 0 85.48571
14.161714 -7.9881911 3.3682463 27 0 0 0 57.738289
15.061806 -7.5498281 3.0739157 95 0 0 0 56.953472
-7.1672683 -7.354249 3.2313333 671 0 0 0 86.980576
-6.6706357 -7.1234059 3.4577463 374 0 0 0 86.66935
12.424091 -7.4135509 3.0009341 41 0 0 0 58.131233
15.277716 -7.1959949 3.4956939 85 0 0 0 56.553646
17.38452 -7.1717477 3.4256315 44 0 0 0 55.785759
-14.953667 -6.7541733 3.335602 156 0 0 0 92.903587
-7.6697645 -6.8929744 3.140264 670.5 0 0 0 88.029633
-7.2006741 -6.7982235 3.2634234 283 0 0 0 87.641708
-6.8428307 -6.9569855 3.4567783 367 0 0 0 87.059769
13.202505 -6.6171875 3.0612967 91 0 0 0 56.953472
15.232172 -6.7241211 3.4465065 109 0 0 0 56.168633
15.776344 -6.9644432 3.1445494 84 0 0 0 56.168633
-14.488108 -6.1212139 3.1978045 474 0 0 0 93.307846
-7.7678938 -6.4812617 3.0802245 237 0 0 0 88.608246
-7.3844543 -6.4732494 3.2352071 401 0 0 0 88.220482
16.884008 -6.4863296 3.2953341 165 0 0 0 55.387981
17.825356 -6.3520265 3.4455891 80 0 0 0 55.00412
-15.197398 -5.5581112 3.2860413 411 0 0 0 94.088791
-14.863438 -5.8537588 3.2458677 425 0 0 0 93.695511
-7.9121189 -5.9687514 3.0170093 427 0 0 0 89.40107
13.421175 -5.9213543 3.398886 43 0 0 0 56.168633
19.99003 -5.5086889 3.2572911 28 0 0 0 53.837261
-15.545219 -5.2561507 3.3303187 359 0 0 0 94.484085
19.836697 -4.9473529 3.2113223 129 0 0 0 53.441441
18.203852 -4.0693884 3.3936031 70 0 0 0 53.04916
17.551918 -3.2524199 3.2483006 118 0 0 0 52.46479
17.724138 -2.6150107 3.2588718 101 0 0 0 51.885899
16.99612 -2.0838466 3.1155272 175 0 0 0 51.490101
16.794504 -1.6429166 3.4850609 155 0 0 0 51.09539
17.101429 -1.6729683 3.1256537 146 0 0 0 51.09539
17.299837 -1.2656959 3.1543787 119 0 0 0 50.704338
56.218807 -1.3741214 3.2154024 11 0 0 0 49.927799
18.399019 -0.44280007 3.3435156 15 0 0 0 49.927799
22.105873 1.0929041 3.4641597 57 0 0 0 48.762089
23.63834 1.1686249 3.1164787 39 0 0 0 48.762089
23.383327 2.8877058 3.1001792 56 0 0 0 47.5882
22.882454 3.3967376 3.0437553 36 0 0 0 47.202961
25.077349 4.3526583 3.3445976 19 0 0 0 46.815929
27.82478 5.5295963 3.0254693 32 0 0 0 46.417969
3.8279562 7.3810763 3.1621876 13 0 0 0 32.164967
4.155086 7.3400416 3.0001903 61 0 0 0 32.75034
4.2874703 7.5720372 3.3072121 10 0 0 0 32.75034
4.7561588 7.7896004 3.3185833 6 0 0 0 33.265743
5.0019584 7.8949895 3.0912664 23 0 0 0 33.52306
27.614885 7.6325431 3.0524924 26 0 0 0 45.254353
-0.6242556 8.420023 3.1075125 38.5 0 0 0 23.387989
-0.20723283 8.1739502 3.1113815 12.666667 0 0 0 24.172548
5.6732111 8.4873905 3.120729 7 0 0 0 33.9161
-0.86731386 8.7899647 3.2501466 9.5 0 0 0 23.001631
6.3184609 8.9662085 3.3502419 27 0 0 0 34.31002
28.070349 8.5036955 3.1232216 32 0 0 0 44.853958
-1.1359355 9.2212276 3.1901021 7.5 0 0 0 22.61281
6.4043374 9.0849676 3.1212552 18 0 0 0 34.31002
28.349152 9.3521528 3.1773319 24 0 0 0 44.46619
27.660763 9.8827829 3.1261892 34 0 0 0 44.085739
-1.507395 10.201984 3.283978 119 0 0 0 22.22064
7.4370832 10.016177 3.1887829 24 0 0 0 34.693314
9.606226 12.286697 3.2129216 30 0 0 0 35.083591
-2.3114278 13.426145 3.3209534 191.5 0 0 0 21.835609
10.555866 13.499812 3.1052165 44 0 0 0 35.083591
34.373341 13.238687 3.0157025 15 0 0 0 43.693439
-2.757009 13.96528 3.2946179 160 0 0 0 21.44319
-3.2128592 14.416178 3.2375298 150 0 0 0 21.053619
-3.7718248 15.176311 3.2353585 158 0 0 0 20.668779
-4.3586497 15.873212 3.4047339 107 0 0 0 20.27413
33.364414 15.753303 3.0181296 12 0 0 0 42.523991
-5.0130515 16.650896 3.1684754 126 0 0 0 19.891581
-5.7220192 17.452179 3.3456953 80 0 0 0 19.496241
33.444092 17.843908 3.0982718 6 0 0 0 41.741261
-6.5470247 18.433918 3.0787647 82 0 0 0 19.10075
-7.5071659 19.6087 3.3033569 53 0 0 0 18.7117
-9.4589672 21.497932 3.1133375 29 0 0 0 17.9312
-11.153129 23.762928 3.4773338 68 0 0 0 17.536739
-41.042454 30.756554 3.0498047 23 0 0 0 9.75173
20.054993 -42.074093 3.8782122 27 0 0 0 67.514633
23.943684 -39.698475 3.8592279 12 0 0 0 65.946754
24.799696 -38.93 3.8426893 39 0 0 0 65.552422
25.590311 -38.080585 3.819829 11 0 0 0 65.166031
26.336987 -37.191528 3.7943943 55 0 0 0 64.775681
27.147854 -36.412754 3.78162 15 0 0 0 64.386841
27.87796 -35.542141 3.7609122 40 0 0 0 63.988499
29.391665 -33.913078 3.7360058 31 0 0 0 63.212528
30.549038 -33.552841 3.7767272 17 0 0 0 62.820999
30.771059 -32.177624 3.7057142 47 0 0 0 62.423111
31.590422 -31.45561 3.7098517 29 0 0 0 62.029289
33.252556 -30.016771 3.7262421 11 0 0 0 61.255329
33.94175 -29.163313 3.7214954 44 0 0 0 60.854099
34.416294 -28.136303 3.6962035 24 0 0 0 60.465714
36.644817 -25.715319 3.7189398 32 0 0 0 59.298119
11.481676 -21.307495 3.812031 38 0 0 0 66.726166
12.658991 -20.966915 3.8572652 39 0 0 0 65.946754
10.333031 -20.350515 3.5962522 14 0 0 0 67.118958
12.761907 -20.012629 3.739141 33 0 0 0 65.552422
0.097627543 -19.341019 3.5205772 87 0 0 0 74.55085
-0.81764996 -18.611818 3.8487375 215 0 0 0 75.33149
-0.35920238 -18.500555 3.8239176 158 0 0 0 74.943527
6.8661304 -18.951916 3.6772032 27 0 0 0 69.075134
5.1503253 -18.309288 3.9380267 41 0 0 0 70.248245
6.1808338 -18.455736 3.5512898 18 0 0 0 69.465805
7.1863136 -18.41449 3.6069765 26 0 0 0 68.688705
7.5616341 -18.058229 3.572989 39 0 0 0 68.291924
11.167768 -18.493898 3.9407403 56 0 0 0 65.946754
4.4831119 -17.571026 3.7556121 6 0 0 0 70.644997
-24.420681 -17.434498 3.8617885 69 0 0 0 89.799889
7.8260212 -17.477253 3.9667437 48 0 0 0 67.910706
5.9799299 -16.498547 3.6369936 141 0 0 0 69.075134
7.7099075 -16.14348 3.7081003 79 0 0 0 67.514633
8.2079401 -16.158285 3.7562315 63 0 0 0 67.118958
5.7768335 -15.929134 3.9272871 31 0 0 0 69.075134
-22.862942 -15.493318 3.5550401 38 0 0 0 90.193581
44.599007 -14.685862 3.8810956 24 0 0 0 54.61692
-21.159256 -13.594677 3.8613594 122 0 0 0 90.583961
45.381844 -13.721647 3.9166903 30 0 0 0 54.220921
-0.88567489 -13.076473 3.6848867 439 0 0 0 75.724762
18.027216 -13.311307 3.5279796 10 0 0 0 59.691761
-1.3247572 -12.67942 3.7414029 451.75 0 0 0 76.309967
17.439816 -12.877513 3.9503782 18 0 0 0 59.691761
46.271759 -12.762978 3.9631348 18 0 0 0 53.837261
-2.0101602 -12.054838 3.736433 452 0 0 0 77.288383
-1.7446387 -12.308568 3.8007703 434 0 0 0 76.888969
17.155169 -12.029676 3.8185682 70 0 0 0 59.298119
-19.677813 -11.974139 3.5378633 88 0 0 0 90.974922
-2.513535 -11.553508 3.7605166 344.5 0 0 0 78.058922
-2.2732778 -11.833455 3.833149 489 0 0 0 77.671341
17.303417 -11.512423 3.7874417 33 0 0 0 58.912701
18.877026 -11.903916 3.5118983 47 0 0 0 58.521
-3.0048144 -11.155535 3.6745424 620.5 0 0 0 78.850449
-2.7588897 -11.339602 3.7116494 368.5 0 0 0 78.452736
-3.6865475 -10.540321 3.8258696 552 0 0 0 80.013313
-3.352572 -10.84425 3.7504754 630 0 0 0 79.430664
-17.759201 -10.21994 3.6573141 42 0 0 0 91.356392
-4.1167202 -10.148079 3.7515833 590.5 0 0 0 80.799477
-3.9034624 -10.341694 3.7871614 587 0 0 0 80.410172
-4.6322083 -9.6753759 3.6742265 628.5 0 0 0 81.774818
-4.3258986 -9.9571571 3.7187102 613 0 0 0 81.189079
-17.400415 -9.4539757 3.5342875 123 0 0 0 91.742622
-5.2593288 -9.1019783 3.8139305 558.33331 0 0 0 83.009979
-4.9357729 -9.405302 3.6372561 629 0 0 0 82.366562
-5.6714277 -8.7285929 3.7931988 557.20001 0 0 0 83.844879
-16.477625 -8.4360752 3.7608223 110 0 0 0 92.130913
-6.1772652 -8.2557373 3.6543372 604.5 0 0 0 84.89814
-5.8314085 -8.2074718 3.8168225 165.5 0 0 0 84.505005
-15.666269 -7.5439386 3.7467446 152.5 0 0 0 92.51181
-6.5270424 -7.6923165 3.574337 192 0 0 0 85.884254
-6.2938933 -7.7971525 3.671092 482.5 0 0 0 85.48571
-5.9687905 -7.7777729 3.7165661 240 0 0 0 85.09201
11.986766 -7.553525 3.985405 46 0 0 0 58.521
-6.5908985 -7.3930092 3.5092571 183 0 0 0 86.273422
12.154598 -7.2500772 3.9806986 27 0 0 0 58.131233
-14.938072 -6.7491579 3.7339773 182 0 0 0 92.903587
12.35541 -6.5726829 3.5885205 40 0 0 0 57.345039
16.094601 -6.6393423 3.6018429 82 0 0 0 55.785759
-14.514257 -6.1331024 3.9769526 364 0 0 0 93.307846
-14.494438 -6.1258125 3.5849373 406 0 0 0 93.307846
15.743068 -6.4910808 3.9401021 123 0 0 0 55.785759
16.889334 -6.4884291 3.7412186 127 0 0 0 55.387981
-15.188109 -5.5567341 3.6804981 345 0 0 0 94.088791
-14.868752 -5.8578176 3.6387646 345 0 0 0 93.695511
15.37564 -5.9035263 3.8112962 84 0 0 0 55.387981
16.695887 -5.9493599 3.6650651 65 0 0 0 55.00412
17.356394 -5.7101145 3.776665 71 0 0 0 54.61692
18.901834 -5.7100348 3.5925331 61 0 0 0 54.220921
-15.546863 -5.2587571 3.7329562 355 0 0 0 94.484085
17.351889 -5.2416096 3.7462616 109 0 0 0 54.220921
18.652369 -5.1399193 3.5201249 81 0 0 0 53.837261
19.186699 -4.7851806 3.5963562 60 0 0 0 53.441441
18.236074 -3.1485209 3.820791 50 0 0 0 52.266487
17.868841 -2.1908929 3.7164955 18 0 0 0 51.490101
-20.554287 -0.64544892 3.637157 207 0 0 0 99.150093
-21.041521 -0.14406797 3.7192516 158 0 0 0 99.540306
24.859859 0.61928928 3.888885 19 0 0 0 49.1497
23.773117 1.7597581 3.7276266 39 0 0 0 48.375111
19.176168 2.3682396 3.9797912 17 0 0 0 47.5882
23.065596 2.2765296 3.6244707 39 0 0 0 47.977367
23.521067 3.4914773 3.7160056 59 0 0 0 47.202961
24.353098 3.00741 3.8343804 13 0 0 0 47.5882
23.122421 4.0133853 3.66715 61 0 0 0 46.815929
22.979532 6.3558097 3.7221715 16 0 0 0 45.254353
27.361712 6.1427488 3.6796596 7 0 0 0 46.024273
65.12207 6.4032917 3.7233481 11 0 0 0 47.977367
29.285412 7.332325 3.9577456 20 0 0 0 45.6362
5.0108871 7.9138885 3.5570323 5 0 0 0 33.52306
28.127541 7.7793636 3.8261917 22 0 0 0 45.254353
5.5700812 8.3349533 3.8042607 16 0 0 0 33.9161
27.515411 8.3407288 3.7692583 29 0 0 0 44.853958
66.561607 8.1950588 3.8126838 23 0 0 0 47.5882
6.3278642 8.9785767 3.7612557 36 0 0 0 34.31002
27.274296 9.00278 3.7645671 22 0 0 0 44.46619
-30.714203 9.5081196 3.5314116 54 0 0 0 4.2923098
-1.472865 9.9553404 3.8225513 72 0 0 0 22.22064
-30.814716 10.371768 3.5690808 44 0 0 0 4.6851802
-1.5041527 10.167476 3.6518955 75 0 0 0 22.22064
7.4549994 10.039579 3.5067968 33 0 0 0 34.693314
7.5755234 10.204514 3.8759842 38 0 0 0 34.693314
69.088264 10.229406 3.9666555 14 0 0 0 47.202961
9.6027098 12.285477 3.7848377 35 0 0 0 35.083591
32.286255 12.434809 3.6750882 9 0 0 0 43.693439
-2.304163 13.391047 3.8162496 162 0 0 0 21.835609
31.940456 13.20888 3.6706514 20 0 0 0 43.302151
-2.7456357 13.914038 3.8060951 163.5 0 0 0 21.44319
-3.2128687 14.416871 3.7803319 133 0 0 0 21.053619
32.614758 14.43302 3.7856991 12 0 0 0 42.91573
-3.7621741 15.132046 3.7983451 121 0 0 0 20.668779
-4.3472223 15.8244 3.7957294 131 0 0 0 20.27413
33.976162 16.041683 3.9854147 13 0 0 0 42.523991
-4.9867697 16.566887 3.5778384 103 0 0 0 19.891581
33.516796 16.840883 3.9780388 24 0 0 0 42.135113
-5.7140727 17.431667 3.7926342 98 0 0 0 19.496241
-6.5614672 18.478724 3.5710034 69 0 0 0 19.10075
-7.4841175 19.552082 3.8115852 68 0 0 0 18.7117
-8.5531349 20.807051 3.5383096 54 0 0 0 18.32707
-35.331001 29.271469 3.8670475 14 0 0 0 10.53056
18.251001 -35.990414 4.3427839 10 0 0 0 67.118958
11.113476 -20.624479 4.2705474 26 0 0 0 66.726166
11.49122 -20.129396 4.2255135 55 0 0 0 66.341217
33.781998 -20.178225 4.2254033 25 0 0 0 58.131233
13.398916 -19.920687 4.375689 45 0 0 0 65.166031
4.3526416 -18.99691 4.0333757 11 0 0 0 71.033524
6.2655945 -18.712706 4.085546 25 0 0 0 69.465805
12.027033 -18.859472 4.07899 27 0 0 0 65.552422
7.5660715 -18.070896 4.0572019 35 0 0 0 68.291924
11.078304 -18.346745 4.4366698 38 0 0 0 65.946754
-0.7773484 -17.773859 4.1123242 129 0 0 0 75.33149
6.6100254 -16.927813 4.2100568 13 0 0 0 68.688705
7.1187677 -16.992481 4.2679996 5 0 0 0 68.291924
-23.367317 -15.831882 4.3312001 24 0 0 0 90.193581
5.6952467 -15.705233 4.2824693 20 0 0 0 69.075134
7.1977367 -15.718928 4.1481214 30 0 0 0 67.778679
7.6463695 -15.045642 4.327033 17 0 0 0 67.118958
8.2927361 -15.374633 4.0490274 16 0 0 0 66.726166
-21.142864 -13.582011 4.480587 177 0 0 0 90.583961
17.973284 -13.964307 4.1464186 51 0 0 0 60.084339
-0.72969335 -13.170947 4.1954374 275.5 0 0 0 75.528122
17.123201 -13.303603 4.485013 41 0 0 0 60.084339
-1.3753806 -12.651256 4.3091865 364 0 0 0 76.373833
-0.84961575 -12.591068 4.4810681 156 0 0 0 75.724762
-0.24410442 -12.990801 4.2952681 140 0 0 0 74.943527
17.383684 -12.836337 4.4692111 49 0 0 0 59.691761
-2.0147455 -12.074094 4.1952829 428 0 0 0 77.288383
-1.7472683 -12.317678 4.263936 401.5 0 0 0 76.888969
-19.669052 -11.966906 4.1064291 89 0 0 0 90.974922
-2.5003133 -11.501954 4.1784682 114 0 0 0 78.058922
-2.2717526 -11.835369 4.2779651 441 0 0 0 77.671341
16.879498 -11.836465 4.2646794 25 0 0 0 59.298119
47.140598 -11.76868 4.0093737 24 0 0 0 53.441441
-3.0097263 -11.178532 4.2509394 449.5 0 0 0 78.850449
-2.7501495 -11.309737 4.2745261 105 0 0 0 78.452736
19.543077 -11.026236 4.0848193 38 0 0 0 57.738289
-3.6918151 -10.55724 4.2431087 435 0 0 0 80.013313
-3.3533657 -10.855722 4.1720738 494.25 0 0 0 79.430664
47.947311 -10.730214 4.0521431 10 0 0 0 53.04916
-17.802814 -10.243323 4.1717501 58 0 0 0 91.356392
-4.1236224 -10.166615 4.1617246 404 0 0 0 80.799477
-3.9039783 -10.344878 4.1946716 453 0 0 0 80.410172
-4.6395864 -9.6917696 4.07548 449.5 0 0 0 81.774826
-4.3286428 -9.9649687 4.1210346 476 0 0 0 81.189079
-17.411085 -9.4582205 4.0241885 118 0 0 0 91.742622
-5.1312661 -9.22297 4.0018992 500 0 0 0 82.751007
-4.9360385 -9.4070625 4.0285172 515 0 0 0 82.366562
16.029066 -9.0389242 4.2581682 65 0 0 0 57.738289
13.006759 -8.6488314 4.391161 26 0 0 0 58.912701
16.427666 -8.7410431 4.305059 35 0 0 0 57.345039
-16.452848 -8.4256744 4.2082367 150 0 0 0 92.130913
13.457007 -8.4809074 4.0759392 37 0 0 0 58.521
16.734934 -8.3857317 4.3297586 59 0 0 0 56.953472
14.079993 -7.9390717 4.1405716 54 0 0 0 57.738289
15.139935 -7.586019 4.335453 53 0 0 0 56.953472
16.826498 -7.9225507 4.3015966 43 0 0 0 56.553646
-15.331326 -7.382966 4.2941313 143 0 0 0 92.51181
11.741627 -7.396153 4.2450528 33 0 0 0 58.521
14.916665 -7.0227966 4.2212987 63 0 0 0 56.553646
-14.773688 -6.673439 4.2910099 95 0 0 0 92.903587
15.096279 -6.6610842 4.2241998 87 0 0 0 56.168633
-14.519755 -6.1343479 4.3702579 373 0 0 0 93.307846
12.07317 -6.0484109 4.4639382 28 0 0 0 56.953472
-15.212627 -5.5641613 4.2857308 312.5 0 0 0 94.088791
-14.884205 -5.86233 4.2344208 316.5 0 0 0 93.695511
14.888861 -5.7165699 4.2810898 108 0 0 0 55.387981
16.774002 -5.9739566 4.1173854 86 0 0 0 55.00412
-15.546255 -5.257576 4.1360698 310 0 0 0 94.484085
15.266058 -5.2253242 4.1299467 97 0 0 0 54.81052
17.439482 -5.2647891 4.2104287 27 0 0 0 54.220921
18.879059 -5.2024345 4.0440621 71 0 0 0 53.837261
-15.894455 -4.9438238 4.1930933 268 0 0 0 94.882248
14.439414 -4.7472143 4.2689853 120 0 0 0 54.61692
18.839823 -4.6986413 4.009388 113 0 0 0 53.441441
17.891335 -4.4586768 4.2600141 60 0 0 0 53.441441
18.081394 -4.0386992 4.2796383 83 0 0 0 53.04916
18.91544 -4.228538 4.0016127 82 0 0 0 53.04916
18.275911 -3.6148803 4.3026133 98 0 0 0 52.66309
19.047588 -3.7710347 4.0080905 55 0 0 0 52.66309
18.625652 -3.2124641 4.363986 89 0 0 0 52.266487
19.005077 -2.8006864 4.4342999 49 0 0 0 51.885899
19.625471 -2.8956559 4.0928044 87 0 0 0 51.885899
18.415421 -1.7983184 4.2708745 18 0 0 0 51.09539
20.696693 -1.5143641 4.2776322 40 0 0 0 50.704338
17.439966 -1.2728659 4.4664717 11 0 0 0 50.704338
18.084187 -1.3199255 4.1853051 14 0 0 0 50.704338
-20.59935 -0.64628452 4.1525154 185 0 0 0 99.150093
-21.063915 -0.14368768 4.2418213 148 0 0 0 99.540306
18.010504 -0.43027532 4.1573405 28 0 0 0 49.927799
19.687569 -0.47384724 4.0596595 44 0 0 0 49.927799
17.872007 0.010749128 4.1238356 26 0 0 0 49.533527
18.352324 0.46055329 4.234499 14 0 0 0 49.1497
20.346411 0.008595299 4.1924901 26 0 0 0 49.533527
20.922741 1.0344441 4.3140974 36 0 0 0 48.762089
23.571381 2.3264196 4.2893167 53 0 0 0 47.977367
23.359509 2.884721 4.2617636 21 0 0 0 47.5882
20.230499 3.0031009 4.2100053 28 0 0 0 47.202961
25.699577 5.7696095 4.1099091 6 0 0 0 46.024273
23.226257 7.040669 4.3882275 9 0 0 0 44.853958
6.2915168 8.9295359 4.1419373 14 0 0 0 34.31002
7.4409404 10.022694 4.269434 41.5 0 0 0 34.693314
31.345608 11.204902 4.3566532 7 0 0 0 44.085739
29.921404 11.530002 4.1971827 11 0 0 0 43.693439
9.5901346 12.268267 4.3580236 37 0 0 0 35.083591
-6.4485798 12.874259 4.4039807 40 0 0 0 17.152571
-2.3032093 13.386067 4.3165684 173.5 0 0 0 21.835609
31.720013 13.123943 4.4899111 12 0 0 0 43.302151
-2.7438517 13.899102 4.3262739 143 0 0 0 21.44319
-3.2143514 14.428077 4.1500359 175 0 0 0 21.053619
-3.7473323 15.078121 4.3611865 92 0 0 0 20.668779
-4.3371396 15.791432 4.1895156 129 0 0 0 20.27413
-4.9852314 16.557112 4.2104826 101 0 0 0 19.891581
-5.7180147 17.437313 4.2427382 92 0 0 0 19.496241
-6.5363741 18.411499 4.0383139 61 0 0 0 19.10075
-7.4781394 19.540262 4.3235488 60 0 0 0 18.7117
-8.5277967 20.749062 4.0832753 52 0 0 0 18.32707
-12.490779 25.011583 4.3944349 27 0 0 0 17.152571
-14.519473 27.379597 4.103332 29 0 0 0 16.763189
-42.3806 30.161337 4.3906469 8 0 0 0 9.3593998
-41.715935 31.25423 4.39608 8 0 0 0 9.75173
21.564121 -40.067165 4.8929591 4 0 0 0 66.726166
23.913151 -39.650574 4.9791875 23 0 0 0 65.946754
24.691425 -38.762409 4.9424868 23 0 0 0 65.552422
26.277231 -37.109188 4.8903956 37 0 0 0 64.775681
27.049532 -36.282703 4.8673439 24 0 0 0 64.386841
27.783632 -35.423557 4.841835 40 0 0 0 63.988499
28.534367 -34.601704 4.8233843 26 0 0 0 63.59832
29.290886 -33.798191 4.8096447 35 0 0 0 63.212528
30.680971 -33.699215 4.8998632 19 0 0 0 62.820999
31.610304 -31.476547 4.7956719 32 0 0 0 62.029289
34.460098 -28.172895 4.7819467 21 0 0 0 60.465714
35.359982 -27.492374 4.8108091 8 0 0 0 60.084339
36.001545 -26.603146 4.8069949 12 0 0 0 59.691761
36.581696 -25.671558 4.7980261 45 0 0 0 59.298119
38.236488 -24.129374 4.8513808 11 0 0 0 58.521
1.2192683 -22.687494 4.6908493 30 0 0 0 73.769135
2.3290703 -22.610479 4.6948109 32 0 0 0 72.985748
1.7578597 -22.438467 4.6481571 43 0 0 0 73.37484
39.484909 -22.292862 4.8625998 9 0 0 0 57.738289
10.557851 -19.592752 4.605917 18 0 0 0 66.726166
3.4688404 -19.460867 4.5730391 56 0 0 0 71.819939
4.3912811 -19.155661 4.5478044 39 0 0 0 71.033524
12.864841 -19.126539 4.7694445 26 0 0 0 65.166031
5.7371836 -18.627552 4.5121698 13 0 0 0 69.863312
11.963152 -18.760353 4.6048841 16 0 0 0 65.552422
4.5761709 -17.932276 4.739305 8 0 0 0 70.644997
5.8763957 -17.540272 4.7383828 32 0 0 0 69.465805
-24.45435 -17.45574 4.6107078 65 0 0 0 89.799889
5.3266783 -17.291126 4.6348252 15 0 0 0 69.863312
42.212357 -17.428576 4.8898182 19 0 0 0 55.785759
6.466713 -16.561375 4.5559154 37 0 0 0 68.688705
6.3683252 -16.310404 4.9221296 32 0 0 0 68.688705
8.5377922 -15.831559 4.6097431 38 0 0 0 66.726166
43.875217 -15.64831 4.9836464 11 0 0 0 55.00412
5.6177344 -15.492587 4.634089 45 0 0 0 69.075134
7.1954021 -15.060273 4.6939359 26 0 0 0 67.514633
-1.1701 -12.699196 4.5274997 205 0 0 0 76.118385
-0.54512793 -12.693502 4.511744 57 0 0 0 75.33149
-19.952219 -12.136828 4.7396131 53 0 0 0 90.974922
-2.0128133 -12.067766 4.6428027 362 0 0 0 77.288383
-1.7423813 -12.290036 4.710629 307 0 0 0 76.888969
-1.2796174 -12.24382 4.6732101 170.5 0 0 0 76.309967
16.28883 -12.023073 4.6843634 53 0 0 0 59.691761
18.236982 -12.134308 4.528862 30 0 0 0 58.912701
-2.5205586 -11.589748 4.5008078 183 0 0 0 78.058922
-2.2765195 -11.855318 4.5809689 331 0 0 0 77.671341
16.907362 -10.657421 4.6232028 55 0 0 0 58.521
18.38468 -10.969935 4.9495926 38 0 0 0 58.131233
-17.876274 -10.287987 4.6941504 26 0 0 0 91.356392
-17.916 -9.73421 4.6391592 35 0 0 0 91.742622
16.090027 -9.5999184 4.7952857 39 0 0 0 58.131233
-16.583937 -8.4912157 4.6989927 170 0 0 0 92.130913
13.640939 -8.134551 4.8540006 37 0 0 0 58.131233
14.597121 -8.2310562 4.707665 25 0 0 0 57.738289
-16.016685 -7.7106509 4.9256682 30 0 0 0 92.51181
14.602732 -7.7695026 4.6466465 35 0 0 0 57.345039
15.344522 -7.6887136 4.8197913 72 0 0 0 56.953472
14.591337 -7.3079343 4.9853396 73 0 0 0 56.953472
15.359738 -7.2316432 4.7673311 71 0 0 0 56.553646
-14.621554 -6.6063323 4.8439393 37 0 0 0 92.903587
12.443319 -6.6197858 4.6585116 19 0 0 0 57.345039
13.020573 -6.9241743 4.5083098 38 0 0 0 57.345039
14.781209 -6.9559922 4.9900193 42 0 0 0 56.553646
15.740521 -6.7166328 4.805047 42 0 0 0 55.977196
16.740015 -6.9024787 4.6320357 51 0 0 0 55.785759
-14.543914 -6.1464529 4.7662539 284 0 0 0 93.307846
19.100889 -6.2807007 4.6447744 49 0 0 0 54.61692
-15.223212 -5.569519 4.8892479 256 0 0 0 94.088791
-14.907557 -5.8729458 4.8346338 250 0 0 0 93.695511
-15.560074 -5.262269 4.7502089 276 0 0 0 94.484085
13.943092 -5.3533006 4.9325342 125 0 0 0 55.387981
14.233334 -5.1986852 4.7521486 94.666664 0 0 0 55.132076
-15.906073 -4.946465 4.6101828 294 0 0 0 94.882248
17.599199 -3.9309483 4.6088681 78 0 0 0 53.04916
18.521856 -3.6635475 4.8234482 49 0 0 0 52.66309
18.905626 -3.2607689 4.8999391 54 0 0 0 52.266487
17.244535 -2.5411158 4.8870158 19 0 0 0 51.885899
17.521008 -2.5818832 4.525116 77 0 0 0 51.885899
17.730673 -2.1707873 4.5632648 31 0 0 0 51.490101
17.853443 -1.7434009 4.5817342 19 0 0 0 51.09539
31.01996 -1.5076621 4.8518052 16 0 0 0 50.320847
-20.607634 -0.64956921 4.659133 161 0 0 0 99.150093
19.096989 -0.92450988 4.8799667 25 0 0 0 50.320847
29.93292 -0.72081041 4.6776938 10 0 0 0 49.927799
-21.068115 -0.14686406 4.7586188 159 0 0 0 99.540306
17.283699 -0.4128677 4.8444405 25 0 0 0 49.927799
19.344021 0.48541126 4.9364729 27 0 0 0 49.1497
-21.866816 0.53021115 4.5029936 82 0 0 0 0
23.126379 1.7118908 4.771347 22 0 0 0 48.375111
22.638443 2.2343574 4.680409 38 0 0 0 47.977367
24.649082 4.2782536 4.5261102 26 0 0 0 46.815929
-20.873991 7.5925632 4.6349058 47 0 0 0 5.0704298
23.755993 7.8414922 4.5215273 13 0 0 0 44.46619
28.515907 8.6437855 4.6423068 23 0 0 0 44.853958
7.4032717 9.9747324 4.7051916 22 0 0 0 34.693314
29.043358 10.381945 4.8024178 15 0 0 0 44.085739
-32.866608 11.058581 4.6564646 32 0 0 0 4.6851802
29.504023 11.368982 4.9214878 17 0 0 0 43.693439
9.5903711 12.272209 4.7418985 34 0 0 0 35.083591
-2.3003776 13.355828 4.8062897 108 0 0 0 21.835609
-2.7381043 13.887264 4.6722565 149 0 0 0 21.44319
-3.213388 14.424386 4.694828 107 0 0 0 21.053619
33.187935 14.69319 4.7443724 14 0 0 0 42.91573
-3.7479119 15.073366 4.74159 116 0 0 0 20.668779
-4.3287954 15.761484 4.7882147 86.5 0 0 0 20.27413
34.292084 16.197729 4.9550381 14 0 0 0 42.523991
-4.9731522 16.522636 4.841825 80 0 0 0 19.891581
-5.7109308 17.419441 4.688046 82 0 0 0 19.496241
-6.5216527 18.365337 4.7441649 60.5 0 0 0 19.10075
-7.4501915 19.460485 4.8158526 54 0 0 0 18.7117
-8.4984407 20.681202 4.6196303 51 0 0 0 18.32707
-9.4274511 21.437626 4.8384905 52 0 0 0 17.9312
-14.537954 27.418964 4.8766117 24 0 0 0 16.763189
-35.313908 29.260752 4.9787822 18 0 0 0 10.53056
-33.241856 45.215458 4.6835909 5 0 0 0 14.42667
55.539688 -29.590284 5.2050247 12 0 0 0 57.345039
6.2768984 -27.445049 5.1196928 20 0 0 0 71.033524
0.11246367 -24.24317 5.0008335 19 0 0 0 74.55085
0.71137434 -24.430538 5.0424781 10 0 0 0 74.162727
30.225071 -23.490364 5.0576015 15 0 0 0 60.084339
2.3444393 -22.735144 5.2799535 20 0 0 0 72.985748
0.65359718 -22.259764 5.1424451 6 0 0 0 74.162727
1.7481905 -22.278929 5.1623278 22 0 0 0 73.37484
1.1807849 -21.90378 5.0668483 19 0 0 0 73.769135
10.237418 -20.158392 5.231483 32 0 0 0 67.118958
33.991219 -20.295555 5.2243624 19 0 0 0 58.131233
3.4728432 -19.489544 5.0656676 22 0 0 0 71.819939
4.3689585 -19.064281 5.2489114 31.5 0 0 0 71.033524
7.7662873 -18.545771 5.1485991 9 0 0 0 68.291924
10.83534 -18.973339 5.0570049 58 0 0 0 66.341217
12.052819 -18.895195 5.1865702 34 0 0 0 65.552422
-24.483942 -17.47407 5.360805 56 0 0 0 89.799889
5.3806529 -17.470133 5.1364169 9 0 0 0 69.863312
7.7178807 -17.232256 5.3060303 13 0 0 0 67.910706
4.7432504 -16.843889 5.3481474 15 0 0 0 70.248245
5.152431 -16.717648 5.3468957 8 0 0 0 69.863312
5.6425958 -16.838062 5.2087612 18 0 0 0 69.465805
-23.326584 -15.801846 5.0212054 11 0 0 0 90.193581
8.0542765 -15.846774 5.4344444 21 0 0 0 67.118958
44.659611 -14.705906 5.0283155 10 0 0 0 54.61692
-21.152245 -13.585877 5.1011372 164 0 0 0 90.583961
45.51527 -13.76206 5.0830212 5 0 0 0 54.220921
15.842348 -12.93776 5.2351928 16 0 0 0 60.465714
16.492365 -12.809083 5.3437729 22 0 0 0 60.084339
46.184422 -12.738926 5.1193547 21 0 0 0 53.837261
-19.88316 -12.097761 5.2935619 50 0 0 0 90.974922
16.088413 -11.875289 5.1178789 14 0 0 0 59.691761
16.375711 -11.479134 5.1178713 23 0 0 0 59.298119
-17.88442 -10.291012 5.2029324 28 0 0 0 91.356392
-18.018356 -9.788085 5.1689215 40 0 0 0 91.742622
-16.607323 -8.5017433 5.1691117 153 0 0 0 92.130913
13.174308 -8.760726 5.2274952 10 0 0 0 58.912701
15.140786 -8.5345469 5.3087425 41 0 0 0 57.738289
13.841413 -8.2576351 5.3240108 16 0 0 0 58.131233
-15.960082 -7.6856389 5.3445544 37 0 0 0 92.51181
13.310262 -7.9342976 5.4994245 29 0 0 0 58.131233
-15.082066 -6.8093705 5.4039598 66 0 0 0 92.903587
12.447337 -6.6165514 5.3497672 25 0 0 0 57.345039
12.72662 -6.765058 5.1162615 48 0 0 0 57.345039
14.45532 -6.8056703 5.276094 34 0 0 0 56.553646
15.039772 -6.6363459 5.4272108 85 0 0 0 56.168633
15.627893 -6.8927188 5.2155347 66 0 0 0 56.168633
-14.54263 -6.1418514 5.1561337 307 0 0 0 93.307846
15.266028 -6.2944937 5.4509902 56 0 0 0 55.785759
16.873306 -6.0094271 5.0258646 80 0 0 0 55.00412
-15.236008 -5.5701542 5.2944326 255 0 0 0 94.088791
-14.90557 -5.8681164 5.2300668 244 0 0 0 93.695511
-15.568825 -5.2622275 5.3615479 270 0 0 0 94.484085
15.599813 -5.1275015 5.2154732 31.5 0 0 0 54.61692
16.613482 -5.0122051 5.2955198 44 0 0 0 54.220921
17.071121 -5.1535726 5.0025096 69 0 0 0 54.220921
-16.282915 -4.630455 5.0996332 218 0 0 0 95.261299
-15.933863 -4.9551725 5.2354984 238 0 0 0 94.882248
16.587969 -4.5646281 5.2498713 28 0 0 0 53.837261
17.297794 -4.7632885 5.032465 56 0 0 0 53.837261
-16.649338 -4.2957296 5.1776533 250 0 0 0 95.641197
17.998533 -4.0201898 5.1706924 79 0 0 0 53.04916
18.416372 -3.6426737 5.2623334 76 0 0 0 52.66309
19.293959 -2.3622651 5.4455481 30 0 0 0 51.490101
17.013025 -1.6582752 5.2121019 37 0 0 0 51.09539
-20.145428 -1.1297631 5.0574903 97 0 0 0 98.75943
18.900724 -1.3795356 5.308538 33 0 0 0 50.704338
-20.64716 -0.65023476 5.1753678 171 0 0 0 99.150093
18.856388 -0.91284192 5.2876935 19 0 0 0 50.320847
-21.127539 -0.14674993 5.2908273 129 0 0 0 99.540306
17.660803 0.44631553 5.3827424 20 0 0 0 49.1497
18.736273 0.0112532 5.2468004 27 0 0 0 49.533527
19.229931 0.48255602 5.3852487 26 0 0 0 49.1497
30.2913 0.012479603 5.4804568 18 0 0 0 49.533527
-21.966026 0.52878523 5.0608768 143 0 0 0 0
17.532454 0.87305558 5.348165 32 0 0 0 48.762089
25.191914 0.62756371 5.1838136 15 0 0 0 49.1497
28.960234 0.72133958 5.2416687 26 0 0 0 49.1497
20.674692 1.0258023 5.2779307 31 0 0 0 48.762089
23.339535 1.1579415 5.3804412 34 0 0 0 48.762089
22.824629 1.6935598 5.2696142 24 0 0 0 48.375111
22.309401 2.2058086 5.1614881 19 0 0 0 47.977367
28.920025 2.1405964 5.2449837 13 0 0 0 48.375111
24.080626 5.4061027 5.0710115 13 0 0 0 46.024273
27.435579 5.4570513 5.0558691 24 0 0 0 46.417969
24.357023 6.098402 5.1577992 17 0 0 0 45.6362
27.461473 6.1649795 5.0858493 20 0 0 0 46.024273
-20.48119 6.8839593 5.0384307 37 0 0 0 4.6851802
23.952642 6.6246734 5.1046576 16 0 0 0 45.254353
-20.296099 7.3787179 5.0347586 39 0 0 0 5.0704298
-20.27858 7.9390197 5.0758071 93 0 0 0 5.4606199
28.587046 7.906177 5.356061 22 0 0 0 45.254353
-32.682449 10.114785 5.441988 10 0 0 0 4.2923098
-36.28537 11.23024 5.0996232 29 0 0 0 4.2923098
9.5538425 12.224419 5.297965 23 0 0 0 35.083591
-2.2963028 13.336898 5.1307588 133 0 0 0 21.835609
-2.7364759 13.860196 5.1826086 109 0 0 0 21.44319
-3.2110808 14.402614 5.2316999 84 0 0 0 21.053619
-3.7410326 15.051751 5.3081174 85 0 0 0 20.668779
-4.3075957 15.695101 5.3701453 73 0 0 0 20.27413
-4.9676805 16.497765 5.2581444 64 0 0 0 19.891581
-5.7052484 17.405912 5.1390166 48 0 0 0 19.496241
-6.5000224 18.309856 5.4503303 62 0 0 0 19.10075
-7.4519386 19.468929 5.3292842 41 0 0 0 18.7117
-8.5275517 20.745943 5.1828203 50 0 0 0 18.32707
-9.3571415 21.270777 5.36973 26 0 0 0 17.9312
-11.145324 23.758589 5.4197931 29 0 0 0 17.536739
43.043674 25.747234 5.3045683 4 0 0 0 40.956871
27.115578 -36.360073 5.9935694 11 0 0 0 64.386841
27.85873 -35.5084 5.9637594 25 0 0 0 63.988499
28.62006 -34.694981 5.9428821 23 0 0 0 63.59832
29.379108 -33.889603 5.9261065 27 0 0 0 63.212528
33.226959 -29.985022 5.9104958 6 0 0 0 61.255329
33.909645 -29.127144 5.9024487 22 0 0 0 60.854099
36.032192 -26.616724 5.912035 5 0 0 0 59.691761
4.0253825 -26.383347 5.508853 35 0 0 0 72.202446
36.637234 -25.701582 5.9051852 30 0 0 0 59.298119
38.127949 -24.052011 5.9457173 23 0 0 0 58.521
1.7366246 -22.145702 5.6770339 17 0 0 0 73.37484
2.2942224 -22.254204 5.7182169 25 0 0 0 72.985748
0.64203161 -21.893126 5.5960469 18 0 0 0 74.162727
9.8215714 -20.573862 5.8344302 21 0 0 0 67.514633
2.9911048 -19.551537 5.5518684 55 0 0 0 72.202446
11.183837 -19.586378 5.7729254 21 0 0 0 66.341217
4.3728991 -19.072878 5.9759393 42 0 0 0 71.033524
3.8681128 -18.992796 5.919147 21 0 0 0 71.41996
12.039981 -18.876278 5.7309222 48 0 0 0 65.552422
12.732915 -18.925264 5.8380656 9 0 0 0 65.166031
7.6439381 -18.254711 5.5597744 26 0 0 0 68.291924
6.4507265 -17.793392 5.7831955 15 0 0 0 69.075134
5.1296806 -16.656549 5.758225 16 0 0 0 69.863312
6.5128355 -16.68615 5.9181266 33 0 0 0 68.688705
7.2307148 -16.680988 5.557478 20.5 0 0 0 68.101318
8.0676413 -16.886204 5.7196569 19 0 0 0 67.514633
4.6152639 -16.400723 5.6293893 27 0 0 0 70.248245
5.4490027 -16.265923 5.6684036 17 0 0 0 69.465805
5.8487201 -16.136976 5.6719275 17 0 0 0 69.075134
6.8161354 -16.274843 5.8303647 8 0 0 0 68.291924
-22.908001 -15.516443 5.612627 43 0 0 0 90.193581
5.6308079 -15.51812 5.8609128 21 0 0 0 69.075134
6.991004 -15.607246 5.6519732 24 0 0 0 67.910706
6.4492373 -15.382123 5.9218774 23 0 0 0 68.291924
-21.189878 -13.613078 5.727107 91 0 0 0 90.583961
16.7015 -12.972001 5.9364605 15 0 0 0 60.084339
17.163977 -12.032461 5.8835125 20 0 0 0 59.298119
-19.664028 -11.96286 5.8008175 71 0 0 0 90.974922
17.94162 -11.933605 5.51161 18 0 0 0 58.912701
-17.900921 -10.298812 5.7206998 32 0 0 0 91.356392
-18.044231 -9.800499 5.6863723 18 0 0 0 91.742622
-17.228378 -9.3609629 5.9141665 93 0 0 0 91.742622
-16.603365 -8.5019884 5.6271062 158 0 0 0 92.130913
13.864404 -8.7318316 5.81391 12 0 0 0 58.521
-16.304358 -8.3443594 5.9792333 86 0 0 0 92.130913
14.659212 -8.2597589 5.968781 46 0 0 0 57.738289
-16.426558 -7.9047222 5.949769 8 0 0 0 92.51181
-14.556375 -6.5778122 5.6098804 72 0 0 0 92.903587
16.911634 -6.9699712 5.5827675 43 0 0 0 55.785759
24.460087 -6.7365365 5.850801 14 0 0 0 53.837261
-14.563734 -6.1551399 5.7457914 234.5 0 0 0 93.307846
14.764727 -6.0816855 5.6634936 71 0 0 0 55.785759
-15.260502 -5.5841169 5.7019954 210 0 0 0 94.088791
-14.915281 -5.8769116 5.6272569 249 0 0 0 93.695511
14.487783 -5.9675841 5.9415317 95 0 0 0 55.785759
15.159871 -5.8147984 5.75776 71 0 0 0 55.387981
-15.598445 -5.2773018 5.7760563 212 0 0 0 94.484085
17.002577 -5.1329155 5.8583679 44 0 0 0 54.220921
-16.282524 -4.6289558 5.7260799 224 0 0 0 95.261299
-15.940345 -4.9603348 5.8537092 188 0 0 0 94.882248
-16.639975 -4.2893205 5.5997357 206 0 0 0 95.641197
16.344322 -4.2848215 5.5744004 56.5 0 0 0 53.639351
18.915728 -4.221693 5.9089246 50 0 0 0 53.04916
-17.020903 -3.944562 5.6913924 147 0 0 0 96.026207
20.536909 -3.5422421 5.8376141 13 0 0 0 52.266487
25.035225 -3.0655417 5.8111358 18 0 0 0 51.490101
18.857624 -2.7755635 5.8097534 17 0 0 0 51.885899
18.806631 -2.2992337 5.7744689 17 0 0 0 51.490101
-19.677254 -1.5908574 5.926816 76 0 0 0 98.376419
-20.09977 -1.1265703 5.5463691 162 0 0 0 98.75943
19.309404 -1.4059855 5.8985653 13 0 0 0 50.704338
30.61595 -1.4879985 5.5476375 19 0 0 0 50.320847
-20.644855 -0.64957148 5.6880083 155 0 0 0 99.150093
17.889217 -0.86596292 5.9013171 10 0 0 0 50.320847
18.310186 -0.88316828 5.5860553 15 0 0 0 50.320847
-21.131098 -0.14623092 5.8167319 122 0 0 0 99.540306
18.139475 -0.43016875 5.5287929 20 0 0 0 49.927799
17.619791 0.010633145 5.8049388 24 0 0 0 49.533527
19.445866 0.015054354 5.9224043 18 0 0 0 49.533527
22.891409 0.013602116 5.8348131 17 0 0 0 49.533527
-21.982096 0.52917236 5.60428 132 0 0 0 0
-22.680464 1.2605728 5.8587976 113 0 0 0 0.39906001
18.981096 1.4117997 5.7955956 19 0 0 0 48.375111
19.263844 2.3858135 5.9086509 7 0 0 0 47.5882
20.098118 2.4855621 5.6651092 25 0 0 0 47.5882
22.579565 2.2324991 5.7805476 10 0 0 0 47.977367
19.440779 2.8927336 5.9818525 17 0 0 0 47.202961
23.197296 4.0303788 5.9948997 7 0 0 0 46.815929
23.992332 4.7765713 5.6261435 18 0 0 0 46.417969
22.848635 5.1336479 5.9613948 24 0 0 0 46.024273
25.148531 6.3010955 5.9589729 15 0 0 0 45.6362
-20.318647 6.8300257 5.5242519 9 0 0 0 4.6851802
23.786575 6.5831227 5.6737018 6 0 0 0 45.254353
-20.458961 7.4389839 5.6088624 30 0 0 0 5.0704298
23.46121 7.1161041 5.6355162 31 0 0 0 44.853958
