# .PCD v0.7 - Point Cloud Data file format
VERSION 0.7
FIELDS x y z intensity normal_x normal_y normal_z curvature
SIZE 4 4 4 4 4 4 4 4
TYPE F F F F F F F F
COUNT 1 1 1 1 1 1 1 1
WIDTH 943
HEIGHT 1
VIEWPOINT 0 0 0 1 0 0 0
POINTS 943
DATA ascii
0.78211886 -10.669425 1.6875012 78 0 0 0 73.482117
-11.416081 -10.352985 1.6611015 16 0 0 0 87.968414
-10.574553 -10.077295 1.9355026 153 0 0 0 87.581917
-9.6134157 -10.106845 1.8501203 152 0 0 0 86.797379
-9.3561964 -10.332595 1.8490169 186 0 0 0 86.39669
-7.4613948 -10.069678 1.9761373 256 0 0 0 84.827126
-5.8264227 -10.293362 1.5744689 307 0 0 0 82.874039
-4.649663 -10.156725 1.7648755 142.5 0 0 0 81.507301
-3.8570373 -10.380636 1.7496171 129 0 0 0 80.327377
-3.2837477 -10.361294 1.7176034 166 0 0 0 79.543213
-2.2740045 -10.12429 1.640589 225 0 0 0 78.17997
0.49320358 -10.136436 1.726773 242.5 0 0 0 73.876915
0.7441377 -10.15648 1.8597492 145 0 0 0 73.482117
-10.954234 -9.9377165 1.9591197 93 0 0 0 87.968414
-7.7569656 -9.9488363 1.9889048 208 0 0 0 85.215698
-6.5584803 -9.8242464 1.5724652 299 0 0 0 84.042793
-2.9996777 -9.8909035 1.890263 292 0 0 0 79.345558
-1.8324165 -9.8268871 1.5815394 119.5 0 0 0 77.588562
-0.70754892 -9.5511017 1.987684 204 0 0 0 75.828568
-0.0042137429 -9.9190321 1.5678358 354 0 0 0 74.649612
0.23665285 -9.8290024 1.5541036 210 0 0 0 74.260727
0.83611155 -9.7417164 1.7808179 170.5 0 0 0 73.285721
1.2021015 -9.7958221 1.5588409 189 0 0 0 72.702118
9.6582155 -9.6682549 1.7951956 113 0 0 0 62.129478
-6.6333089 -9.427289 1.8203119 120 0 0 0 84.435478
-5.2653141 -9.3022137 1.825289 261.5 0 0 0 82.874039
-4.7719498 -9.2025185 1.6403692 260.5 0 0 0 82.288757
-3.7390795 -9.0318079 1.5483791 302 0 0 0 80.91217
-2.5546415 -9.2312794 1.7532109 194.66667 0 0 0 78.959084
-2.3223133 -9.2694407 1.6311398 271 0 0 0 78.568771
-0.11691689 -9.3277168 1.7072954 206.5 0 0 0 74.851089
0.33216172 -9.2109079 1.797931 301.5 0 0 0 74.068817
1.146171 -9.3433695 1.7210954 252 0 0 0 72.702118
1.8147831 -9.1605291 1.706902 208 0 0 0 71.531593
8.690546 -9.1394224 1.971992 74 0 0 0 62.5182
-5.8765922 -8.958787 1.7831827 311 0 0 0 83.914734
-5.3556275 -8.7001915 1.7431645 352 0 0 0 83.461472
-4.7657614 -8.9231367 1.851611 210 0 0 0 82.487869
-4.275701 -8.764678 1.7861974 255 0 0 0 81.898079
-3.9628317 -8.9455366 1.791697 340 0 0 0 81.30809
-0.21782558 -8.7079859 1.8107557 329 0 0 0 75.046791
0.20831977 -8.6902971 1.806336 381 0 0 0 74.260727
4.3239555 -8.6114368 1.9939604 106 0 0 0 67.220131
4.5861773 -8.6008158 1.7766104 168 0 0 0 66.825912
6.2248793 -8.8549099 1.9673803 53 0 0 0 64.865967
6.7927003 -8.7192039 1.7340368 331 0 0 0 64.088432
7.3750019 -8.5635262 1.7715483 140 0 0 0 63.298328
9.4362469 -8.562521 1.675457 20 0 0 0 61.339798
9.9106741 -8.5581455 1.7203904 189 0 0 0 60.954609
0.81947511 -8.3855247 1.5441881 321 0 0 0 73.089317
4.4230366 -8.2958202 1.9459443 145 0 0 0 66.825912
4.9026432 -8.198967 1.9762384 249 0 0 0 66.041008
6.7668262 -8.2603798 1.806527 180.5 0 0 0 63.694206
7.097846 -8.2425156 1.9756274 206 0 0 0 63.298328
8.2410545 -8.2530298 1.826018 132 0 0 0 62.129478
-4.3372865 -7.665894 1.8332754 408 0 0 0 82.875412
-3.9465919 -7.8463287 1.8277068 396 0 0 0 82.089645
-0.00361295 -7.8703032 1.8310134 112 0 0 0 74.649612
0.93869871 -7.6683755 1.6082644 581 0 0 0 72.702118
2.2702596 -7.515883 1.6324596 111 0 0 0 69.958176
4.761332 -7.5386314 1.8466164 176 0 0 0 65.659286
5.1552415 -7.7341542 1.6946774 269 0 0 0 65.262817
7.2541447 -7.8231001 1.9381092 129 0 0 0 62.713211
9.1921024 -7.5535541 1.5660894 84 0 0 0 60.566071
10.330373 -7.6693225 1.68985 208 0 0 0 59.775299
-4.221559 -7.2499189 1.9526281 374.5 0 0 0 83.069183
-3.99828 -7.4894381 1.9753735 465 0 0 0 82.487869
-2.085526 -7.1961894 1.9300454 259.5 0 0 0 79.152321
-1.7999808 -7.1866021 1.9085135 58 0 0 0 78.568771
0.1715354 -7.1679568 1.8465295 205 0 0 0 74.260727
2.4006493 -7.2975492 1.5978431 29 0 0 0 69.572403
5.1704173 -7.3598123 1.8619957 50 0 0 0 64.865967
5.7447734 -7.3780494 1.9338844 215 0 0 0 64.088432
7.4802122 -7.4931817 1.9230825 221 0 0 0 62.129478
7.7535019 -7.2752662 1.8435806 227.33333 0 0 0 61.599621
8.1561928 -7.2232633 1.7074621 180 0 0 0 61.147202
8.813488 -7.061924 1.7680049 144.5 0 0 0 60.367378
10.599354 -7.0890021 1.9901203 151 0 0 0 59.001862
11.011072 -7.3637133 1.7379721 205 0 0 0 59.001862
12.886638 -7.3034563 1.9378457 123 0 0 0 57.826488
-2.3202157 -6.7529259 1.9282331 150 0 0 0 79.937988
-0.0042552003 -6.8745399 1.771902 322 0 0 0 74.649612
1.9152403 -6.9559479 1.5030264 340 0 0 0 70.345085
3.0294983 -6.8608317 1.5599351 339 0 0 0 68.00251
8.2193565 -6.9252648 1.950753 202.5 0 0 0 60.760338
8.6757679 -6.609942 1.9785058 176 0 0 0 59.971992
9.1384926 -6.7866826 1.7810786 77 0 0 0 59.775299
10.508186 -6.6607151 1.9422756 177 0 0 0 58.599678
11.542108 -6.9231138 1.764537 61 0 0 0 58.209488
12.730868 -6.8092275 1.7134053 16 0 0 0 57.432819
13.406336 -6.7515697 1.7786405 80.5 0 0 0 57.037682
4.6022296 -6.2221804 1.9861479 89 0 0 0 64.474197
13.614114 -6.4431639 1.5980192 54 0 0 0 56.649151
14.785301 -6.1264796 1.6949214 90 0 0 0 55.87154
9.2712984 -5.8787527 1.9900779 249 0 0 0 58.599678
12.660575 -5.6137414 1.8128676 23 0 0 0 56.259552
13.355353 -5.7265749 1.721957 95.5 0 0 0 56.065544
15.216668 -5.871037 1.7262043 153 0 0 0 55.481541
15.294845 -5.4732437 1.7190706 133 0 0 0 55.089642
-22.765621 -4.5271111 1.9059768 279 0 0 0 96.556328
19.093397 -4.7779422 1.5949249 41 0 0 0 53.531727
28.053179 -4.8592997 1.5801134 31 0 0 0 52.354141
17.820946 -4.4602642 1.9377483 125 0 0 0 53.531727
18.40797 -4.1289053 1.9885956 83 0 0 0 53.130112
19.006971 -4.2627769 1.5784941 83 0 0 0 53.130112
27.903755 -4.1298351 1.5655738 15 0 0 0 51.960999
19.242289 -3.8211505 1.5892144 41 0 0 0 52.743439
28.006174 -3.4438791 1.5658727 16 0 0 0 51.57478
35.240948 -3.4559267 1.9555148 20 0 0 0 51.179859
33.366779 -2.4461076 1.8494716 43 0 0 0 50.786991
-28.012484 4.8030744 1.7096226 224 0 0 0 2.3450699
-9.2773895 7.7061834 1.7808504 9.75 0 0 0 10.731245
-8.512558 7.6133881 1.6876824 22 0 0 0 11.3125
-8.1624832 7.6659927 1.655901 29.5 0 0 0 11.70125
-7.822403 7.7136822 1.7594593 30 0 0 0 12.0932
-7.4614296 7.7248101 1.8527386 38 0 0 0 12.48911
-6.8581862 7.6383443 1.7718319 135.5 0 0 0 13.068794
-6.3100109 7.7555604 1.7262652 43 0 0 0 13.851305
-5.8576641 7.7636194 1.6796772 38 0 0 0 14.44304
-5.300817 7.7354608 1.7642357 151 0 0 0 15.173217
-4.6771975 7.8614006 1.805702 72.5 0 0 0 16.19643
-4.1891308 7.8939033 1.7645726 67.25 0 0 0 16.975529
-3.7208462 7.923985 1.7287581 68 0 0 0 17.759377
-3.2776029 7.9708776 1.7022537 74.25 0 0 0 18.543921
-2.8396382 7.9940071 1.7281799 90.25 0 0 0 19.32362
-2.204654 7.9590774 1.7727467 291.39999 0 0 0 20.460629
51.158192 7.6277461 1.5743644 30 0 0 0 47.26685
-42.559669 8.3849039 1.537418 54 0 0 0 2.7308099
-2.6543787 8.0333357 1.8158261 86 0 0 0 19.67864
-2.0898266 8.0011311 1.5319328 96 0 0 0 20.69301
-1.785304 8.033143 1.7257651 64.666664 0 0 0 21.277704
-1.2865069 8.1129818 1.722544 69.111115 0 0 0 22.247719
-0.78638226 8.1874752 1.7237892 67.5 0 0 0 23.228424
-0.25738934 8.2792749 1.735227 38.625 0 0 0 24.25712
0.23004496 8.3801851 1.7552131 35.666668 0 0 0 25.1831
0.64959097 8.4455824 1.7724382 306.33334 0 0 0 25.965345
1.7662051 8.6955833 1.8538558 15 0 0 0 27.91489
2.2845542 8.8018045 1.8235072 27.333334 0 0 0 28.765228
2.7594857 8.9423866 1.8361474 10.25 0 0 0 29.472961
3.2755642 9.0769396 1.7236955 18.799999 0 0 0 30.222584
3.7565901 9.2477541 1.7076769 27.5 0 0 0 30.84701
4.1566787 9.3348932 1.7042938 8.666667 0 0 0 31.365379
4.68327 9.4505329 1.6699489 6 0 0 0 32.022949
5.2139673 9.6026602 1.7278001 15 0 0 0 32.601952
5.8010273 9.8016138 1.657088 169 0 0 0 33.191189
6.225544 9.9477978 1.7048999 18 0 0 0 33.587807
6.6629992 10.082438 1.7547472 17.5 0 0 0 33.968769
8.3945255 11.420084 1.6989098 237 0 0 0 34.752441
8.8966627 11.495371 1.5615139 213 0 0 0 35.14439
9.3632345 11.499861 1.5913038 138 0 0 0 35.542042
9.761076 11.40324 1.7940071 250.5 0 0 0 35.929459
10.214925 11.352654 1.6356046 230 0 0 0 36.32478
11.354553 11.429691 1.7213353 201 0 0 0 37.103539
12.791254 11.376459 1.8240638 211.5 0 0 0 38.08345
14.479008 11.361111 1.7313325 147.5 0 0 0 39.067207
16.053398 11.363997 1.606362 117 0 0 0 39.8522
18.872015 11.363931 1.7910681 112 0 0 0 41.017288
29.37318 11.371675 1.750356 41 0 0 0 43.753078
31.195827 11.202348 1.8391138 14 0 0 0 44.146061
34.145542 11.320354 1.9919022 12 0 0 0 44.542721
8.0414562 11.524921 1.686056 139.5 0 0 0 34.367001
8.9414549 11.555182 1.9291749 5 0 0 0 35.14439
10.885723 11.512356 1.6944596 7 0 0 0 36.716473
15.445819 11.515697 1.5753695 111 0 0 0 39.459831
17.381731 11.670552 1.7063246 4 0 0 0 40.24157
20.310108 11.556854 1.8964198 34 0 0 0 41.411129
21.615465 11.603784 1.9878767 25 0 0 0 41.805527
24.377199 11.573929 1.507652 22 0 0 0 42.578953
26.037125 11.58471 1.5889595 23 0 0 0 42.98106
27.670809 11.503806 1.6679866 39 0 0 0 43.36488
12.543509 12.015116 1.851786 6 0 0 0 37.505718
-60.602348 -40.479481 2.3459189 10 0 0 0 90.316498
-15.302753 -39.663605 2.4332926 27 0 0 0 80.519646
-9.7876949 -39.061626 2.3042846 9 0 0 0 78.568771
-8.7639227 -39.012417 2.2876129 7 0 0 0 78.17997
-7.7354589 -38.871021 2.2671242 7 0 0 0 77.783768
-6.7149935 -38.678234 2.2451971 26 0 0 0 77.393349
-5.6919966 -38.34639 2.2168365 19 0 0 0 77.00975
-3.754679 -38.079514 2.1869075 27 0 0 0 76.222946
-2.8069282 -37.993778 2.1766322 33 0 0 0 75.828568
2.6201952 -35.596664 2.0356812 86 0 0 0 73.482117
3.4940908 -35.534298 2.0353031 42 0 0 0 73.089317
4.3475413 -35.296871 2.0262358 58 0 0 0 72.702118
5.2081752 -35.151608 2.0235114 58 0 0 0 72.312149
6.9351139 -34.897148 2.0236163 26 0 0 0 71.531593
7.8258233 -34.878784 2.0316753 48 0 0 0 71.136642
8.7120285 -34.80661 2.0379241 37 0 0 0 70.746811
10.494882 -34.619244 2.0517526 69 0 0 0 69.958176
11.386579 -34.488304 2.0584695 66 0 0 0 69.572403
12.268048 -34.306149 2.0634606 44 0 0 0 69.172493
14.079952 -34.008766 2.081521 8 0 0 0 68.396393
16.965673 -33.718475 2.1292629 86 0 0 0 67.220131
17.939962 -33.575809 2.1456208 35 0 0 0 66.825912
20.050741 -33.463146 2.1947775 21 0 0 0 66.041008
21.029804 -33.219341 2.2101839 14 0 0 0 65.659286
22.033857 -32.984806 2.2280109 14 0 0 0 65.262817
23.157457 -32.888927 2.2571719 38 0 0 0 64.865967
24.186501 -32.618759 2.2767732 53 0 0 0 64.474197
25.383888 -32.532524 2.3114028 8 0 0 0 64.088432
-14.380273 -16.676971 2.3598714 39 0 0 0 86.005669
-13.508947 -16.466978 2.2838645 95 0 0 0 85.618896
-23.897432 -13.541049 2.2605219 45 0 0 0 91.488129
-23.902235 -12.779049 2.2303493 7 0 0 0 91.871353
-24.597414 -12.383924 2.2647867 4 0 0 0 92.260002
-2.2942917 -11.533618 2.4343657 94 0 0 0 77.783768
-10.378992 -11.461296 2.4297421 127 0 0 0 86.39669
-9.6257601 -11.168692 2.318614 78 0 0 0 86.005669
-12.406265 -10.711179 2.1670554 46 0 0 0 88.355354
-10.629144 -10.638657 2.3637919 155 0 0 0 87.188599
-10.098123 -10.615944 2.304003 144 0 0 0 86.797379
-8.8577147 -10.802767 2.1987202 153 0 0 0 85.618896
-8.3130608 -10.661585 2.4634104 84 0 0 0 85.215698
-4.2694345 -10.556498 2.1730578 256.33334 0 0 0 80.781334
-3.673388 -10.685003 2.2017741 243 0 0 0 79.937988
-11.990973 -10.352648 2.4875698 71 0 0 0 88.355354
-4.0062385 -10.391495 2.308367 250 0 0 0 80.519646
-3.7456381 -10.473333 2.0320115 177 0 0 0 80.135101
1.0061562 -10.268398 2.1370335 134 0 0 0 73.089317
-11.916947 -9.7891283 2.0408409 11 0 0 0 88.747856
-6.1365318 -9.6990042 2.3785286 275 0 0 0 83.658607
0.47328624 -9.6923609 2.48754 191 0 0 0 73.876915
1.7742488 -9.5621748 2.0155025 330 0 0 0 71.727898
2.1483479 -9.5993166 2.0376437 214 0 0 0 71.136642
7.5028367 -9.6275444 2.2132959 60 0 0 0 64.088432
-6.6513557 -9.2106628 2.0757067 348 0 0 0 84.631302
-6.3135939 -9.4573822 2.3568673 331 0 0 0 84.042793
-4.5615463 -9.0728941 2.3563681 384 0 0 0 82.089645
-4.1801867 -9.2328863 2.2704463 228.66667 0 0 0 81.440895
-2.2036536 -9.2706127 2.2093463 179.5 0 0 0 78.374367
-1.1166495 -9.0472355 2.1166749 212 0 0 0 76.622086
-0.78646958 -9.1265564 2.1267157 177 0 0 0 76.025757
-0.22560151 -9.0996723 2.335989 213 0 0 0 75.052567
0.21943602 -9.0655575 2.1045635 256 0 0 0 74.260727
1.2741196 -9.4035053 2.1999049 227.5 0 0 0 72.507133
1.720618 -9.2794304 2.1875763 203.5 0 0 0 71.727898
2.2853785 -9.1553679 2.1869085 226 0 0 0 70.742844
2.7247887 -9.0045576 2.1794527 257 0 0 0 69.958176
3.2755909 -9.1770945 2.1374569 226.5 0 0 0 69.172493
3.5783966 -9.295187 2.3046217 244 0 0 0 68.785629
5.101284 -9.023838 2.1417789 39 0 0 0 66.439529
6.0891047 -9.1293077 2.2643301 35 0 0 0 65.262817
6.9999275 -9.452631 2.4238276 31 0 0 0 64.474197
-4.2530551 -8.9985209 2.0667317 276 0 0 0 81.706512
-3.7211273 -8.9930801 2.2593932 59 0 0 0 80.91217
-1.5056937 -8.6767521 2.2621443 217 0 0 0 77.393349
-1.0622332 -8.6043043 2.2271626 80 0 0 0 76.622086
-0.64404917 -8.7076817 2.2424579 218 0 0 0 75.828568
-0.37959749 -8.7826939 2.2031598 292.5 0 0 0 75.341797
0.42948085 -8.81674 2.0492816 264 0 0 0 73.876915
0.73660421 -8.6045914 2.005444 226.5 0 0 0 73.285721
1.4907439 -8.6225843 2.2452292 203 0 0 0 71.924202
2.914521 -8.8439379 2.1573019 253 0 0 0 69.572403
3.6892505 -8.9301052 2.0001161 249 0 0 0 68.396393
6.6007595 -8.9154978 2.0150769 242 0 0 0 64.474197
7.3874588 -8.5775537 2.333096 131 0 0 0 63.298328
-5.7116871 -8.1194391 2.1847804 156.5 0 0 0 84.435478
-5.1829844 -8.1955013 2.2517595 209 0 0 0 83.658607
-1.3258257 -8.2303963 2.3499894 185.5 0 0 0 77.201553
-0.83423394 -8.4552641 2.2889938 143 0 0 0 76.222946
-0.20547508 -8.258853 2.3280046 32 0 0 0 75.052567
0.82504046 -8.423171 2.1732664 301 0 0 0 73.089317
1.8075125 -8.0815544 2.2291453 338.5 0 0 0 71.139206
2.380816 -8.2399321 2.4133761 259.5 0 0 0 70.151627
2.8201964 -8.2208767 2.3347545 270 0 0 0 69.372452
3.2907004 -8.2481661 2.2752066 227.25 0 0 0 68.591011
3.6800642 -8.1841288 2.2425113 263.75 0 0 0 67.905853
4.2063513 -8.1201591 2.1177788 256 0 0 0 67.023026
4.7003641 -8.3136549 2.2096009 90 0 0 0 66.439529
5.1785526 -8.1928864 2.3581808 159.5 0 0 0 65.659286
7.6122417 -8.2085171 2.3073592 107.5 0 0 0 62.713211
-5.7812986 -7.8050365 2.373991 256.5 0 0 0 84.826355
-5.1783605 -7.760376 2.3965151 248 0 0 0 84.042793
-4.9043069 -7.7549815 2.3574874 455 0 0 0 83.658607
0.5635221 -7.6833253 2.3615341 33 0 0 0 73.482117
1.7428802 -7.788938 2.2478447 191 0 0 0 71.136642
3.7297542 -7.905118 2.2403262 260 0 0 0 67.615906
4.6781807 -7.8215003 2.3335433 46 0 0 0 66.041008
5.1132441 -7.6678305 2.3589571 216 0 0 0 65.262817
6.7206106 -7.8052869 2.2523789 156.5 0 0 0 63.301212
7.8716035 -7.8838286 2.2957568 162 0 0 0 62.129478
8.0033436 -7.631639 2.2788198 250 0 0 0 61.729527
10.965951 -7.7297549 2.092345 184 0 0 0 59.3848
16.827564 -7.9571013 2.4242291 81 0 0 0 56.649151
-4.1230278 -7.0827208 2.1091571 470.5 0 0 0 83.069183
-0.8657552 -7.0136304 2.1699774 57 0 0 0 76.622086
-0.003599182 -7.3870335 2.4485712 40 0 0 0 74.649612
0.26763356 -7.3257999 2.3381314 137.5 0 0 0 74.068817
0.73275834 -7.4783678 2.303973 41 0 0 0 73.089317
3.3750408 -7.1566224 2.2276134 143 0 0 0 67.615906
3.6346049 -7.2405481 2.1791954 254.5 0 0 0 67.220131
6.2837162 -7.1187372 2.3118148 144 0 0 0 63.103271
8.3240194 -7.3703775 2.2905993 253 0 0 0 61.147202
-4.1291275 -6.8981938 2.2689874 446 0 0 0 83.264336
-1.0248071 -6.9061265 2.144347 227 0 0 0 77.00975
0.33452731 -6.8810225 2.3691411 80 0 0 0 73.876915
3.7636688 -6.9224153 2.1536074 267.66666 0 0 0 66.697121
4.2470264 -6.9085221 2.3814144 86 0 0 0 65.850143
5.8996038 -6.5223317 2.4698954 117 0 0 0 62.908218
8.1339655 -6.686202 2.1706872 165 0 0 0 60.566071
9.549118 -6.7334609 2.1163189 169 0 0 0 59.3848
10.217243 -6.8340478 2.2241647 156 0 0 0 59.001862
11.031958 -6.6178374 2.006773 182 0 0 0 58.209488
12.641132 -6.7599282 2.2311792 44 0 0 0 57.432819
13.520912 -6.8076897 2.353683 14 0 0 0 57.037682
-0.47995329 -6.4975567 2.4823358 30 0 0 0 75.828568
4.7979288 -6.1641402 2.0041625 121 0 0 0 64.088432
5.2358823 -6.0845542 2.2576306 188 0 0 0 63.298328
8.2748108 -6.3063412 2.1450663 310 0 0 0 59.971992
8.6794548 -6.121912 2.1885617 144 0 0 0 59.3848
9.0280571 -6.0407314 2.2372127 220 0 0 0 59.001862
9.5144749 -6.0324378 2.3185825 259 0 0 0 58.599678
11.409183 -6.4679656 2.0447798 186 0 0 0 57.826488
13.855886 -6.1425304 2.3557835 80 0 0 0 56.259552
4.6063085 -5.7738276 2.3513727 97 0 0 0 63.891319
5.5383253 -5.5518799 2.2059822 94 0 0 0 62.129478
8.043252 -5.9733033 2.3120444 147 0 0 0 59.775299
8.9228764 -5.6562319 2.4353383 324 0 0 0 58.599678
9.6653414 -5.6928926 2.1245425 240.33333 0 0 0 58.081821
10.353135 -5.5392261 2.1251476 181 0 0 0 57.432819
14.669113 -5.6573896 2.2453537 122 0 0 0 55.481541
18.261505 -5.7807398 2.019908 82 0 0 0 54.501438
5.1086946 -5.1228867 2.394907 45 0 0 0 62.129478
5.7549706 -5.2277184 2.2795668 226 0 0 0 61.339798
6.0809016 -5.2572145 2.2599692 198 0 0 0 60.954609
10.517948 -5.2990394 2.4211946 127 0 0 0 57.037682
14.601676 -5.2229252 2.0244536 154 0 0 0 55.089642
15.309106 -5.0546293 2.1028407 92 0 0 0 54.701698
16.741129 -5.0737505 2.2781348 147 0 0 0 54.301178
18.652884 -5.1584415 2.0397203 68 0 0 0 53.915833
5.7662449 -4.9844885 2.3323028 159 0 0 0 60.954609
13.126556 -4.6965003 2.1690946 30 0 0 0 55.089642
17.795309 -4.9185295 2.4019673 157 0 0 0 53.915833
17.418459 -4.356688 2.3366807 157 0 0 0 53.531727
25.266945 -4.3730679 2.0656672 29 0 0 0 52.354141
28.005251 -4.1403413 2.2764223 30 0 0 0 51.960999
17.102482 -3.833679 2.2815721 124 0 0 0 53.130112
18.774532 -3.7286882 2.0168793 102 0 0 0 52.743439
30.86256 -3.7898901 2.4964919 30 0 0 0 51.57478
17.225975 -3.4187741 2.285851 88 0 0 0 52.743439
17.320858 -2.996901 2.2877946 74 0 0 0 52.354141
37.812653 -1.8390456 2.0878632 24 0 0 0 50.401791
37.886848 -0.91024667 2.0899839 21 0 0 0 50.0042
-28.009214 4.7964592 2.4143524 201 0 0 0 2.3450699
66.651878 4.959374 2.0220635 10 0 0 0 48.441807
-26.946838 5.2956634 2.335705 23 0 0 0 2.7308099
66.605042 6.6046534 2.0254092 31 0 0 0 48.056221
-9.063056 7.7193251 2.4887996 12 0 0 0 10.93111
-8.6825714 7.6377449 2.2288897 13.666667 0 0 0 11.18537
-8.1861172 7.6891088 2.2117772 19.5 0 0 0 11.70125
-7.8098211 7.7017002 2.1608043 30.5 0 0 0 12.0932
-7.4468241 7.7089963 2.37325 26 0 0 0 12.48911
-6.8502216 7.6289043 2.2714748 98 0 0 0 13.068794
-6.3104286 7.755722 2.2156091 33.25 0 0 0 13.851305
-5.8556986 7.7607679 2.154911 33.5 0 0 0 14.44304
-5.2722507 7.74295 2.3059442 140.66667 0 0 0 15.222096
-4.6742039 7.8548422 2.2503574 57.5 0 0 0 16.19643
-4.1868901 7.88833 2.1992869 60 0 0 0 16.975531
-3.7168818 7.9145737 2.2616522 55.666668 0 0 0 17.759377
-3.2788928 7.9736362 2.2301047 63.333332 0 0 0 18.543921
-2.2155924 7.9485679 2.2025907 231.66667 0 0 0 20.434809
-2.7383301 8.0214205 2.2973135 73.166664 0 0 0 19.520853
-2.0972202 8.0333824 2.3529828 46 0 0 0 20.69301
-1.7859223 8.0381546 2.231936 31 0 0 0 21.277704
-1.2439173 8.1037807 2.2018762 30 0 0 0 22.325722
-0.78527451 8.1814442 2.2271552 27.5 0 0 0 23.228424
-0.28258651 8.2962217 2.2494445 25.833334 0 0 0 24.208422
0.23178466 8.4092255 2.2785187 26.5 0 0 0 25.1831
0.65132648 8.4608183 2.297513 271 0 0 0 25.965343
0.97877508 8.5596743 2.2260725 30.333334 0 0 0 26.54442
1.2887856 8.618124 2.2074437 19.200001 0 0 0 27.09972
1.767713 8.7051697 2.1825209 17.5 0 0 0 27.91489
2.2567611 8.8428564 2.2412939 33.25 0 0 0 28.701164
2.6135743 8.8624096 2.1537495 4 0 0 0 29.27787
-36.646473 9.1010389 2.2676604 22 0 0 0 3.5176301
2.7993295 9.0663052 2.4439578 40 0 0 0 29.472961
3.3612032 9.123188 2.1837318 9 0 0 0 30.327026
3.7571511 9.2471561 2.200007 26.5 0 0 0 30.84701
4.165256 9.3522654 2.2133453 14 0 0 0 31.365379
-35.233391 9.671423 2.1966763 6 0 0 0 3.9031
-32.814461 9.8761377 2.0634389 92 0 0 0 4.2968302
4.4351096 9.5321722 2.4425776 31 0 0 0 31.628321
5.3891377 9.6399059 2.1556544 26 0 0 0 32.797409
5.7979388 9.7928867 2.218802 6 0 0 0 33.191189
6.6525521 10.06419 2.1999247 14 0 0 0 33.968769
-32.938038 10.800232 2.0881817 124 0 0 0 4.6824498
8.3868074 11.408959 2.2226732 202 0 0 0 34.752441
9.755765 11.39648 2.3496091 272 0 0 0 35.929459
10.208733 11.347246 2.1999195 217 0 0 0 36.32478
10.830015 11.454389 2.464951 5 0 0 0 36.716473
11.36387 11.441354 2.120038 182 0 0 0 37.103539
12.787139 11.375346 2.2451878 180 0 0 0 38.08345
14.468419 11.35457 2.4069493 126 0 0 0 39.067207
16.053476 11.362511 2.0846891 161 0 0 0 39.8522
18.88212 11.368448 2.3279712 124 0 0 0 41.017288
22.240505 11.243183 2.0174637 62 0 0 0 42.189487
37.025578 11.271619 2.1393375 6 0 0 0 44.930641
-33.032917 11.7353 2.1126764 100 0 0 0 5.0685601
6.2593102 11.849866 2.4432421 15 0 0 0 32.40649
8.0474339 11.532674 2.2086387 6 0 0 0 34.367001
8.9169216 11.521857 2.2848787 5 0 0 0 35.14439
17.270386 11.594459 2.2015023 3 0 0 0 40.24157
20.292711 11.545399 2.4625375 31 0 0 0 41.411129
27.746897 11.539338 2.421422 35 0 0 0 43.36488
41.432911 11.506878 2.3718512 22 0 0 0 45.315239
12.559783 12.033112 2.2826574 14 0 0 0 37.505718
17.960772 14.808231 2.4646151 10 0 0 0 38.677128
5.2637248 16.18404 2.2576218 14 0 0 0 29.668051
6.2006907 16.288239 2.3087993 7 0 0 0 30.457581
-33.687164 16.85573 2.2729034 83 0 0 0 7.0244498
-33.822926 17.974031 2.3112898 60 0 0 0 7.41854
2.6420152 -35.800228 2.9406726 10 0 0 0 73.482117
9.6634893 -34.91748 2.9579723 47 0 0 0 70.345085
11.449656 -34.656975 2.9770637 43 0 0 0 69.572403
12.297897 -34.368904 2.9759769 20 0 0 0 69.172493
30.473362 -33.624313 2.533076 19 0 0 0 62.908218
31.822163 -33.425114 2.5738111 16 0 0 0 62.5182
41.202492 -32.149727 2.8983111 31 0 0 0 60.16869
-4.6339893 -31.250269 2.59934 11 0 0 0 77.00975
12.479109 -30.130541 2.6600986 17 0 0 0 68.396393
18.607647 -29.384645 2.8251922 16 0 0 0 65.659286
18.625757 -27.876284 2.7232437 5 0 0 0 65.262817
-11.46298 -16.28826 2.6279182 102 0 0 0 84.435478
-1.1850054 -16.066525 2.9251683 42 0 0 0 75.828568
-0.78774667 -16.030666 2.91399 142 0 0 0 75.438202
-1.5749876 -15.995506 2.9188378 116 0 0 0 76.222946
-1.8540534 -15.034826 2.7532446 145 0 0 0 76.622086
-2.5744953 -14.842539 2.7386663 141 0 0 0 77.393349
-23.917648 -14.338828 2.9725854 18 0 0 0 91.108994
-33.246601 -13.771188 2.9451129 16 0 0 0 93.435921
-23.146591 -13.115387 2.8368313 32 0 0 0 91.488129
-24.163181 -12.164972 2.8825626 16 0 0 0 92.260002
-4.1516023 -11.615921 2.8547561 56 0 0 0 80.135101
-11.871385 -11.31211 2.5741549 98 0 0 0 87.581917
-9.4002352 -11.463946 2.6980026 110 0 0 0 85.618896
-4.4000592 -11.419562 2.8325672 91 0 0 0 80.519646
-1.9496969 -11.244935 2.6423247 72 0 0 0 77.393349
-11.780992 -10.68692 2.6940348 22.5 0 0 0 87.968414
-10.8426 -10.851989 2.7900872 105 0 0 0 87.188599
-10.291052 -10.818476 2.7167466 182 0 0 0 86.797379
-9.7419233 -10.758019 2.641784 58 0 0 0 86.39669
-4.17623 -10.838504 2.9749844 221 0 0 0 80.519646
-3.8320332 -10.721393 2.9166636 72 0 0 0 80.135101
2.6656246 -10.659771 2.8101048 108 0 0 0 70.746811
-12.259863 -10.322978 2.7132707 30.5 0 0 0 88.551605
-8.2850113 -10.10443 2.7032783 234 0 0 0 85.618896
-0.0015683948 -10.319221 2.8997777 126 0 0 0 74.649612
0.36848599 -10.094191 2.8389564 215 0 0 0 74.068817
5.6642685 -10.011217 2.9364717 93 0 0 0 66.439529
-13.023796 -9.6676941 2.5452962 60 0 0 0 89.533104
0.80215114 -9.829093 2.690388 265.33334 0 0 0 73.351189
1.3246108 -9.7772045 2.6500916 226 0 0 0 72.507133
5.6897721 -9.5059748 2.5573437 46 0 0 0 66.041008
-12.27593 -9.1127329 2.779479 12 0 0 0 89.533104
-11.929445 -9.3183117 2.7526069 116 0 0 0 89.137665
-6.2140818 -9.3118362 2.5945928 171 0 0 0 84.042793
-4.6963582 -9.341053 2.6814761 231 0 0 0 82.089645
-4.4498992 -9.4193659 2.6718554 209 0 0 0 81.706512
-3.651273 -9.4755373 2.8568699 122 0 0 0 80.519646
1.7910045 -9.0303488 2.5886612 136 0 0 0 71.531593
6.1024675 -9.1455584 2.5375707 69 0 0 0 65.262817
6.8315392 -9.2223387 2.646714 170 0 0 0 64.474197
-12.654852 -8.9206228 2.8140984 27 0 0 0 89.93261
-6.6157832 -8.9320183 2.5764027 177 0 0 0 84.827126
-5.782053 -8.6645908 2.9305532 97 0 0 0 84.042793
-2.8778896 -8.7243376 2.8129249 183 0 0 0 79.740875
-1.7558222 -8.8340445 2.8682079 176 0 0 0 77.783768
-1.3171631 -8.8785934 2.9696839 135 0 0 0 77.00975
-0.2179033 -8.8201008 2.8086963 172 0 0 0 75.052567
1.1895971 -8.7743263 2.7092307 315.5 0 0 0 72.507133
1.5337979 -8.8687258 2.5317209 150 0 0 0 71.924202
2.7494617 -8.6937904 2.787385 218 0 0 0 69.765289
3.0674601 -8.5883074 2.7872856 261 0 0 0 69.172493
6.936501 -8.8993139 2.6023281 118 0 0 0 64.088432
-0.41690695 -8.4737959 2.5984039 193 0 0 0 75.438202
0.19916093 -8.1949339 2.5111217 98 0 0 0 74.260727
1.4542245 -8.403018 2.6099589 232 0 0 0 71.924202
1.6652569 -8.3926964 2.6183386 171 0 0 0 71.531593
2.1438675 -8.1566257 2.5809646 223 0 0 0 70.545944
2.7962909 -8.4853048 2.9522693 134 0 0 0 69.572403
3.2636557 -8.1754932 2.5820124 147.5 0 0 0 68.591011
4.0724578 -8.1076431 2.9963787 111 0 0 0 67.220131
6.9223175 -8.3078957 2.6717653 118 0 0 0 63.562244
8.1127968 -8.3233871 2.6784124 141 0 0 0 62.323837
8.746233 -8.131134 2.7502933 176 0 0 0 61.53466
-6.1702437 -7.5316663 2.9806049 239 0 0 0 85.618896
-5.6293616 -7.6008129 2.6639872 217 0 0 0 84.827126
-5.3172994 -7.5603304 2.6039975 249 0 0 0 84.435478
-4.7727261 -7.5469656 2.5166769 142 0 0 0 83.658607
-1.1169599 -7.5411329 2.7134404 201 0 0 0 77.00975
0.96348441 -7.8525653 2.6193712 165 0 0 0 72.702118
1.4947821 -7.5322833 2.7309015 118 0 0 0 71.531593
1.7112433 -7.6514544 2.5959952 224 0 0 0 71.138351
2.2730629 -7.8520546 2.9046202 222 0 0 0 70.151627
2.8125558 -7.8778081 2.86731 168.5 0 0 0 69.172493
3.2820973 -7.8318796 2.722734 198.39999 0 0 0 68.316689
5.2296205 -7.8382249 2.8765581 193 0 0 0 65.262817
5.5574985 -7.9018159 2.9480572 82 0 0 0 64.865967
6.419805 -7.8345351 2.839606 116 0 0 0 63.694206
7.4748545 -7.8610692 2.7683697 190 0 0 0 62.5182
7.5360937 -7.5459151 2.7220335 86 0 0 0 62.129478
8.7279081 -7.5362968 2.6563454 193 0 0 0 60.954609
-5.790174 -7.4311857 2.7695587 221.5 0 0 0 85.215698
-5.309504 -7.2952571 2.8381844 274.66666 0 0 0 84.696571
1.2939425 -7.4758945 2.6986685 227 0 0 0 71.924202
1.7321678 -7.3093491 2.7634809 215 0 0 0 70.941727
2.740916 -7.2941895 2.8961785 202.33333 0 0 0 68.914589
5.254333 -7.2842131 2.6322217 181 0 0 0 64.670082
7.7762442 -7.4129019 2.7416337 149 0 0 0 61.729527
8.6716433 -7.2435017 2.7872021 246.33333 0 0 0 60.695583
9.0970278 -7.1060038 2.798825 169 0 0 0 60.16869
-0.0017641598 -6.5896864 2.5099876 61 0 0 0 74.649612
3.9385293 -6.5894322 2.5400226 82 0 0 0 66.041008
5.4038434 -6.9384913 2.904072 61 0 0 0 64.088432
6.3474498 -6.6790586 2.585803 83 0 0 0 62.5182
6.9199443 -6.5966659 2.9163733 92 0 0 0 61.729527
9.0540657 -6.7213984 2.8745234 125 0 0 0 59.775299
9.8207417 -6.7424269 2.7418554 150 0 0 0 59.193329
14.798846 -6.7792239 2.7284889 49 0 0 0 56.454353
8.8318672 -6.2266417 2.7560287 278 0 0 0 59.3848
9.2567511 -6.1908388 2.8388274 197 0 0 0 59.001862
9.699789 -6.1471276 2.9259827 106 0 0 0 58.599678
11.455003 -6.4938359 2.7031012 115 0 0 0 57.826488
12.684902 -6.1940994 2.5470333 91.5 0 0 0 56.843414
14.989587 -6.2080278 2.5187576 106 0 0 0 55.87154
4.1586738 -5.718678 2.571624 62.666668 0 0 0 64.60479
4.5071321 -5.5042253 2.5301735 58 0 0 0 63.694206
5.3167219 -5.8802214 2.6208866 87 0 0 0 62.908218
9.8227787 -5.7300491 2.7589374 81.5 0 0 0 58.01799
12.625265 -5.5982533 2.8320913 140 0 0 0 56.259552
13.999995 -5.7990823 2.7303557 127 0 0 0 55.87154
15.142008 -5.8395233 2.9211013 70 0 0 0 55.481541
16.898998 -5.578639 2.7579923 57 0 0 0 54.701698
4.2058868 -5.4024324 2.604075 92 0 0 0 64.088432
4.6941409 -5.4535432 2.5586669 182 0 0 0 63.298328
5.880549 -5.3427405 2.6904659 101.66666 0 0 0 61.341309
15.0142 -5.3703871 2.8704746 74 0 0 0 55.089642
17.652962 -5.3497548 2.8569474 117 0 0 0 54.301178
-26.849094 -4.6555462 2.8922725 189 0 0 0 96.949844
4.7327247 -4.9824777 2.6134677 128 0 0 0 62.5182
5.3299975 -4.6072159 2.6783721 213 0 0 0 60.954609
18.793905 -4.7003241 2.997956 122 0 0 0 53.531727
18.827906 -4.219995 2.9857695 73 0 0 0 53.130112
24.685011 -4.2728672 2.6279163 19 0 0 0 52.354141
18.855522 -3.7418859 2.9745781 26 0 0 0 52.743439
24.911888 -3.6839297 2.6412239 25 0 0 0 51.960999
33.853809 -3.3147249 2.7273524 15 0 0 0 51.179859
16.812798 -2.9094241 2.6444573 142 0 0 0 52.354141
19.126593 -2.8263502 2.5124207 88 0 0 0 51.960999
33.917545 -2.4812496 2.7266066 50 0 0 0 50.786991
34.053398 -1.6511161 2.7332678 9 0 0 0 50.401791
-26.812698 5.2682953 2.98563 43 0 0 0 2.7308099
-8.3781614 7.4906197 2.8984609 274 0 0 0 11.3125
-9.7532797 7.707262 2.7515423 10 0 0 0 10.337049
-9.3532753 7.5781927 2.8092074 10 0 0 0 10.53138
-8.9045696 7.580584 2.7296748 9 0 0 0 10.93111
-8.2619972 7.6310058 2.7168295 17.666666 0 0 0 11.571667
-7.7858768 7.6758895 2.6868207 27 0 0 0 12.0932
-7.4621234 7.7242937 2.7711685 32 0 0 0 12.48911
-6.8340435 7.6100116 2.7661836 102 0 0 0 13.068794
-6.2999239 7.7423329 2.7004025 32.75 0 0 0 13.851305
-5.8208261 7.7130375 2.7314329 144.66667 0 0 0 14.44304
-5.2592335 7.7234268 2.7593632 167.5 0 0 0 15.222095
-4.6689878 7.8460379 2.6970439 43 0 0 0 16.19643
-4.2338061 7.8235288 2.7370231 154.33333 0 0 0 16.844442
-3.7602487 7.8577056 2.809943 93.400002 0 0 0 17.642225
-3.274807 7.9647064 2.7570286 47.75 0 0 0 18.543921
-2.8111057 7.9117413 2.8934655 69.5 0 0 0 19.32616
-2.2751558 7.9082565 2.8174973 366.60001 0 0 0 20.304075
-1.8737689 7.9637346 2.9215479 473 0 0 0 21.078329
51.203766 7.6326632 2.8436611 43 0 0 0 47.26685
-42.584724 8.3883791 2.5983655 30 0 0 0 2.7308099
-2.6980927 8.0328178 2.6926942 48.400002 0 0 0 19.599407
-2.116024 8.108532 2.6836507 90 0 0 0 20.69301
-1.7060374 8.1554041 2.7117734 138.71428 0 0 0 21.471895
-1.2351967 8.1687613 2.775331 246.57143 0 0 0 22.359152
-0.79115272 8.2478476 2.7539711 189.16667 0 0 0 23.228424
-0.28364673 8.3413877 2.7743006 178.88889 0 0 0 24.208422
0.12853296 8.4309855 2.8016732 122.33334 0 0 0 24.98661
0.75617748 8.4539156 2.7165492 427 0 0 0 26.15605
0.3415156 8.5301552 2.7324414 34 0 0 0 25.379589
0.77250159 8.6020584 2.7643518 31.75 0 0 0 26.159529
1.350771 8.723341 2.7577255 26.799999 0 0 0 27.176342
1.7834177 8.7735491 2.7512162 140.5 0 0 0 27.914888
2.2486804 8.8959217 2.7727392 84.199997 0 0 0 28.662729
2.8022423 9.0751953 2.7991385 44.75 0 0 0 29.47296
3.2524068 9.117671 2.7903082 155.75 0 0 0 30.163834
3.6425686 9.2884884 2.6908233 36.5 0 0 0 30.652294
4.2157798 9.4611444 2.8342674 26.666666 0 0 0 31.365379
4.6716228 9.4219446 2.9629316 307 0 0 0 32.022949
-32.818367 9.8702002 2.9145265 87 0 0 0 4.2968302
4.4443312 9.5497084 2.706075 35 0 0 0 31.628321
4.7837429 9.6479063 2.6327643 32 0 0 0 32.022949
5.2670026 9.6990166 2.6971731 34.25 0 0 0 32.601952
5.8886356 9.9447613 2.8202612 19.5 0 0 0 33.191189
6.1943817 9.8944941 2.991539 210 0 0 0 33.587807
6.3265429 10.105247 2.7612948 16 0 0 0 33.587807
6.7452917 10.202501 2.6809185 6.5 0 0 0 33.968769
-32.966949 10.802565 2.9513526 99 0 0 0 4.6824498
6.770968 10.805846 2.6382265 8 0 0 0 33.587807
8.2552052 11.421013 2.7930849 109 0 0 0 34.623962
8.8850269 11.478191 2.8149567 83 0 0 0 35.14439
9.7540169 11.39271 2.7207701 222 0 0 0 35.929459
10.202994 11.338354 2.7654567 204 0 0 0 36.32478
11.344044 11.419003 2.7144334 185.5 0 0 0 37.103539
11.935188 11.434197 2.9902904 144 0 0 0 37.505718
12.76808 11.356838 2.6652679 166 0 0 0 38.08345
13.792583 11.383456 2.785697 4 0 0 0 38.677128
14.464747 11.350121 2.8618314 132 0 0 0 39.067207
15.394912 11.477334 2.9860201 95 0 0 0 39.459831
16.061161 11.37058 2.5703943 117 0 0 0 39.8522
18.895597 11.379465 2.872828 84 0 0 0 41.017288
22.191156 11.216729 2.6176493 42 0 0 0 42.189487
29.383533 11.379843 2.5362415 50 0 0 0 43.753078
31.211256 11.212282 2.6664574 17 0 0 0 44.146061
34.169907 11.333222 2.8903563 12 0 0 0 44.542721
50.447124 11.37072 2.8429272 19 0 0 0 46.101631
-33.046055 11.732754 2.9842429 78 0 0 0 5.0685601
6.2606349 11.850048 2.7735281 21 0 0 0 32.40649
8.0328588 11.510025 2.552397 6 0 0 0 34.367001
12.508173 11.982175 2.7025323 11 0 0 0 37.505718
17.134609 11.506359 2.6928644 6 0 0 0 40.24157
21.56576 11.575566 2.5785229 20 0 0 0 41.805527
25.965843 11.555135 2.9840465 7 0 0 0 42.98106
45.84647 11.525555 2.6028643 16 0 0 0 45.704792
6.9726572 14.906372 2.9939849 7 0 0 0 31.628321
12.80799 15.706585 2.6601877 10 0 0 0 35.542042
14.947101 15.787412 2.8465073 4 0 0 0 36.716473
-11.990461 -39.542873 3.3932643 20 0 0 0 79.345558
-9.8140488 -39.197029 3.3178484 18 0 0 0 78.568771
-8.7521734 -38.993298 3.281173 16 0 0 0 78.17997
-7.7326932 -38.894257 3.2554619 24 0 0 0 77.783768
-6.6733565 -38.480091 3.2059219 46 0 0 0 77.393349
-3.7717707 -38.325954 3.15938 25 0 0 0 76.222946
16.118105 -34.076447 3.06639 12 0 0 0 67.615906
17.101858 -33.972794 3.0921154 4 0 0 0 67.220131
24.801544 -33.434391 3.3695884 6 0 0 0 64.474197
22.779018 -32.339043 3.2051206 16 0 0 0 64.865967
25.272585 -32.37751 3.3234961 12 0 0 0 64.088432
-22.778841 -17.7813 3.0824044 12 0 0 0 89.137665
-2.4315081 -16.401783 3.4184618 97 0 0 0 77.00975
-1.8643974 -15.120254 3.1432381 120 0 0 0 76.622086
-2.911005 -14.655282 3.4496822 69 0 0 0 77.783768
-1.4608787 -14.832739 3.0754797 151 0 0 0 76.222946
-22.758495 -13.649221 3.4831166 33 0 0 0 91.108994
-21.977951 -13.926056 3.4163218 16 0 0 0 90.707603
5.3626599 -13.916511 3.0692854 146 0 0 0 68.785629
6.4459562 -13.641719 3.1031909 269 0 0 0 67.615906
-4.0057664 -13.221004 3.1927974 14 0 0 0 79.345558
-22.497889 -12.752776 3.3945308 15 0 0 0 91.488129
-23.066166 -12.336607 3.4324157 9 0 0 0 91.871353
-5.0104456 -12.110418 3.3528583 67 0 0 0 80.91217
-23.600845 -11.886739 3.4663892 14 0 0 0 92.260002
-9.15518 -11.740972 3.0755649 65 0 0 0 85.215698
-12.752259 -11.009018 3.474474 20 0 0 0 88.355354
-9.7618322 -11.3262 3.0884829 79 0 0 0 86.005669
-6.0118113 -11.260645 3.2668765 68 0 0 0 82.487869
-4.9067712 -11.082297 3.1031353 125 0 0 0 81.30809
-10.627001 -10.637924 3.2894831 89.5 0 0 0 87.188599
-10.337592 -10.867205 3.0977108 162 0 0 0 86.797379
-9.8602228 -10.88843 3.0346603 127 0 0 0 86.39669
-9.1053667 -10.568517 3.2249091 134 0 0 0 86.005669
-8.7292061 -10.918076 3.2318101 81 0 0 0 85.417297
-3.1826191 -10.502267 3.0843542 34 0 0 0 79.345558
-12.782387 -10.499059 3.0049796 20 0 0 0 88.747856
-9.6969776 -10.197571 3.2526548 74 0 0 0 86.797379
-9.3551216 -10.334446 3.222513 103 0 0 0 86.39669
-8.7185698 -10.119685 3.4171262 203 0 0 0 86.005669
-8.3259087 -10.157657 3.3605294 150 0 0 0 85.618896
-5.2511764 -10.131182 3.2072425 126 0 0 0 82.288757
-4.6899981 -10.255243 3.3075037 142 0 0 0 81.507301
-4.3389482 -10.486984 3.1893525 142 0 0 0 80.91217
-3.4046657 -10.31671 3.0539351 28 0 0 0 79.740875
-2.8596439 -10.343163 3.0166647 44 0 0 0 78.959084
1.0027108 -10.20825 3.3870444 187 0 0 0 73.089317
-10.30077 -9.8192806 3.2887912 110 0 0 0 87.581917
-9.0776672 -9.5465508 3.3703742 182 0 0 0 86.797379
-8.693903 -9.6043072 3.315048 114 0 0 0 86.39669
-5.5855079 -9.8717318 3.1879666 219 0 0 0 82.874039
-5.3401985 -9.7192211 3.3903549 127 0 0 0 82.680954
-4.7709293 -9.786871 3.1960692 113 0 0 0 81.898079
-2.7476046 -9.6317015 3.2294185 162 0 0 0 79.087914
-11.913985 -9.3060265 3.1209013 64 0 0 0 89.137665
-11.318057 -9.2969141 3.0249896 55 0 0 0 88.747856
-5.6157789 -9.3846025 3.3438325 132 0 0 0 83.264336
-5.136651 -9.0785398 3.4484532 66 0 0 0 82.874039
1.3862572 -9.3726835 3.1305132 219 0 0 0 72.312149
1.6435839 -9.4966516 3.1836574 140 0 0 0 71.924202
2.6722722 -9.2313566 3.173842 188 0 0 0 70.151627
-12.736352 -8.5177431 3.1618226 45 0 0 0 90.316498
-12.175054 -8.7342672 3.2164984 29.666666 0 0 0 89.799438
-3.7617788 -8.5039206 3.3048453 161 0 0 0 81.30809
-3.3359652 -8.6570063 3.0699098 215 0 0 0 80.519646
-2.8593607 -8.6631756 3.0189748 262 0 0 0 79.740875
-1.6245558 -8.7446823 3.1612639 54 0 0 0 77.588562
-0.63961321 -8.6938934 3.0979753 102 0 0 0 75.828568
1.1821911 -8.7192993 3.1253247 224 0 0 0 72.507133
2.5889103 -8.5444469 3.3876288 73 0 0 0 69.958176
3.8033619 -8.5890884 3.3315952 66 0 0 0 68.00251
4.2764568 -8.5042601 3.3752205 74 0 0 0 67.220131
6.9650917 -8.9354219 3.1722457 125 0 0 0 64.088432
9.4512682 -8.572382 3.2490423 184 0 0 0 61.339798
-13.108432 -8.3081551 3.2018144 62 0 0 0 90.707603
-12.684386 -8.0424881 3.4672384 18 0 0 0 90.707603
-12.009387 -8.0347862 3.337271 29 0 0 0 90.316498
-11.370359 -8.4436932 3.2722213 11 0 0 0 89.533104
-2.5662236 -8.4771633 3.1486325 51 0 0 0 79.345558
1.0211216 -8.2911186 3.1729877 176 0 0 0 72.702118
2.7618661 -8.3712196 3.1292264 142 0 0 0 69.572403
4.8051929 -8.0255728 3.3167558 170 0 0 0 66.041008
5.2502341 -8.298295 3.4799423 43 0 0 0 65.659286
5.5781026 -8.3613749 3.3146751 119 0 0 0 65.262817
6.9278369 -8.4491491 3.3289888 79 0 0 0 63.694206
7.2178545 -8.1685066 3.3211126 104 0 0 0 63.103271
2.5109212 -7.6144762 3.0453236 156 0 0 0 69.572403
5.3046904 -7.5403047 3.4946692 140 0 0 0 64.865967
7.4559579 -7.8382058 3.2956336 170 0 0 0 62.5182
7.8327632 -7.8389812 3.3748269 78 0 0 0 62.129478
8.0968828 -7.7174463 3.130856 109 0 0 0 61.729527
9.1619072 -7.5254769 3.3156054 232 0 0 0 60.566071
-5.8759995 -7.291574 3.1767194 115.33334 0 0 0 85.484497
-2.8810101 -7.4835925 3.0501251 54 0 0 0 80.519646
3.0551815 -7.389154 3.0366337 171 0 0 0 68.396393
4.7129388 -7.0635839 3.2216556 30 0 0 0 65.262817
7.0602074 -7.4259362 3.3768928 147 0 0 0 62.5182
5.3553433 -6.5347714 3.205152 115 0 0 0 63.694206
8.6499043 -6.5877066 3.0435367 274.5 0 0 0 59.971992
10.415377 -6.5992651 3.4452677 101 0 0 0 58.599678
12.989779 -6.9459276 3.0190554 132 0 0 0 57.432819
14.506258 -6.8614888 3.2848413 45 0 0 0 56.649151
-30.710014 -6.1049156 3.3190796 143 0 0 0 96.556328
6.4169722 -6.423914 3.3291178 31 0 0 0 62.129478
6.6326194 -6.0180254 3.1752896 51 0 0 0 61.339798
8.919795 -6.2883749 3.0542574 168 0 0 0 59.3848
9.0301294 -6.0396748 3.0402844 159 0 0 0 59.001862
11.882939 -6.3527336 3.0948596 36 0 0 0 57.432819
12.241151 -6.1621108 3.483422 45 0 0 0 57.037682
12.604813 -6.3447237 3.2390866 43 0 0 0 57.037682
13.251992 -6.2666392 3.3629475 54 0 0 0 56.649151
6.2396874 -5.9482155 3.0578954 150 0 0 0 61.729527
7.2329102 -5.6496334 3.477627 107 0 0 0 60.16869
8.9058914 -5.7995939 3.3674493 150 0 0 0 58.80077
9.7085094 -5.8235221 3.1662762 296 0 0 0 58.209488
12.448797 -5.8877058 3.4998155 54 0 0 0 56.649151
13.722498 -5.683095 3.2225041 61.5 0 0 0 55.87154
7.0663137 -5.246006 3.3362157 48 0 0 0 59.775299
12.480726 -5.1687632 3.4334476 116 0 0 0 55.87154
14.221348 -5.2846298 3.2921684 112 0 0 0 55.285591
16.332409 -5.3920836 3.0928328 54 0 0 0 54.701698
18.839108 -5.2067285 3.0246456 102 0 0 0 53.915833
13.73375 -4.5333581 3.317137 38 0 0 0 54.701698
16.384735 -4.7484274 3.2765756 95 0 0 0 54.108505
31.622049 -3.8836601 3.3313527 27 0 0 0 51.57478
18.612696 -3.220633 3.3913431 49 0 0 0 52.354141
24.892233 -3.0539374 3.2474649 17 0 0 0 51.57478
31.493549 -3.0844357 3.3089023 31 0 0 0 51.179859
-27.945368 4.083324 3.0815787 59 0 0 0 1.94885
-28.045748 4.8017197 3.1062992 165 0 0 0 2.3450699
-9.0459528 7.7026901 3.3568265 13 0 0 0 10.93111
-8.7480259 7.6305289 3.1345954 16.5 0 0 0 11.121805
-8.1585732 7.6602907 3.2999897 20.5 0 0 0 11.70125
-7.7765245 7.6659784 3.220572 19.5 0 0 0 12.0932
-7.2674408 7.641603 3.1534989 29.333334 0 0 0 12.618167
-6.8342738 7.6731472 3.3264949 26.333334 0 0 0 13.132966
-6.295485 7.7362342 3.1884618 23 0 0 0 13.851305
-5.8439922 7.7438049 3.3397737 35.5 0 0 0 14.44304
-5.2528648 7.7137337 3.2141812 121.33334 0 0 0 15.222095
-4.6876435 7.8325562 3.3000216 29.200001 0 0 0 16.158297
-4.1797433 7.8726983 3.28897 35.25 0 0 0 16.975529
-3.7072272 7.8912954 3.2179036 30.75 0 0 0 17.759377
-3.2725399 7.9558301 3.1756921 33.5 0 0 0 18.543921
-2.8005707 7.984726 3.1589696 39.333332 0 0 0 19.388802
-2.2751424 7.9090581 3.1397064 99 0 0 0 20.30571
-2.7359624 8.0149279 3.2301116 26 0 0 0 19.52424
-2.1130409 8.0932198 3.1909096 51 0 0 0 20.69301
-1.7090074 8.1677828 3.1842136 66.333336 0 0 0 21.471033
-1.2029073 8.2486963 3.1806579 77.5 0 0 0 22.44273
-0.79451847 8.2857246 3.1759868 48 0 0 0 23.228424
-0.28483519 8.3773232 3.1985607 26 0 0 0 24.208426
0.26784787 8.4596596 3.1600637 31 0 0 0 25.248596
0.68414134 8.4424067 3.0928192 252.33333 0 0 0 26.028913
-39.253757 8.72649 3.410167 22 0 0 0 3.1219599
0.84128684 8.5862808 3.2205327 25.666666 0 0 0 26.287827
1.3247681 8.7038136 3.2492752 23.5 0 0 0 27.138031
1.789341 8.8054066 3.315228 22.25 0 0 0 27.91489
2.2765636 8.9142008 3.2793901 24.5 0 0 0 28.701166
-36.81744 9.1356516 3.2201617 31 0 0 0 3.5176301
2.8078682 9.0899315 3.2735186 34.25 0 0 0 29.472961
3.2190585 9.1988068 3.3517699 31 0 0 0 30.06592
3.6818397 9.2729864 3.2250459 23.666666 0 0 0 30.717199
4.2210655 9.4701424 3.3498852 18.666666 0 0 0 31.365379
4.423099 9.5050364 3.212548 21 0 0 0 31.628321
4.7694907 9.6188669 3.288533 13 0 0 0 32.022949
5.2784252 9.7159729 3.2488246 22.5 0 0 0 32.601952
5.8932233 9.9497013 3.2522511 15 0 0 0 33.191189
6.3530388 10.143575 3.3640356 15 0 0 0 33.587807
6.6890631 10.116692 3.2570198 19.5 0 0 0 33.968769
8.3894806 11.411186 3.2704 139 0 0 0 34.752441
9.3628187 11.496302 3.0564156 10 0 0 0 35.542042
9.7475386 11.384605 3.2717896 190 0 0 0 35.929459
10.196253 11.329217 3.1389854 213 0 0 0 36.32478
11.362178 11.434674 3.3155124 153 0 0 0 37.103539
12.692534 11.38132 3.2214324 142 0 0 0 38.019009
14.453425 11.339697 3.314796 108 0 0 0 39.067207
15.3207 11.420629 3.4452767 5 0 0 0 39.459831
16.05052 11.361501 3.055851 106 0 0 0 39.8522
18.846956 11.348681 3.4104638 76 0 0 0 41.017288
22.213259 11.231156 3.2331059 57 0 0 0 42.189487
29.417727 11.391367 3.3060017 51 0 0 0 43.753078
31.084093 11.164975 3.4585977 21 0 0 0 44.146061
37.043926 11.282391 3.1052401 10 0 0 0 44.930641
41.383049 11.49884 3.4391303 11 0 0 0 45.315239
-2.0841677 11.518711 3.3065794 18 0 0 0 21.857691
8.0805111 11.578235 3.2612362 10 0 0 0 34.367001
8.9720221 11.591235 3.3823073 17 0 0 0 35.14439
9.4311199 11.581959 3.4448071 6 0 0 0 35.542042
11.197061 11.836991 3.351886 5 0 0 0 36.716473
12.214539 11.698844 3.4756885 6 0 0 0 37.505718
17.157207 11.519893 3.2082691 7 0 0 0 40.24157
18.374361 11.689813 3.3775747 4 0 0 0 40.630688
20.244539 11.521146 3.030395 50 0 0 0 41.411129
21.457321 11.520723 3.165457 12 0 0 0 41.805527
27.737797 11.533879 3.1509156 22 0 0 0 43.36488
-33.632221 13.832434 3.0960679 6 0 0 0 5.8511901
-33.658375 14.817959 3.1316748 4 0 0 0 6.23771
-0.81749016 14.913713 3.10568 32 0 0 0 23.81885
1.7574418 14.905258 3.115068 19 0 0 0 26.54442
2.1287222 14.89293 3.1215756 20 0 0 0 26.94647
2.5041368 14.8926 3.1324925 28 0 0 0 27.32959
-33.568672 15.771855 3.1590376 7 0 0 0 6.6353698
12.766293 15.653253 3.1518338 9 0 0 0 35.542042
-33.730114 16.869596 3.2125611 60 0 0 0 7.0244498
-33.817909 17.963564 3.262207 61 0 0 0 7.41854
-34.022942 19.157127 3.326406 83 0 0 0 7.8119898
-34.123447 20.332047 3.3840127 64 0 0 0 8.1988096
-34.322018 21.608915 3.4550714 49 0 0 0 8.5884504
3.21313 -65.431519 3.7088969 8 0 0 0 73.876915
-13.923362 -42.163101 3.6442921 16 0 0 0 79.740875
30.527103 -33.671028 3.6685741 23 0 0 0 62.908218
18.786026 -28.115067 3.5676155 33 0 0 0 65.262817
19.80825 -28.124617 3.6275158 14 0 0 0 64.865967
21.075674 -28.415253 3.7282898 14 0 0 0 64.474197
-31.372454 -19.868612 3.947618 8 0 0 0 90.707603
-23.501509 -17.440029 3.840282 9 0 0 0 89.533104
-21.391464 -16.704361 3.5645804 35 0 0 0 89.137665
-2.2973695 -15.514239 3.6187518 71 0 0 0 77.00975
-30.516735 -14.434031 3.5872002 10 0 0 0 92.656647
-2.8707547 -14.452878 3.7639954 104 0 0 0 77.783768
-1.7410496 -14.140015 3.993089 41 0 0 0 76.622086
3.9713845 -14.355577 3.7970974 41 0 0 0 70.345085
-30.896051 -13.695527 3.5900869 17 0 0 0 93.048149
-26.837231 -12.699701 3.8894303 11 0 0 0 92.656647
-22.107584 -12.531236 3.965096 10 0 0 0 91.488129
-22.513647 -12.040836 3.9828486 16 0 0 0 91.871353
-4.7385693 -11.068663 3.6778612 87.5 0 0 0 81.11013
-4.2520771 -11.041418 3.6142454 101 0 0 0 80.519646
-3.9539585 -11.066147 3.7354116 75.5 0 0 0 80.135101
-8.6645689 -10.570475 3.8351858 101 0 0 0 85.618896
-4.534245 -10.959347 3.9161668 12 0 0 0 80.91217
2.4224999 -10.785654 3.9171381 25 0 0 0 71.136642
-12.051418 -10.407825 3.6755347 71 0 0 0 88.355354
-8.8826971 -10.309944 3.8186927 106 0 0 0 86.005669
-6.7769709 -10.156714 3.8784754 125.5 0 0 0 84.042793
-6.3883586 -10.104497 3.6522284 153 0 0 0 83.658607
-5.1838112 -10.310654 3.8117471 111 0 0 0 82.089645
-4.7994242 -10.164013 3.850512 147.5 0 0 0 81.706512
-1.0214971 -10.411631 3.7120092 66 0 0 0 76.222946
-10.275004 -9.7945614 3.6290205 104 0 0 0 87.581917
-9.8262691 -9.8383341 3.5555799 84 0 0 0 87.188599
-8.9820337 -9.922266 3.7560816 144 0 0 0 86.39669
-6.1504021 -9.7244396 3.800864 124 0 0 0 83.658607
-5.8560266 -9.7820768 3.7663269 134 0 0 0 83.264336
-5.1750803 -9.8929415 3.8713961 136.66667 0 0 0 82.355125
-3.5219827 -9.8648691 3.9749126 38 0 0 0 80.135101
-3.1817665 -9.6524801 3.6087308 122 0 0 0 79.740875
-2.7172256 -9.8415356 3.7503695 83 0 0 0 78.959084
1.4535161 -9.7981195 3.7564034 112 0 0 0 72.312149
1.6487062 -9.5048037 3.6589096 178 0 0 0 71.924202
2.4427183 -9.7555361 3.8123653 207 0 0 0 70.746811
-12.09516 -9.4506092 3.5438132 25 0 0 0 89.137665
-11.525058 -9.0052853 3.7374089 10 0 0 0 89.137665
-10.540778 -9.1039019 3.5609975 34 0 0 0 88.355354
-10.164528 -9.2240429 3.678952 92.5 0 0 0 87.968414
-9.7054939 -9.2518883 3.762727 112 0 0 0 87.581917
-9.4295158 -9.4412022 3.7447186 169 0 0 0 87.188599
-2.2850335 -9.1429329 3.5785973 99 0 0 0 78.568771
2.6200838 -9.4732485 3.7264781 52 0 0 0 70.345085
-12.38192 -8.7309265 3.8697503 26 0 0 0 89.93261
-4.8803654 -8.6326714 3.5228665 63 0 0 0 82.874039
6.009779 -8.9989986 3.8311288 42 0 0 0 65.262817
-12.417263 -8.3071938 3.8161259 40 0 0 0 90.316498
6.9617052 -8.0809774 3.5141521 37 0 0 0 63.298328
-11.973388 -7.5918608 3.6228735 41 0 0 0 90.707603
8.9903402 -7.7617445 3.9075952 49 0 0 0 60.954609
9.2084694 -7.5620947 3.7712917 166.5 0 0 0 60.566071
13.093461 -7.8480749 3.5018301 65 0 0 0 58.209488
9.4147835 -7.3518758 3.7811584 163.5 0 0 0 60.16869
9.6526833 -7.1642165 3.9536388 83 0 0 0 59.775299
13.168439 -7.4596586 3.8434975 21 0 0 0 57.826488
10.850994 -6.5042129 3.8449295 174 0 0 0 58.209488
13.05362 -6.9770494 3.7593701 26 0 0 0 57.432819
12.129283 -6.1059437 3.7894392 50 0 0 0 57.037682
17.048489 -6.0966454 3.6998253 43 0 0 0 55.089642
12.1661 -5.7543483 3.7557437 9 0 0 0 56.649151
12.987392 -5.7558179 3.6088302 52 0 0 0 56.259552
14.890032 -5.7397361 3.6566057 58 0 0 0 55.481541
18.587151 -5.6327209 3.9652252 79 0 0 0 54.301178
12.399987 -5.1354661 3.7451003 63 0 0 0 55.87154
13.727643 -5.2926717 3.735702 74 0 0 0 55.481541
16.635864 -5.4922175 3.5808599 63 0 0 0 54.701698
18.935028 -5.2334037 3.5264106 89 0 0 0 53.915833
-26.871868 -4.663847 3.5655935 152 0 0 0 96.949844
14.356848 -4.7386889 3.8372493 84 0 0 0 54.701698
18.98484 -4.7484632 3.9944925 45 0 0 0 53.531727
19.27132 -4.8197618 3.5651505 86 0 0 0 53.531727
19.365101 -4.3404632 3.5614116 30 0 0 0 53.130112
-26.936682 -3.9962356 3.5591156 103 0 0 0 97.347359
25.141106 -3.0849156 3.9067504 14 0 0 0 51.57478
27.39665 -2.6792507 3.560662 25 0 0 0 51.179859
36.003689 -2.634537 3.7693772 22 0 0 0 50.786991
25.147787 -2.4600477 3.8971982 23 0 0 0 51.179859
37.685444 -1.828015 3.9377766 22 0 0 0 50.401791
44.865437 -1.0712564 3.5860884 7 0 0 0 50.0042
34.163437 -0.81647778 3.5700989 34 0 0 0 50.0042
45.643353 0.031862076 3.6466441 18 0 0 0 49.621799
-27.427477 4.0014849 3.7041194 96 0 0 0 1.94885
66.610596 4.954237 3.6565313 32 0 0 0 48.441807
66.592613 6.6012392 3.6637897 18 0 0 0 48.056221
-8.7780733 7.4728417 3.8232231 153 0 0 0 10.93111
-7.5950179 7.4820108 3.7974765 191 0 0 0 12.0932
-9.3089581 7.539927 3.6773064 7 0 0 0 10.53138
-8.5298004 7.625566 3.5132489 12 0 0 0 11.3125
-8.1940269 7.5673733 3.7898874 8 0 0 0 11.571667
-7.7979174 7.6892147 3.6333678 21 0 0 0 12.0932
-7.3520451 7.6071162 3.7670116 12 0 0 0 12.48911
-6.822958 7.5923266 3.760839 74.25 0 0 0 13.068794
-6.2653255 7.696209 3.6575365 24 0 0 0 13.851305
-5.8440399 7.7419481 3.6941836 18 0 0 0 14.44304
-5.2591701 7.7218299 3.5597699 118 0 0 0 15.222096
2.4074609 8.9667883 3.537298 39 0 0 0 28.893351
-34.009617 9.3262997 3.8514907 48 0 0 0 3.9031
2.805337 9.0839977 3.6212645 22 0 0 0 29.472961
3.3527503 9.2128696 3.732496 25.5 0 0 0 30.261749
3.7549767 9.2387524 3.6737337 29 0 0 0 30.846376
