# .PCD v0.7 - Point Cloud Data file format
VERSION 0.7
FIELDS x y z intensity normal_x normal_y normal_z curvature
SIZE 4 4 4 4 4 4 4 4
TYPE F F F F F F F F
COUNT 1 1 1 1 1 1 1 1
WIDTH 961
HEIGHT 1
VIEWPOINT 0 0 0 1 0 0 0
POINTS 961
DATA ascii
-48.488155 -37.80978 3.4904153 5 0 0 0 89.080429
-43.827728 -37.770821 3.2859778 11 0 0 0 88.29158
-41.627228 -37.691158 3.1903431 6 0 0 0 87.903458
-12.617808 -14.606703 3.4978888 31 0 0 0 85.95208
-13.006524 -13.644975 3.4164987 93 0 0 0 86.741074
9.2184525 -9.0628929 3.3675103 25.5 0 0 0 61.907341
-24.228754 -8.6784525 3.3867469 15 0 0 0 94.169647
5.1538 -8.225296 3.0095482 39 0 0 0 65.628937
6.8049741 -8.3683491 3.0801301 18 0 0 0 63.666618
10.289571 -8.0898819 3.0918791 148 0 0 0 60.153049
-16.285112 -7.7060785 3.2699089 77 0 0 0 92.583801
4.8646507 -7.7711687 3.0723295 23 0 0 0 65.628937
5.2844801 -7.5860567 3.1002541 25 0 0 0 64.83963
6.16256 -7.7760658 3.2048891 78 0 0 0 63.867073
10.551064 -7.8836823 3.4368584 156 0 0 0 59.75832
-15.919637 -7.0611539 3.1625102 67 0 0 0 92.985039
-14.825178 -7.4650593 3.0147233 82 0 0 0 92.203247
-9.5805025 -7.1028886 3.3464694 83 0 0 0 89.471375
-8.8361092 -7.2496958 3.4898019 118.5 0 0 0 88.686005
5.4863186 -7.1017036 3.2337763 27 0 0 0 64.067528
7.7068467 -7.3998232 3.3213601 32 0 0 0 61.708553
-18.927828 -6.779923 3.1505883 15 0 0 0 94.169647
-16.021847 -6.6416435 3.1502573 86 0 0 0 93.37397
-9.6558132 -6.798965 3.314147 179 0 0 0 89.862045
-8.9178276 -6.6135497 3.3900943 187 0 0 0 89.471375
-7.6349692 -6.5793238 3.3287864 71 0 0 0 88.29158
-7.1796608 -6.8288593 3.0283482 164 0 0 0 87.52562
-5.9199371 -6.8511162 3.4365375 85 0 0 0 85.95208
4.0881834 -6.7192931 3.0278611 47 0 0 0 65.825623
5.3946004 -6.8101034 3.3465934 33.5 0 0 0 63.867073
5.9130192 -6.9260373 3.0592225 44 0 0 0 63.279488
6.9220552 -6.9848866 3.0593386 39 0 0 0 62.106129
7.5082946 -6.533597 3.0993228 87 0 0 0 60.93182
10.385893 -6.6282935 3.2211409 75 0 0 0 58.586861
12.024477 -6.8620172 3.274637 170 0 0 0 57.797039
13.005996 -6.5946131 3.4487119 137 0 0 0 57.021271
-16.525333 -6.380518 3.2174773 46 0 0 0 93.770233
-11.391308 -6.0923333 3.3034215 31 0 0 0 91.812851
-5.6867681 -6.2646141 3.0061333 86 0 0 0 86.3451
-4.7388787 -6.3719487 3.017813 45 0 0 0 84.771873
6.4667029 -6.2150712 3.4600625 48 0 0 0 61.708553
6.5785456 -6.0219951 3.0025494 186 0 0 0 61.317661
7.482625 -6.1954041 3.0272434 59 0 0 0 60.534061
7.6242137 -6.0051508 3.2667572 101 0 0 0 60.153049
10.548236 -6.0232515 3.1783295 151 0 0 0 57.797039
13.47198 -6.0193348 3.1282508 110 0 0 0 56.236301
-20.032827 -5.5533919 3.2589483 37 0 0 0 95.33255
-12.453124 -5.8953042 3.1840909 29 0 0 0 92.583801
-11.742407 -5.558795 3.322892 52 0 0 0 92.583801
-10.001018 -5.6677127 3.2279613 180 0 0 0 91.423752
-9.7903032 -5.8694377 3.2052708 136 0 0 0 91.037689
-8.8106852 -5.8874998 3.1051493 145.5 0 0 0 90.257446
-5.3112407 -5.8499308 3.002387 83 0 0 0 86.3451
5.5386486 -5.8783283 3.1179824 107 0 0 0 62.491966
8.5306902 -5.7482224 3.2071345 102 0 0 0 58.971928
9.3771887 -5.8792539 3.2666652 86.333336 0 0 0 58.455158
12.978909 -5.797204 3.3648083 160 0 0 0 56.236301
13.567175 -5.6654582 3.1181078 105 0 0 0 55.846912
-12.274961 -5.4470544 3.4342341 33 0 0 0 92.985039
-10.205967 -5.4582214 3.2501462 30 0 0 0 91.812851
8.0335608 -5.1309452 3.4486825 131 0 0 0 58.586861
12.73275 -5.3157487 3.26841 174 0 0 0 55.846912
-19.89296 -4.9929204 3.2166483 19 0 0 0 95.713669
-13.871696 -4.5901461 3.1977582 27.5 0 0 0 94.557083
-12.06829 -4.6622109 3.3106999 32 0 0 0 93.770233
-11.927774 -4.94699 3.3039317 42 0 0 0 93.37397
6.6390181 -4.9711065 3.0039909 126 0 0 0 59.75832
7.6130357 -4.6044559 3.4425521 22 0 0 0 58.191761
9.2444992 -4.9849 3.0176895 162 0 0 0 57.412022
9.5635443 -4.8561769 3.0816309 158 0 0 0 57.021271
12.732167 -4.7731829 3.2230048 158 0 0 0 55.272385
15.585151 -4.7689872 3.0517826 171 0 0 0 54.288326
-14.766822 -4.4865146 3.1888924 17 0 0 0 94.951614
7.7940936 -4.3283348 3.3409481 62.5 0 0 0 57.60453
8.87498 -4.3701196 3.2152977 76 0 0 0 56.826435
12.421898 -4.1389589 3.4292758 94 0 0 0 54.684399
12.633666 -4.2093349 3.1581814 150 0 0 0 54.684399
15.570923 -4.3484073 3.0280569 138 0 0 0 53.900646
8.1365108 -3.883028 3.2689803 55 0 0 0 56.631599
22.339649 -3.9191427 3.1045864 18 0 0 0 52.344501
28.165749 -3.5274575 3.174397 37 0 0 0 51.558407
8.3003035 -3.2347195 3.0130816 33 0 0 0 55.465168
15.186454 -3.0536218 3.2876036 105 0 0 0 52.725941
19.360273 -3.3972244 3.1848691 85 0 0 0 52.344501
8.3451443 -2.5556421 3.3862255 42 0 0 0 54.288326
8.8170166 -2.8183112 3.3594477 76.5 0 0 0 54.486362
15.714282 -2.758414 3.3849759 109 0 0 0 52.344501
15.090364 -2.2674737 3.2399483 100 0 0 0 51.951599
21.101635 -2.113173 3.4330018 29 0 0 0 51.173031
48.519428 2.2957475 3.0018151 40 0 0 0 48.822861
39.265671 3.8089676 3.4277217 10 0 0 0 48.052441
34.370926 4.1903982 3.0126731 18 0 0 0 47.65234
34.471519 7.6971951 3.0654321 3 0 0 0 46.095528
-45.923569 8.0040436 3.4766037 52 0 0 0 2.3464301
26.674604 8.7907257 3.1239357 67 0 0 0 44.527393
28.583382 8.6444473 3.3205829 37 0 0 0 44.924606
-18.406975 9.2236462 3.0626478 12 0 0 0 7.0282102
18.773478 9.4620237 3.3807447 14 0 0 0 42.188301
20.803858 9.2242708 3.0944929 43 0 0 0 42.968208
21.998251 9.1108303 3.2374768 95 0 0 0 43.35886
23.706976 9.1392879 3.4534886 40 0 0 0 43.752831
-16.203682 9.6567955 3.2749534 4 0 0 0 8.19098
-15.30557 9.6322994 3.1421201 8 0 0 0 8.5869904
-14.805285 9.8285542 3.0894773 15 0 0 0 8.9773903
-14.231298 9.9537802 3.2331038 12.5 0 0 0 9.3656397
12.088262 9.9713488 3.2932594 30 0 0 0 38.674633
12.705877 9.9624815 3.3938062 5 0 0 0 39.071678
13.111731 9.7660656 3.2359223 187.5 0 0 0 39.45789
13.699013 9.6846724 3.1140738 171 0 0 0 39.841961
14.742341 9.8831196 3.293674 66 0 0 0 40.232841
15.541296 9.8702898 3.4167521 8 0 0 0 40.627888
16.153278 9.706069 3.2638755 131 0 0 0 41.016113
17.158316 9.739131 3.1718957 12 0 0 0 41.406101
17.779522 9.5192204 3.2432089 126 0 0 0 41.792301
-13.636417 10.039224 3.3609884 7 0 0 0 9.7507896
-13.117188 10.157971 3.2949777 10 0 0 0 10.1446
-12.614069 10.268661 3.2324471 17 0 0 0 10.53896
-12.122415 10.368632 3.172236 23 0 0 0 10.92255
4.2382994 10.46014 3.3241246 444 0 0 0 30.84923
4.6319771 10.426879 3.3161402 383.33334 0 0 0 31.368614
5.8494663 10.481212 3.24628 146 0 0 0 32.796909
7.210866 10.357671 3.2622817 249 0 0 0 34.371201
7.5557156 10.299597 3.3034027 301 0 0 0 34.758991
8.4346313 10.376552 3.460058 11 0 0 0 35.538921
8.6991796 10.346015 3.2765169 114.33334 0 0 0 35.802197
9.3133574 10.360263 3.2635813 23 0 0 0 36.329231
9.8758879 10.445711 3.015065 8 0 0 0 36.713608
10.25193 10.155205 3.2663944 209 0 0 0 37.23737
10.510715 10.070646 3.0567594 309 0 0 0 37.505848
11.205212 10.214783 3.1840591 9 0 0 0 37.890152
11.665102 10.117153 3.2438173 31 0 0 0 38.278919
12.916114 10.123617 3.0432308 9 0 0 0 39.071678
-11.704703 10.515429 3.131005 20 0 0 0 11.3119
-11.254711 10.614498 3.2682121 26 0 0 0 11.70724
-10.684278 10.575253 3.3605664 201 0 0 0 12.10159
-0.10330677 10.891344 3.1722784 499 0 0 0 24.600821
0.16700122 10.992926 3.2042675 327.5 0 0 0 24.989759
1.3641498 10.783265 3.1790414 548.25 0 0 0 26.745424
1.7862453 10.869112 3.2245665 347.5 0 0 0 27.328409
2.2225716 10.96496 3.2780702 27 0 0 0 27.92037
2.7456326 10.792476 3.2679741 228 0 0 0 28.696091
3.32305 10.791597 3.3177991 57.75 0 0 0 29.474636
3.7676282 10.797503 3.362473 17 0 0 0 30.066509
4.0342731 10.699839 3.2243052 343 0 0 0 30.45553
5.2998772 10.706835 3.2268062 16.5 0 0 0 32.027328
5.6045198 10.651461 3.2528658 18 0 0 0 32.409649
6.2870088 10.634998 3.3413947 27 0 0 0 33.19318
6.8083591 10.594728 3.2525287 15 0 0 0 33.781059
8.1271124 10.517517 3.2734094 10 0 0 0 35.150448
-10.753529 11.183409 3.2808895 8 0 0 0 12.48203
-7.3842044 11.487548 3.4042361 274 0 0 0 15.61645
-5.8768916 11.459572 3.2206707 225 0 0 0 17.18117
-4.7377605 11.176476 3.1935849 335 0 0 0 18.359249
-4.3152728 11.177681 3.2051716 336 0 0 0 18.877945
-3.6824961 11.446857 3.2223146 16.333334 0 0 0 19.786766
-2.7689049 11.205854 3.3370373 187.5 0 0 0 20.886999
-2.2147717 11.317019 3.3383541 13 0 0 0 21.670694
-1.7450202 11.046476 3.2421689 442.5 0 0 0 22.250139
-1.3309891 11.051789 3.2309389 404.5 0 0 0 22.841421
-0.7912811 11.171922 3.2550426 24 0 0 0 23.620899
-0.37815607 11.168391 3.2512777 24 0 0 0 24.203289
0.44172388 11.075836 3.232563 25 0 0 0 25.37883
0.85089779 11.062738 3.2391264 21 0 0 0 25.96244
3.5997963 11.176799 3.0128999 15 0 0 0 29.67057
6.8858967 11.00531 3.0302124 11 0 0 0 33.584408
-10.595059 11.576069 3.1299083 68 0 0 0 12.87955
-10.194423 11.695308 3.2848086 181 0 0 0 13.26623
-9.8046036 11.817823 3.2529194 9 0 0 0 13.65885
-9.3763218 11.878903 3.2082868 9 0 0 0 14.05652
-8.7995234 11.718479 3.2878888 155 0 0 0 14.44634
-8.4402418 11.83042 3.2627678 6 0 0 0 14.84097
-7.8761191 11.624172 3.3261194 37.5 0 0 0 15.23163
-7.2082276 11.628734 3.1902602 103.66666 0 0 0 15.882737
-6.7819805 11.78054 3.2267509 9.5 0 0 0 16.396021
-6.3726082 11.720085 3.1699758 12 0 0 0 16.782499
-5.6236973 11.661338 3.239799 15 0 0 0 17.570061
-5.2589426 11.618525 3.3509645 10 0 0 0 17.96426
-3.9164836 11.53368 3.0610547 8 0 0 0 19.524559
-3.2921925 11.509382 3.3093264 12 0 0 0 20.31328
-2.153976 11.816698 3.0329242 12 0 0 0 21.861019
0.77706707 11.869393 3.0273545 15 0 0 0 25.76573
2.2196512 11.639832 3.0281882 16 0 0 0 27.723009
2.6522965 11.568973 3.0369358 21.5 0 0 0 28.308405
-5.7293901 12.278587 3.0602558 13.5 0 0 0 17.76716
2.8187642 12.967611 3.0629146 22 0 0 0 28.117729
3.1193516 12.82277 3.0486794 31 0 0 0 28.499081
6.8052692 12.881436 3.0299489 10 0 0 0 32.409649
-0.74927807 13.228212 3.0302362 29 0 0 0 23.81332
-0.42300287 13.202747 3.0237043 42 0 0 0 24.203289
0.87764907 13.209316 3.040164 14 0 0 0 25.76573
2.5072734 13.07672 3.0704741 30 0 0 0 27.723009
6.5169578 13.107508 3.0417526 16 0 0 0 32.027328
-6.5844169 13.707185 3.0593216 16 0 0 0 17.570061
4.7010303 13.913281 3.0377469 35.5 0 0 0 29.86854
3.5109837 14.36637 3.0492096 15 0 0 0 28.499081
-3.391505 14.666416 3.0515363 13 0 0 0 21.08095
2.8232012 14.640157 3.0682673 13 0 0 0 27.723009
3.1791513 14.550346 3.067704 10 0 0 0 28.117729
7.3558211 14.766781 3.0155213 24 0 0 0 32.027328
-29.077255 -37.212048 3.86731 11 0 0 0 85.162338
-52.050682 -36.632355 3.6130235 12 0 0 0 89.862045
-27.416451 -36.916191 3.7674589 24 0 0 0 84.771873
-0.78903931 -29.925428 3.9658422 14 0 0 0 75.003632
-0.054762974 -29.123859 3.8611269 57 0 0 0 74.617516
-1.4673396 -28.804716 3.8204272 17 0 0 0 75.396355
-63.069763 -10.952038 3.667985 7 0 0 0 96.881447
-46.40107 -9.2440166 3.8960795 8 0 0 0 96.492409
-28.253828 -8.5828924 3.883049 27 0 0 0 94.951614
-8.221735 -8.6241541 3.781924 71 0 0 0 86.741074
8.8785982 -8.9491491 3.5983286 8 0 0 0 62.106129
-17.290747 -8.1818924 3.9401557 82 0 0 0 92.583801
5.7675571 -8.270134 3.8740664 61.333332 0 0 0 64.843346
6.6930618 -8.2278776 3.8156612 20 0 0 0 63.666618
-9.1751957 -7.5245399 3.9139745 133 0 0 0 88.689476
-8.8086357 -7.9755101 3.9192836 55 0 0 0 87.903458
-8.0913563 -7.6940393 3.6844611 99 0 0 0 87.52562
7.6260743 -7.6940422 3.6349018 28 0 0 0 62.106129
-29.085482 -7.2993884 3.9452758 18 0 0 0 95.713669
-21.983013 -7.2713742 3.624119 32 0 0 0 94.557083
-17.192648 -7.1269383 3.835701 58 0 0 0 93.37397
6.6982884 -7.4572921 3.8577187 60 0 0 0 62.886089
7.0471778 -7.1089005 3.6086111 140 0 0 0 62.106129
-13.609151 -6.8554645 3.8915021 63 0 0 0 92.203247
-9.3895864 -6.6137066 3.506036 55 0 0 0 89.862045
-8.4489727 -6.5895147 3.5372527 166 0 0 0 89.080429
-7.570169 -6.8577528 3.6231885 68 0 0 0 87.903458
-6.5700169 -6.892457 3.6124167 77 0 0 0 86.741074
7.2828803 -6.9936228 3.6408939 53 0 0 0 61.708553
7.8785629 -6.8545055 3.6369085 67 0 0 0 60.93182
13.721042 -6.5367432 3.5934734 137 0 0 0 56.631599
-16.461212 -6.3557625 3.639046 74 0 0 0 93.770233
-8.8545303 -6.2341838 3.5750272 166 0 0 0 89.862045
-8.219965 -6.2555971 3.6643677 154.5 0 0 0 89.275902
8.8857698 -6.3116431 3.6653244 141 0 0 0 59.361954
9.1277227 -6.1486549 3.8372445 52 0 0 0 58.971928
12.638535 -6.0230589 3.6592469 104 0 0 0 56.631599
13.097724 -5.850112 3.7490671 104 0 0 0 56.236301
13.548819 -5.6550512 3.8369534 77 0 0 0 55.846912
16.767981 -5.1294498 3.7130494 67 0 0 0 54.288326
-21.389502 -4.8144379 3.9797895 22 0 0 0 96.108963
-19.871107 -4.9875245 3.7201595 13 0 0 0 95.713669
-13.151015 -4.7135701 3.573004 16 0 0 0 94.169647
-11.586786 -4.8067379 3.6755619 22 0 0 0 93.37397
12.490186 -4.8572955 3.5073693 155 0 0 0 55.465168
12.688616 -4.7541857 3.8848381 116 0 0 0 55.272385
13.200108 -4.7614388 3.6710465 163 0 0 0 55.079601
17.085342 -4.769567 3.7562406 102 0 0 0 53.900646
-14.514322 -4.0268707 3.8519409 12 0 0 0 95.33255
-14.269108 -4.3381362 3.8135569 51 0 0 0 94.951614
-13.023095 -4.3107376 3.8502903 11 0 0 0 94.557083
-12.335591 -4.4213715 3.6787863 34 0 0 0 94.169647
9.0454388 -4.0436759 3.5884895 59 0 0 0 56.236301
12.151207 -4.0490379 3.6756418 166 0 0 0 54.684399
15.618688 -4.3582516 3.8365481 68 0 0 0 53.900646
17.117922 -4.327292 3.7396104 45 0 0 0 53.516659
9.2857466 -3.8787966 3.8931379 43 0 0 0 55.846912
15.607065 -3.7387772 3.7986917 148.5 0 0 0 53.315674
19.127272 -2.8723829 3.6156461 136 0 0 0 51.951599
15.516113 -1.9382064 3.7036698 42 0 0 0 51.558407
45.843929 3.3110042 3.9879112 8 0 0 0 48.436581
34.449451 4.2022924 3.8645897 17 0 0 0 47.65234
33.491699 4.9244409 3.769299 20 0 0 0 47.265488
33.71693 5.808002 3.8075075 12 0 0 0 46.87632
34.325466 6.78581 3.8911066 3 0 0 0 46.481529
32.7841 8.1755285 3.7553158 23 0 0 0 45.700928
-23.244112 8.9429674 3.6951556 16 0 0 0 5.46666
23.182093 8.9401932 3.9951901 63 0 0 0 43.752831
24.919752 8.9073038 3.5970683 50 0 0 0 44.14727
26.36174 8.6957226 3.7727914 53 0 0 0 44.527393
30.905458 8.5209751 3.5635178 43 0 0 0 45.31004
-19.366266 9.121336 3.7077849 36 0 0 0 6.6317201
-18.377621 9.2078829 3.562459 8 0 0 0 7.0282102
-15.884919 9.4642639 3.661768 94 0 0 0 8.19098
17.552471 9.4007215 3.6974304 101 0 0 0 41.792301
18.511377 9.3330069 3.8495765 99 0 0 0 42.188301
19.915157 9.4276829 3.5429566 52 0 0 0 42.583019
20.635952 9.1526794 3.6306849 59 0 0 0 42.968208
21.874426 9.062336 3.807637 48 0 0 0 43.35886
-15.330043 9.6466303 3.588793 11 0 0 0 8.5869904
-14.784056 9.8130827 3.5177567 15 0 0 0 8.9773903
-13.427814 9.8793383 3.7134879 6 0 0 0 9.7507896
10.395761 9.9703226 3.7344766 234 0 0 0 37.505848
10.87819 9.9276514 3.819277 240 0 0 0 37.890152
11.385981 9.8855228 3.9113045 199 0 0 0 38.278919
11.928925 9.8468962 3.6316442 202 0 0 0 38.674633
12.500794 9.8087902 3.7313349 180 0 0 0 39.071678
13.086422 9.7547722 3.833566 180 0 0 0 39.45789
13.721464 9.7061272 3.7416067 139.5 0 0 0 39.841961
14.405573 9.6610756 3.6484969 177 0 0 0 40.232841
15.064118 9.5712404 3.7547228 148 0 0 0 40.627888
15.873749 9.542716 3.8965788 135 0 0 0 41.016113
16.83737 9.5603313 3.5948884 77 0 0 0 41.406101
-12.750282 10.117308 3.6289372 92 0 0 0 10.34178
-12.086299 10.332211 3.5478582 23 0 0 0 10.92255
-11.841722 10.373535 3.7059116 9 0 0 0 11.117226
3.8468463 10.488117 3.8851299 361.66666 0 0 0 30.325857
4.23876 10.465758 3.7447865 388 0 0 0 30.84923
4.7337909 10.429095 3.7069361 366.66666 0 0 0 31.497198
5.3009171 10.397821 3.7326617 312.25 0 0 0 32.218491
5.767067 10.345327 3.7906451 314 0 0 0 32.796909
6.2022195 10.308526 3.8025701 340.33334 0 0 0 33.323589
6.7427659 10.407195 3.6139009 221 0 0 0 33.846607
7.3182921 10.24572 3.7249212 242 0 0 0 34.565094
7.8507881 10.171608 3.8036823 240.5 0 0 0 35.150448
8.2436361 10.146923 3.7099845 230 0 0 0 35.538921
8.6465635 10.119882 3.7785006 201 0 0 0 35.93383
9.2535677 10.130198 3.7817109 181.33333 0 0 0 36.457355
9.7312231 10.050484 3.6255636 169 0 0 0 36.908367
11.089614 10.116445 3.5216279 141 0 0 0 37.890152
11.560731 10.033487 3.5924091 92 0 0 0 38.278919
-11.150531 10.510773 3.7961202 7 0 0 0 11.70724
-10.675275 10.564425 3.7228951 176 0 0 0 12.10159
-2.155426 10.976045 3.7881315 394.5 0 0 0 21.670696
-1.7344785 10.946833 3.7573075 384 0 0 0 22.250139
-1.3207043 10.915329 3.7314858 330 0 0 0 22.841421
-0.77909368 10.906361 3.7156641 284.25 0 0 0 23.620899
-0.24166054 10.878736 3.7028208 305.25 0 0 0 24.402054
0.29305592 10.858797 3.7011127 299.5 0 0 0 25.184296
0.82516283 10.811009 3.6992283 310.5 0 0 0 25.96244
1.355499 10.75191 3.7029035 355 0 0 0 26.745424
1.7562938 10.72184 3.7158568 257 0 0 0 27.328409
2.1521556 10.653569 3.7216225 305.25 0 0 0 27.92037
2.68871 10.587801 3.7454133 375.75 0 0 0 28.696091
3.2392941 10.543365 3.7863753 389.25 0 0 0 29.474636
3.6633959 10.510819 3.6874561 373 0 0 0 30.066509
4.031219 10.702553 3.5064285 284 0 0 0 30.45553
-8.6287622 11.483123 3.9268754 186 0 0 0 14.44634
-8.1788549 11.453921 3.8502936 199 0 0 0 14.84097
-7.7334585 11.406528 3.772635 217 0 0 0 15.23163
-7.3154783 11.376155 3.7051919 249 0 0 0 15.61645
-6.7353568 11.359667 3.7828615 238.25 0 0 0 16.205952
-6.2000203 11.388203 3.7168965 253.5 0 0 0 16.782499
-5.8283944 11.355562 3.661644 242 0 0 0 17.18117
-5.1983738 11.220024 3.8052075 317.33334 0 0 0 17.832861
-4.7431536 11.178493 3.790483 319 0 0 0 18.359249
-4.2624445 11.16383 3.7341511 270.75 0 0 0 18.942944
-3.7232144 11.240851 3.65576 296.33334 0 0 0 19.655663
-3.2912867 11.137961 3.6845169 306.66666 0 0 0 20.181475
-2.7308078 11.022758 3.8402653 354.25 0 0 0 20.887001
-10.611481 11.586929 3.7063494 42 0 0 0 12.87955
-10.137489 11.623848 3.8285618 161 0 0 0 13.26623
-9.609149 11.573948 3.7366846 179 0 0 0 13.65885
-9.1383886 11.56811 3.6644347 156 0 0 0 14.05652
-8.7205868 11.609481 3.6115956 118 0 0 0 14.44634
-8.3213415 11.658889 3.5652235 156 0 0 0 14.84097
-5.5733819 11.551195 3.5261731 25 0 0 0 17.570061
0.77061421 -33.859436 4.4865122 4 0 0 0 74.223389
-24.237358 -31.013918 4.1849327 7 0 0 0 85.162338
-9.0075302 -29.554367 4.0698204 28 0 0 0 79.307022
-1.4319476 -28.068031 4.4191303 14 0 0 0 75.396355
-2.1048477 -27.833225 4.3874683 19 0 0 0 75.79245
-12.826623 -14.847913 4.0374904 45 0 0 0 85.95208
6.7907944 -9.7258034 4.2578754 11 0 0 0 64.83963
8.7049694 -9.6823339 4.3569164 27 0 0 0 62.886089
6.9628296 -9.4685841 4.2206483 25 0 0 0 64.451851
8.1924887 -9.3375759 4.4641228 35.5 0 0 0 63.082787
-17.59054 -8.857543 4.0551739 35 0 0 0 92.203247
-15.666167 -8.379077 4.0953298 15 0 0 0 91.812851
-8.1060305 -8.099802 4.3415117 56 0 0 0 87.139229
-17.356653 -7.702075 4.3767142 49 0 0 0 92.985039
-11.892034 -7.5344296 4.2913232 31 0 0 0 90.653389
-8.8729362 -7.6522694 4.151916 93 0 0 0 88.29158
-18.135637 -7.0058398 4.4817753 50 0 0 0 93.770233
8.7701111 -7.0727568 4.2002048 102.5 0 0 0 60.343555
14.760697 -7.4809942 4.3154497 94 0 0 0 57.021271
-13.087652 -6.5926771 4.1073489 35 0 0 0 92.203247
-9.7394085 -6.7455163 4.3896599 86.333336 0 0 0 89.993843
-9.3665018 -6.9484892 4.418581 167 0 0 0 89.471375
8.7396698 -6.3658695 4.1691537 83.5 0 0 0 59.560135
9.0744572 -6.4404836 4.0154757 125 0 0 0 59.361954
13.601465 -6.4801841 4.3103361 24 0 0 0 56.631599
12.765606 -5.7011118 4.1747742 128.5 0 0 0 56.236301
-21.175653 -5.3149614 4.4992576 21 0 0 0 95.713669
-18.905973 -5.2412224 4.0456038 21 0 0 0 95.33255
-13.400113 -5.1793385 4.3825183 54 0 0 0 93.770233
12.841618 -5.3597202 4.1570873 97.5 0 0 0 55.846912
16.394329 -5.0121713 4.0526938 113 0 0 0 54.288326
68.475952 -5.1839919 4.2322989 11 0 0 0 50.781433
-11.654631 -4.6662822 4.1440458 39.5 0 0 0 93.572098
12.487267 -4.5051117 4.4658856 55 0 0 0 55.079601
12.669538 -4.7480922 4.2138367 111.5 0 0 0 55.272385
-13.779492 -4.1893611 4.0414481 14 0 0 0 94.951614
-12.429512 -4.456274 4.1939812 29.5 0 0 0 94.169647
11.229141 -4.3643026 4.354147 23 0 0 0 55.465168
12.634808 -4.2080479 4.3134928 68 0 0 0 54.684399
13.504429 -4.1284761 4.3974295 94 0 0 0 54.288326
15.866431 -4.0083828 4.2758698 105 0 0 0 53.516659
19.020956 -4.3115897 4.1263604 74 0 0 0 53.114689
-13.068783 -3.8000779 4.3241558 46 0 0 0 95.142082
16.229574 -3.6769958 4.3476844 55 0 0 0 53.114689
15.480813 -3.1089847 4.1283526 21 0 0 0 52.725941
66.754822 -3.4073541 4.1199389 4 0 0 0 50.394272
22.443922 -2.2463722 4.2088428 21 0 0 0 51.173031
31.195696 -2.3492002 4.2652884 10 0 0 0 50.781433
72.546181 -1.9180101 4.4684148 15 0 0 0 50.002151
30.528336 -0.79286307 4.1641617 7 0 0 0 50.002151
48.17728 -0.079092994 4.1816001 4 0 0 0 49.608139
48.411266 1.1105543 4.2017255 38 0 0 0 49.219582
48.513271 2.3067896 4.2128658 44 0 0 0 48.822861
39.35487 3.8201311 4.3981128 13 0 0 0 48.052441
30.415188 8.3946781 4.2860785 26 0 0 0 45.31004
24.687029 8.8270435 4.2150092 46 0 0 0 44.14727
26.330009 8.6880198 4.4567881 55 0 0 0 44.527393
28.177711 8.5302095 4.0004716 48 0 0 0 44.924606
-20.386145 9.0019236 4.4016209 49 0 0 0 6.2382498
-18.385025 9.2106695 4.0655279 8 0 0 0 7.0282102
-17.479267 9.2899666 4.3958788 75 0 0 0 7.41641
16.674564 9.4708395 4.0346437 107 0 0 0 41.406101
17.567497 9.4112873 4.1931262 99 0 0 0 41.792301
18.464588 9.3120613 4.3510618 82 0 0 0 42.188301
19.502045 9.2354059 4.0068526 76 0 0 0 42.583019
20.614689 9.1458788 4.1874938 70 0 0 0 42.968208
21.865108 9.0611143 4.3942113 76 0 0 0 43.35886
-15.296116 9.6196327 4.2370739 53.5 0 0 0 8.5869904
-13.559218 9.9754982 4.1590281 5 0 0 0 9.7507896
-12.924368 9.9993782 4.4415874 111 0 0 0 10.1446
10.388955 9.9697609 4.2701578 185 0 0 0 37.505848
10.883091 9.9348469 4.1891732 209 0 0 0 37.890152
11.387897 9.8898897 4.2888222 182 0 0 0 38.278919
11.945396 9.8644028 4.2122731 173.5 0 0 0 38.674633
12.479013 9.7944269 4.1165657 171 0 0 0 39.071678
13.108975 9.7740889 4.2437253 161 0 0 0 39.45789
13.731008 9.7185106 4.3664765 120 0 0 0 39.841961
14.389036 9.6575279 4.2847767 116 0 0 0 40.232841
15.08421 9.5901861 4.1997409 111 0 0 0 40.627888
15.867815 9.5454807 4.3510056 96 0 0 0 41.016113
-12.980774 10.044881 4.0573859 8 0 0 0 10.1446
-12.438894 10.116589 4.3600783 65 0 0 0 10.53896
-11.95699 10.217413 4.2790899 3 0 0 0 10.92255
3.9388397 10.48296 4.2618284 302 0 0 0 30.45553
4.2282848 10.457774 4.1565614 302 0 0 0 30.84923
4.6715469 10.422114 4.2119493 271.5 0 0 0 31.432905
5.2804146 10.372292 4.2962427 273 0 0 0 32.218491
5.7539968 10.334149 4.223227 277 0 0 0 32.796909
6.3035913 10.291601 4.2129173 261.66666 0 0 0 33.453999
6.7569561 10.25493 4.2388406 265.5 0 0 0 33.977711
7.2309952 10.218884 4.2713799 204.33333 0 0 0 34.500462
7.8538814 10.178451 4.2838783 235 0 0 0 35.150448
8.2310877 10.138016 4.1905193 199.5 0 0 0 35.538921
8.6237507 10.099693 4.26298 201 0 0 0 35.93383
9.2543259 10.053966 4.2188706 195 0 0 0 36.52142
9.9198647 10.00333 4.1769795 197 0 0 0 37.103127
-11.141977 10.500865 4.1697087 5 0 0 0 11.70724
-10.676491 10.561052 4.275135 145.5 0 0 0 12.10159
-2.1592655 10.972569 4.1963477 322 0 0 0 21.670694
-1.7370363 10.934353 4.1584482 356 0 0 0 22.250139
-1.3243399 10.908194 4.1316996 296 0 0 0 22.841419
-0.7805509 10.859142 4.0992208 368.5 0 0 0 23.620899
-0.24510109 10.822222 4.0812345 356 0 0 0 24.402054
0.28590575 10.782563 4.0719886 344 0 0 0 25.184296
0.81426406 10.736212 4.0699816 342 0 0 0 25.96244
1.3436782 10.698395 4.0811005 310.5 0 0 0 26.745426
1.7418425 10.664431 4.0935183 356 0 0 0 27.328409
2.1415925 10.625043 4.1101499 356.5 0 0 0 27.920368
2.6842184 10.588771 4.1472774 329.5 0 0 0 28.696091
3.2327776 10.537647 4.1895294 297 0 0 0 29.474636
3.6560104 10.51226 4.2334619 332 0 0 0 30.066509
-8.6446848 11.497899 4.2834334 203 0 0 0 14.44634
-8.1827135 11.452559 4.1938329 180 0 0 0 14.84097
-7.74226 11.413469 4.2811041 196 0 0 0 15.23163
-7.3320541 11.395862 4.2089863 187.5 0 0 0 15.61645
-6.7250876 11.339293 4.2609711 229 0 0 0 16.205952
-6.1532917 11.291893 4.3167629 213.5 0 0 0 16.782499
-5.7846308 11.259323 4.251904 280 0 0 0 17.18117
-5.3166785 11.226985 4.2264724 240.66667 0 0 0 17.70146
-4.7455688 11.16993 4.2326226 295 0 0 0 18.359249
-4.254364 11.123323 4.3029027 260.5 0 0 0 18.942944
-3.7855601 11.101726 4.2418857 278.5 0 0 0 19.524559
-3.3270121 11.06609 4.1836462 295.75 0 0 0 20.115574
-2.7344093 11.018991 4.2544088 324.5 0 0 0 20.887001
-10.589612 11.559548 4.2751579 52 0 0 0 12.87955
-10.130844 11.613877 4.2052307 161 0 0 0 13.26623
-9.6069279 11.56568 4.2884417 162 0 0 0 13.65885
-9.1190948 11.537665 4.1971235 174 0 0 0 14.05652
-23.515436 -37.068176 4.6675425 15 0 0 0 83.605362
-27.437778 -36.942783 4.8877158 24 0 0 0 84.771873
-6.1118541 -34.923656 4.6762958 13 0 0 0 77.351837
-4.267817 -34.16703 4.54739 11 0 0 0 76.570969
-0.056782797 -29.574858 4.6523194 34 0 0 0 74.617516
-0.77646536 -29.370932 4.6201534 39 0 0 0 75.003632
7.2113862 -29.067039 4.7327738 27 0 0 0 70.710876
7.7991381 -28.436476 4.6627994 22 0 0 0 70.314079
-12.489413 -15.981128 4.6692405 22 0 0 0 85.162338
-17.112968 -9.6993885 4.5303526 18 0 0 0 91.423752
8.6241808 -9.1268158 4.5140128 26 0 0 0 62.491966
-28.894665 -8.7776213 4.7175713 18 0 0 0 94.951614
9.7886105 -8.5044556 4.9850926 8 0 0 0 60.93182
-12.178742 -8.1374121 4.8252902 85 0 0 0 90.257446
-18.151857 -7.5282326 4.5289164 59 0 0 0 93.37397
-12.719698 -7.6259322 4.8860593 101 0 0 0 91.037689
-14.312634 -7.2128482 4.8831434 45 0 0 0 92.203247
13.279252 -7.1458969 4.6847148 39 0 0 0 57.412022
-29.228983 -6.5783062 4.6844301 40 0 0 0 96.108963
-18.399391 -6.5943394 4.5062814 9 0 0 0 94.169647
-14.748936 -6.544836 4.5205498 22 0 0 0 92.985039
-19.922676 -6.056438 4.8004508 14 0 0 0 94.951614
-13.867249 -6.1564546 4.6254263 18 0 0 0 92.985039
-13.424803 -6.3551159 4.8953419 53 0 0 0 92.583801
-12.05888 -6.0794954 4.7840757 38 0 0 0 92.203247
13.299067 -6.3338966 4.5794492 91 0 0 0 56.631599
-20.016535 -5.5528564 4.7898231 21 0 0 0 95.33255
12.3523 -5.5186338 4.5475669 85 0 0 0 56.236301
-22.545198 -5.074604 4.7615294 12 0 0 0 96.108963
12.806784 -5.3465552 4.664629 82 0 0 0 55.846912
16.509256 -5.0469785 4.5066404 60 0 0 0 54.288326
-14.268751 -4.7257528 4.5852423 37 0 0 0 94.557083
-13.096996 -4.6994214 4.9314289 27 0 0 0 94.169647
12.554663 -4.5242724 4.8183823 52 0 0 0 55.079601
16.191456 -4.7329221 4.8267107 85.5 0 0 0 54.094486
16.648119 -4.6442289 4.5125551 80 0 0 0 53.900646
14.207067 -4.3449545 4.9934425 110 0 0 0 54.288326
-13.373731 -3.7106709 4.580893 14 0 0 0 95.33255
19.313538 -3.8764038 4.6519179 86 0 0 0 52.725941
-13.37869 -3.3662655 4.8925066 9 0 0 0 95.713669
15.976151 -3.2076905 4.6658058 99 0 0 0 52.725941
18.799583 -3.2935836 4.9799805 47 0 0 0 52.344501
19.064686 -3.3404326 4.572 69 0 0 0 52.344501
21.27667 -2.6596677 4.533071 17 0 0 0 51.558407
22.335104 -1.6803951 4.7330809 16 0 0 0 50.781433
29.943542 -1.5141495 4.8337064 13 0 0 0 50.394272
29.936644 -0.77608693 4.8277698 15 0 0 0 50.002151
34.240932 4.185338 4.6922016 16 0 0 0 47.65234
33.458782 4.928019 4.59974 32 0 0 0 47.265488
33.847942 5.8392148 4.6692533 24 0 0 0 46.87632
32.681999 8.1591139 4.5746269 20 0 0 0 45.700928
-21.733952 8.9728031 4.6422329 9 0 0 0 5.8492799
23.214094 8.9551525 4.6189017 60 0 0 0 43.752831
24.625999 8.8079691 4.8545322 37 0 0 0 44.14727
28.261972 8.5584545 4.7454619 42 0 0 0 44.924606
-18.397432 9.2119913 4.5670414 15 0 0 0 7.0282102
16.621578 9.4485149 4.7279062 76.5 0 0 0 41.406101
17.494087 9.3785925 4.6643724 86 0 0 0 41.792301
18.486053 9.3294439 4.8656301 56 0 0 0 42.188301
19.518436 9.2457085 4.5438914 83 0 0 0 42.583019
20.580578 9.1333761 4.7370234 77 0 0 0 42.968208
21.867476 9.064702 4.9795523 25 0 0 0 43.35886
-16.052349 9.558753 4.6072969 5 0 0 0 8.19098
-15.303496 9.6225119 4.9048066 5 0 0 0 8.5869904
-13.546221 9.9644556 4.5685844 13 0 0 0 9.7507896
10.383033 9.9665499 4.8039269 128 0 0 0 37.505848
10.865486 9.9247246 4.7301102 133.5 0 0 0 37.890152
11.384966 9.8935413 4.6615539 175 0 0 0 38.278919
11.913686 9.8458853 4.7775955 160 0 0 0 38.674633
12.473309 9.795702 4.7073689 96 0 0 0 39.071678
13.07762 9.7534761 4.6413164 121 0 0 0 39.45789
13.698284 9.6980848 4.7755218 134 0 0 0 39.841961
14.327141 9.6200657 4.9108567 69 0 0 0 40.232841
15.116092 9.6129131 4.6506443 122 0 0 0 40.627888
15.837237 9.5297165 4.798912 78 0 0 0 41.016113
-12.52636 10.18327 4.7829657 6 0 0 0 10.53896
-12.030428 10.27558 4.6897449 4 0 0 0 10.92255
-11.503451 10.318954 4.5829053 6 0 0 0 11.3119
-11.078898 10.435416 4.5157528 104 0 0 0 11.70724
5.7534657 10.336946 4.5147781 244 0 0 0 32.796909
6.2436094 10.296125 4.5984025 261 0 0 0 33.388794
6.7546563 10.260429 4.6933775 214 0 0 0 33.977711
7.3430061 10.20715 4.7034969 201.66667 0 0 0 34.629726
7.8252625 10.153704 4.7447586 138.5 0 0 0 35.150448
8.2069912 10.120108 4.8239546 145 0 0 0 35.538921
8.6182232 10.103102 4.7546825 177 0 0 0 35.93383
9.2484379 10.051938 4.7247009 133.5 0 0 0 36.52142
9.9241009 10.010063 4.703763 184 0 0 0 37.103127
-10.616739 10.762176 4.6728249 97 0 0 0 12.29181
-8.630806 11.475448 4.8018751 120.5 0 0 0 14.44634
-8.1900511 11.459051 4.7132053 172 0 0 0 14.84097
-7.7471457 11.410257 4.7853646 175 0 0 0 15.23163
-7.3332624 11.38694 4.7020841 181 0 0 0 15.61645
-6.7227659 11.32192 4.7356591 193.75 0 0 0 16.205952
-6.1511254 11.278258 4.7805758 194 0 0 0 16.782499
-5.7913518 11.262632 4.7156925 199 0 0 0 17.18117
-5.2590227 11.214511 4.6169319 229.5 0 0 0 17.76716
-4.743155 11.160046 4.5240355 252 0 0 0 18.359249
-10.6028 11.567904 4.6617212 34 0 0 0 12.87955
-10.122494 11.598785 4.7642937 111 0 0 0 13.26623
-9.6114264 11.569715 4.8422065 181 0 0 0 13.65885
-9.1137962 11.529317 4.7338605 144 0 0 0 14.05652
-63.029133 12.592299 4.7801704 11 0 0 0 2.73511
-18.643484 -34.809952 5.1768832 24 0 0 0 82.443672
-16.564812 -34.939625 5.0731006 11 0 0 0 81.655594
2.4684548 -34.353241 5.4191494 23 0 0 0 73.441216
3.3143106 -34.330494 5.4291582 29 0 0 0 73.052673
0.7654801 -33.718918 5.3028517 74 0 0 0 74.223389
4.0888929 -33.700405 5.3467927 18 0 0 0 72.664276
-23.87748 -30.562502 5.0774894 12 0 0 0 85.162338
7.2224345 -29.118296 5.4840922 19 0 0 0 70.710876
-33.115009 -19.851357 5.0550766 4450 0 0 0 91.037689
-17.422638 -8.2478304 5.3935094 35 0 0 0 92.583801
-12.865192 -8.1478815 5.0159059 10 0 0 0 90.653389
-12.018085 -8.035923 5.1172295 28 0 0 0 90.257446
-12.586998 -7.552196 5.1959753 31 0 0 0 91.037689
-11.898564 -7.1389179 5.2530489 32 0 0 0 91.037689
13.174026 -7.0926456 5.020534 53 0 0 0 57.412022
-20.021246 -6.6265993 5.3782229 19 0 0 0 94.557083
13.387508 -6.7878652 5.0376692 41 0 0 0 57.021271
12.74765 -6.4592638 5.3261452 49 0 0 0 57.021271
12.213809 -5.8166628 5.213367 55 0 0 0 56.631599
13.256064 -5.5279083 5.1799259 62 0 0 0 55.846912
-22.864895 -5.1508493 5.4024081 21 0 0 0 96.108963
-13.242963 -5.1212587 5.2046556 14 0 0 0 93.770233
11.989394 -5.3522348 5.0624437 95 0 0 0 56.236301
-19.844471 -4.9847813 5.2217441 47 0 0 0 95.713669
-13.992729 -4.6371183 5.2232471 25 0 0 0 94.557083
-12.966909 -4.6527658 5.2201414 11 0 0 0 94.169647
12.92485 -4.6570263 5.2976241 92 0 0 0 55.079601
18.301065 -4.6209526 5.395431 32 0 0 0 53.516659
-13.995852 -4.2605772 5.1848907 25 0 0 0 94.951614
-13.039895 -4.3214474 5.2061367 19 0 0 0 94.557083
15.293494 -4.2668433 5.3337331 62 0 0 0 53.900646
15.77255 -4.3972964 5.0914583 67 0 0 0 53.900646
15.686634 -3.7583771 5.2160654 56.5 0 0 0 53.315674
17.062527 -3.8646767 5.0050678 36 0 0 0 53.114689
16.098881 -2.8180249 5.084218 80 0 0 0 52.344501
48.430119 1.1135828 5.3825245 33 0 0 0 49.219582
48.518814 2.3098209 5.3957167 37 0 0 0 48.822861
45.759384 3.3076785 5.097486 7 0 0 0 48.436581
39.326908 3.8269184 5.3692722 9 0 0 0 48.052441
33.447598 4.9288206 5.4374447 21 0 0 0 47.265488
30.196705 8.3373642 5.0333509 17 0 0 0 45.31004
26.795998 8.8441591 5.2357912 14 0 0 0 44.527393
-25.462706 9.0918036 5.3338618 18 0 0 0 5.0662599
-21.827152 9.0063152 5.2348957 30 0 0 0 5.8492799
-19.374727 9.1185827 5.2721505 22 0 0 0 6.6317201
-18.412741 9.2187614 5.0717788 6 0 0 0 7.0282102
-16.657679 9.3770571 5.1824841 70 0 0 0 7.8021798
-15.916651 9.4737644 5.2494087 14.5 0 0 0 8.19098
18.69235 9.4357281 5.4359598 11 0 0 0 42.188301
19.356258 9.1758499 5.0336785 35 0 0 0 42.583019
21.000128 9.3259354 5.3977885 12 0 0 0 42.968208
-15.416054 9.688921 5.3835235 9 0 0 0 8.5869904
-14.54486 9.6407785 5.1614981 25 0 0 0 8.9773903
-14.000799 9.7780733 5.0532689 5 0 0 0 9.3656397
-13.462175 9.8993311 5.3558149 20 0 0 0 9.7507896
9.8663378 9.9620056 5.0244703 99 0 0 0 37.103127
11.324551 9.8406181 5.0100212 79 0 0 0 38.278919
12.711207 9.9836206 5.3979225 11 0 0 0 39.071678
13.086931 9.7660761 5.2528582 86.5 0 0 0 39.45789
13.684547 9.6945858 5.1862445 43 0 0 0 39.841961
14.596807 9.8064985 5.4376717 13 0 0 0 40.232841
15.028564 9.5600967 5.0689993 32 0 0 0 40.627888
16.176365 9.7354546 5.3719735 38 0 0 0 41.016113
17.854139 9.5734005 5.2591157 32 0 0 0 41.792301
-12.979009 10.039146 5.2612209 27 0 0 0 10.1446
-12.212259 10.176885 5.1007309 63.5 0 0 0 10.730755
-11.111689 10.459504 5.2717862 4 0 0 0 11.70724
8.5658722 10.045262 5.0520172 70 0 0 0 35.93383
9.6706514 10.261602 5.3973489 12 0 0 0 36.713608
10.256484 10.101116 5.3349438 63 0 0 0 37.304489
11.10453 10.151016 5.3923225 15 0 0 0 37.890152
11.571704 10.06374 5.4978013 28 0 0 0 38.278919
12.268964 10.136744 5.3135629 10 0 0 0 38.674633
-10.687373 10.561863 5.1931171 111 0 0 0 12.10159
-9.049799 11.436758 5.0520711 89 0 0 0 14.05652
-7.3044572 11.338722 5.0102005 110 0 0 0 15.61645
-10.597092 11.558384 5.2331591 36.5 0 0 0 12.87955
-10.201109 11.680341 5.3662915 105 0 0 0 13.26623
-9.7675419 11.74918 5.2896662 20 0 0 0 13.65885
-8.8017454 11.697633 5.4288459 17 0 0 0 14.44634
-8.3548164 11.684459 5.3296008 18 0 0 0 14.84097
-7.8428988 11.550593 5.1831217 58 0 0 0 15.23163
-23.512121 -37.074631 5.7472596 13 0 0 0 83.605362
-25.941105 -36.788048 5.8896661 5 0 0 0 84.388336
-24.531427 -36.663994 5.7736502 23 0 0 0 83.996353
10.492985 -34.856525 5.7505536 30 0 0 0 69.925331
11.422403 -34.82584 5.7927213 39 0 0 0 69.540062
13.318266 -34.75066 5.8875418 32 0 0 0 68.75132
30.274136 -31.934788 5.9235926 16 0 0 0 62.491966
-17.014919 -9.1040192 5.87253 32 0 0 0 91.812851
-14.645415 -7.83915 5.8771653 29 0 0 0 91.812851
-13.17065 -7.4700437 5.7300034 31 0 0 0 91.423752
-15.110469 -6.2730093 5.7914553 27 0 0 0 93.37397
-19.345116 -5.3667803 5.6217694 13 0 0 0 95.33255
-15.96763 -5.2852383 5.5430908 15 0 0 0 94.557083
13.492905 -5.2399521 5.5778027 70 0 0 0 55.465168
14.290433 -4.752604 5.8031101 47 0 0 0 54.684399
-13.955799 -4.2484274 5.5274796 23 0 0 0 94.951614
14.906949 -4.1535168 5.5815039 74 0 0 0 53.900646
16.018805 -4.045815 5.5486917 74 0 0 0 53.516659
15.086075 -3.8051395 5.6120973 52 0 0 0 53.516659
17.582014 -3.5253305 5.5727801 43 0 0 0 52.725941
15.281247 -3.1922867 5.7593732 73 0 0 0 52.855526
22.652885 -3.3940563 5.9668832 8 0 0 0 51.951599
67.436096 -3.4272652 5.8451891 7 0 0 0 50.394272
-45.212982 1.1575673 5.5814915 18 0 0 0 0
34.229309 4.1862912 5.5465899 18 0 0 0 47.65234
33.814465 5.8360605 5.5164461 23 0 0 0 46.87632
33.457092 8.3552237 5.5379796 12 0 0 0 45.700928
-23.291565 8.9546089 5.530673 7 0 0 0 5.46666
-21.677099 8.943285 5.769763 13 0 0 0 5.8492799
26.748602 8.8313217 5.9223771 10 0 0 0 44.527393
28.540882 8.6455374 5.5325851 11 0 0 0 44.924606
31.069696 8.5807867 5.9780178 18 0 0 0 45.31004
-19.327393 9.0952673 5.7849622 19 0 0 0 6.6317201
-18.391916 9.2073069 5.5721431 4 0 0 0 7.0282102
-16.634195 9.3588791 5.6392961 47 0 0 0 7.8021798
19.80308 9.3894806 5.6893158 30 0 0 0 42.583019
22.096975 9.1666842 5.6197267 75 0 0 0 43.35886
25.163406 9.0023651 5.619513 27 0 0 0 44.14727
-15.258801 9.5918083 5.7703037 65 0 0 0 8.5869904
-13.443649 9.8770342 5.751471 88 0 0 0 9.7507896
13.136329 9.8120193 5.8813195 89 0 0 0 39.45789
13.675893 9.6923561 5.806406 49 0 0 0 39.841961
15.334236 9.7599468 5.6209979 59 0 0 0 40.627888
16.090212 9.6902676 5.8087878 23 0 0 0 41.016113
17.05151 9.6957664 5.5812659 23 0 0 0 41.406101
17.792328 9.5430079 5.7453351 28 0 0 0 41.792301
-15.007276 10.489511 5.8657303 5 0 0 0 9.3656397
-12.957468 10.013708 5.6480417 60 0 0 0 10.1446
-12.476385 10.135633 5.5462413 33 0 0 0 10.53896
-11.554561 10.356671 5.7342892 92 0 0 0 11.3119
10.488549 10.07968 5.5714421 76 0 0 0 37.505848
11.078489 10.130151 5.7501822 4 0 0 0 37.890152
12.115486 10.020556 5.6374211 74 0 0 0 38.674633
-10.683947 10.556631 5.5551891 120 0 0 0 12.10159
-10.547618 11.496621 5.775022 51 0 0 0 12.87955
-10.198137 11.674659 5.7403245 112 0 0 0 13.26623
-9.7795105 11.761393 5.6668043 81 0 0 0 13.65885
-9.3292484 11.791896 5.5731602 27 0 0 0 14.05652
-27.448732 -36.968849 6.0226436 9 0 0 0 84.771873
12.820491 -36.072201 6.0521159 88 0 0 0 69.140121
20.029287 -35.538433 6.4709439 21 0 0 0 66.415474
-17.571049 -34.828243 6.0811791 24 0 0 0 82.050789
2.4677241 -34.369225 6.2748799 18 0 0 0 73.441216
3.3153644 -34.360928 6.2887506 21 0 0 0 73.052673
4.1509833 -34.224213 6.2830615 28 0 0 0 72.664276
17.235828 -34.431377 6.1032801 35 0 0 0 67.196831
20.136684 -33.767384 6.2412796 23 0 0 0 66.022301
24.974791 -32.150494 6.4790621 4 0 0 0 64.067528
-17.346395 -9.2773895 6.4721985 24 0 0 0 91.812851
-16.714037 -8.4193878 6.1595325 30 0 0 0 92.203247
-14.691485 -7.8637152 6.3035922 27 0 0 0 91.812851
-16.168385 -7.1813436 6.2592692 14 0 0 0 92.985039
-14.495357 -6.868 6.069983 30 0 0 0 92.583801
-19.795483 -6.0217218 6.30094 28 0 0 0 94.951614
-19.971512 -5.0205636 6.2731819 7 0 0 0 95.713669
-21.292822 -4.7970181 6.1113796 11 0 0 0 96.108963
16.244379 -3.6725328 6.4148836 40 0 0 0 53.114689
24.319975 -3.033061 6.3810492 21 0 0 0 51.558407
22.269308 -2.7771287 6.4075127 5 0 0 0 51.558407
28.616564 -2.8615236 6.0633154 18 0 0 0 51.173031
23.328728 -2.3279276 6.1064086 21 0 0 0 51.173031
45.529858 3.3019049 6.1974955 9 0 0 0 48.436581
39.091072 3.8065653 6.3120794 15 0 0 0 48.052441
34.333454 4.2013812 6.4223161 10 0 0 0 47.65234
33.590126 4.95224 6.3036327 8 0 0 0 47.265488
33.789574 5.8343816 6.3639922 10 0 0 0 46.87632
34.193508 6.7743177 6.4669218 9 0 0 0 46.481529
28.369795 8.596633 6.2318473 9 0 0 0 44.924606
22.075125 9.1602793 6.2037988 105 0 0 0 43.35886
25.224752 9.03195 6.2919669 26 0 0 0 44.14727
13.13485 9.81353 6.2851014 91 0 0 0 39.45789
13.669172 9.6950846 6.4250441 36 0 0 0 39.841961
16.146275 9.7226439 6.2972755 17 0 0 0 41.016113
17.877445 9.5951014 6.2748046 29 0 0 0 41.792301
-24.852314 -37.141365 6.9541345 4 0 0 0 83.996353
-23.542288 -37.119587 6.8418002 13 0 0 0 83.605362
12.813714 -36.059479 6.9980111 75 0 0 0 69.140121
7.7905431 -35.038029 6.5512228 21 0 0 0 71.107552
9.596736 -34.970936 6.6242952 13 0 0 0 70.314079
10.491174 -34.857533 6.6524172 25 0 0 0 69.925331
11.407973 -34.788467 6.6934624 23 0 0 0 69.540062
13.317363 -34.754013 6.810142 31 0 0 0 68.75132
14.24944 -34.620213 6.8533359 26 0 0 0 68.369888
15.219466 -34.544243 6.9130969 27 0 0 0 67.976517
16.222816 -34.501816 6.9851151 25 0 0 0 67.583107
35.049107 -33.508568 6.5307055 5 0 0 0 61.708553
27.268402 -31.754042 6.6670589 15 0 0 0 63.279488
-17.518351 -8.3004274 6.8548741 28 0 0 0 92.583801
-29.07338 -7.3022547 6.89885 21 0 0 0 95.713669
-16.295296 -6.7648358 6.6753268 26 0 0 0 93.37397
27.657167 -2.7598464 6.5445604 11 0 0 0 51.173031
27.573347 -2.0675142 6.5109439 13 0 0 0 50.781433
27.909037 -1.4028473 6.5793643 13 0 0 0 50.394272
48.416824 1.1243744 6.5748153 39 0 0 0 49.219582
48.513802 2.3208857 6.5923867 39 0 0 0 48.822861
-21.710615 8.9512691 6.9285822 25 0 0 0 5.8492799
26.845078 8.8710613 6.638731 15 0 0 0 44.527393
28.333033 8.5937119 6.9517574 11 0 0 0 44.924606
31.064001 8.5821362 6.7727652 15 0 0 0 45.31004
19.873487 9.4322624 6.8029718 21 0 0 0 42.583019
22.079218 9.1646376 6.8017621 69 0 0 0 43.35886
25.132418 9.0017023 6.927536 18 0 0 0 44.14727
-15.158252 9.518424 6.5985341 4 0 0 0 8.5869904
14.669288 9.86654 6.7770839 47 0 0 0 40.232841
16.147511 9.7336788 6.7641721 33 0 0 0 41.016113
17.872776 9.5911932 6.7773395 31 0 0 0 41.792301
-69.182762 12.070412 6.9212875 4 0 0 0 2.3464301
-27.533039 -37.080257 7.1834636 10 0 0 0 84.771873
-26.060007 -36.954437 7.0350218 6 0 0 0 84.388336
8.6840687 -34.993237 7.4711781 43 0 0 0 70.710876
17.204529 -34.373535 7.0455327 33 0 0 0 67.196831
55.735573 -33.561234 7.1842222 8 0 0 0 58.191761
30.349308 -32.01643 7.0319071 5 0 0 0 62.491966
31.196644 -31.33275 7.0512228 15 0 0 0 62.106129
-14.989503 -12.304255 7.3278351 15 0 0 0 88.689476
-17.393543 -8.7691307 7.3642864 17 0 0 0 92.203247
17.700979 -4.4619355 7.0253038 14 0 0 0 53.516659
39.616268 3.8602133 7.3845382 7 0 0 0 48.052441
34.399521 4.2118196 7.2902722 9 0 0 0 47.65234
33.626919 4.9601002 7.1497698 10 0 0 0 47.265488
33.894089 5.8549938 7.2328091 8 0 0 0 46.87632
34.196957 6.7777672 7.328351 32 0 0 0 46.481529
34.398335 7.7018495 7.4073381 16 0 0 0 46.095528
24.769417 8.8747635 7.4850459 38 0 0 0 44.14727
26.952755 8.9093342 7.365181 19 0 0 0 44.527393
18.636078 9.4259739 7.4932256 28 0 0 0 42.188301
19.90134 9.4438047 7.3599272 7 0 0 0 42.583019
21.03274 9.3527117 7.118073 9 0 0 0 42.968208
22.079428 9.1718941 7.3933597 61 0 0 0 43.35886
16.175709 9.7531958 7.2416611 6 0 0 0 41.016113
16.868984 9.61057 7.4440036 40 0 0 0 41.406101
17.054653 9.7132835 7.0412059 5 0 0 0 41.406101
17.95936 9.6481714 7.3139696 21 0 0 0 41.792301
-18.121153 10.786422 7.2605677 7 0 0 0 8.19098
-15.522199 12.012302 7.2443686 5 0 0 0 10.1446
-15.944417 13.642449 7.2404904 4 0 0 0 10.92255
-15.584108 14.007445 7.2326236 4 0 0 0 11.3119
9.5843916 -34.933662 7.5092306 24 0 0 0 70.314079
10.491014 -34.863972 7.5501571 24 0 0 0 69.925331
11.405503 -34.787411 7.5947742 22 0 0 0 69.540062
12.340891 -34.73848 7.6508064 31 0 0 0 69.140121
13.284626 -34.674454 7.7091064 32 0 0 0 68.75132
14.241985 -34.607468 7.7725139 26 0 0 0 68.369888
15.217422 -34.544636 7.8428998 25 0 0 0 67.976517
16.210819 -34.481129 7.9194322 21 0 0 0 67.583107
17.179937 -34.329025 7.9820356 31 0 0 0 67.196831
35.051586 -33.513271 7.7334967 12 0 0 0 61.708553
48.407909 1.1268144 7.7749844 32 0 0 0 49.219582
48.52507 2.3242469 7.7992482 36 0 0 0 48.822861
33.472244 4.9457378 7.9486051 18 0 0 0 47.265488
32.766132 8.1979179 7.9275174 18 0 0 0 45.700928
-21.769218 8.9792242 7.524756 20 0 0 0 5.8492799
23.135717 8.9474897 7.6707554 45 0 0 0 43.752831
26.321659 8.7040119 7.8859706 34 0 0 0 44.527393
28.159033 8.5438347 7.6350226 25 0 0 0 44.924606
30.795406 8.5167723 7.5000668 23 0 0 0 45.31004
-18.400314 9.1997843 7.5760913 29 0 0 0 7.0282102
17.475784 9.3919764 7.6079831 41 0 0 0 41.792301
18.449095 9.3343143 7.9284716 38 0 0 0 42.188301
19.438517 9.2358685 7.7221518 41 0 0 0 42.583019
20.617687 9.167057 7.5396152 29 0 0 0 42.968208
21.769823 9.0418444 7.8764124 28 0 0 0 43.35886
-26.116928 -37.032864 8.1714725 13 0 0 0 84.388336
20.462807 -34.321136 8.3177071 5 0 0 0 66.022301
28.854731 -33.601276 8.150732 17 0 0 0 63.279488
68.784012 -30.65093 8.3274002 5 0 0 0 56.236301
38.99099 3.8019271 8.2358799 10 0 0 0 48.052441
34.220798 4.1984024 8.0998554 12 0 0 0 47.65234
33.851002 5.8562508 8.0679188 12 0 0 0 46.87632
30.251675 8.3695726 8.1425009 20 0 0 0 45.31004
23.107498 8.9346085 8.2772112 35 0 0 0 43.752831
24.617802 8.8281279 8.0864563 31 0 0 0 44.14727
28.211283 8.562459 8.3848515 28 0 0 0 44.924606
19.466867 9.2518473 8.2646971 30 0 0 0 42.583019
20.574062 9.1589308 8.0803146 22 0 0 0 42.968208
21.791014 9.0621624 8.4670906 26 0 0 0 43.35886
28.59535 -36.806988 8.5675049 22 0 0 0 64.067528
12.826175 -36.087025 8.8853102 48 0 0 0 69.140121
-14.388594 -34.637672 8.6220865 23 0 0 0 80.865082
13.307481 -34.721474 8.6311369 27 0 0 0 68.75132
14.258373 -34.635334 8.6971006 34 0 0 0 68.369888
15.223599 -34.54731 8.7692375 31 0 0 0 67.976517
16.212572 -34.47398 8.8520346 16 0 0 0 67.583107
17.219315 -34.397064 8.9411964 15 0 0 0 67.196831
35.138119 -33.598248 8.9583912 9 0 0 0 61.708553
25.03867 -32.238522 8.5144558 14 0 0 0 64.067528
28.821159 -31.945375 8.9833078 13 0 0 0 62.886089
48.415009 1.1296277 8.978261 31 0 0 0 49.219582
34.299519 4.2104006 8.9702673 14 0 0 0 47.65234
33.371319 4.93328 8.7564421 18 0 0 0 47.265488
30.001215 8.3032837 8.8523359 8 0 0 0 45.31004
32.797897 8.2087822 8.7686739 13 0 0 0 45.700928
22.905216 8.8684559 8.8119907 20 0 0 0 43.752831
24.576622 8.8112316 8.7218895 36 0 0 0 44.14727
26.192545 8.6692257 8.5298872 20 0 0 0 44.527393
20.57497 9.1619081 8.6358891 36 0 0 0 42.968208
-70.093269 12.217424 8.7555695 26 0 0 0 2.3464301
-57.476536 12.941065 8.7055197 7 0 0 0 3.12608
-26.110071 -37.020828 9.2833805 27 0 0 0 84.388336
-10.469806 -34.356853 9.1475935 27 0 0 0 79.307022
20.530045 -34.423996 9.3258305 4 0 0 0 66.022301
28.461761 -33.147121 9.1177607 6 0 0 0 63.279488
36.524464 -33.24575 9.1039839 6 0 0 0 61.317661
30.104904 -31.763844 9.1403904 11 0 0 0 62.491966
48.505928 2.3261545 9.0016546 41 0 0 0 48.822861
26.826155 8.8759651 9.4370098 9 0 0 0 44.527393
28.338017 8.6090422 9.1545849 6 0 0 0 44.924606
22.073196 9.1817617 9.1651945 31 0 0 0 43.35886
-62.458809 12.467154 9.4097099 9 0 0 0 2.73511
-51.762676 12.990052 9.2027035 5 0 0 0 3.51279
13.331581 -34.789848 9.5639124 24 0 0 0 68.75132
14.254703 -34.631756 9.616868 22 0 0 0 68.369888
15.230484 -34.567909 9.7031164 27 0 0 0 67.976517
16.204231 -34.461037 9.7849731 31 0 0 0 67.583107
17.214462 -34.391907 9.8854761 18 0 0 0 67.196831
45.677395 3.3210375 9.621109 5 0 0 0 48.436581
34.001152 4.1762137 9.7473936 10 0 0 0 47.65234
33.542587 4.9610152 9.6471109 6 0 0 0 47.265488
33.931961 5.8754644 9.7952328 10 0 0 0 46.87632
25.035301 8.987812 9.5404053 16 0 0 0 44.14727
28.117916 8.5397549 9.8141851 6 0 0 0 44.924606
31.102316 8.6161184 9.9730368 8 0 0 0 45.31004
13.243673 -34.566734 10.423599 21 0 0 0 68.75132
20.461391 -34.313042 10.278316 5 0 0 0 66.022301
27.742634 -33.952446 10.221719 5 0 0 0 63.666618
35.054668 -33.520882 10.133366 7 0 0 0 61.708553
48.416245 1.1322898 10.173731 29 0 0 0 49.219582
48.512367 2.3292701 10.20152 41 0 0 0 48.822861
39.042587 3.8189106 10.177354 7 0 0 0 48.052441
25.215956 9.0552177 10.269066 11 0 0 0 44.14727
-69.03997 12.03388 10.352183 6 0 0 0 2.3464301
-51.27858 12.867922 10.411049 13 0 0 0 3.51279
14.245688 -34.615276 10.543486 29 0 0 0 68.369888
15.218662 -34.546223 10.636186 16 0 0 0 67.976517
16.22797 -34.516228 10.749502 20 0 0 0 67.583107
17.185801 -34.339325 10.825827 25 0 0 0 67.196831
22.721628 -34.170738 10.564063 4 0 0 0 65.238548
23.911203 -34.112564 10.727667 6 0 0 0 64.83963
32.401638 -34.17429 10.987769 11 0 0 0 62.491966
34.034622 4.1887097 10.604323 9 0 0 0 47.65234
33.613609 8.4248228 10.706502 5 0 0 0 45.700928
26.734955 8.8617744 10.794499 7 0 0 0 44.527393
28.373997 8.6309824 10.635075 10 0 0 0 44.924606
30.929943 8.5655708 10.715565 6 0 0 0 45.31004
32.501999 -36.009365 11.312656 19 0 0 0 62.886089
13.266242 -34.613079 11.35118 25 0 0 0 68.75132
14.249758 -34.613316 11.465607 23 0 0 0 68.369888
33.403458 -33.541683 11.048464 9 0 0 0 62.106129
48.55537 -0.047904983 11.393471 7 0 0 0 49.608139
48.424778 1.1435829 11.365073 33 0 0 0 49.219582
48.497547 2.339854 11.390872 18 0 0 0 48.822861
33.713139 4.1455708 11.348881 15 0 0 0 47.65234
33.454552 4.952909 11.298223 18 0 0 0 47.265488
33.905239 5.8760729 11.493134 10 0 0 0 46.87632
30.600815 8.4890308 11.385833 14 0 0 0 45.31004
33.164806 8.3093872 11.413836 12 0 0 0 45.700928
28.325109 8.6189346 11.346357 12 0 0 0 44.924606
15.28986 -34.696114 11.61694 5 0 0 0 67.976517
16.202652 -34.451656 11.668161 4 0 0 0 67.583107
17.189451 -34.336166 11.771712 22 0 0 0 67.196831
34.321957 7.7057524 11.743633 6 0 0 0 46.095528
32.42868 -34.205376 12.157382 7 0 0 0 62.491966
33.85931 4.1778717 12.239025 6 0 0 0 47.65234
30.247326 8.3940268 12.028364 15 0 0 0 45.31004
32.881351 8.2536898 12.153198 12 0 0 0 45.700928
17.198473 -34.373672 12.736092 27 0 0 0 67.196831
48.319427 -0.045210436 12.528995 5 0 0 0 49.608139
48.451847 1.1468531 12.565645 19 0 0 0 49.219582
48.536472 2.3445344 12.597376 26 0 0 0 48.822861
34.480125 7.7568078 12.669279 13 0 0 0 46.095528
-85.082306 12.697026 12.70334 19 0 0 0 1.95459
15.260404 -34.623158 13.460521 20 0 0 0 67.976517
16.23592 -34.516163 13.573217 22 0 0 0 67.583107
17.184513 -34.320423 13.661543 15 0 0 0 67.196831
48.404278 -0.042795312 13.758022 4 0 0 0 49.608139
48.442421 1.1492934 13.771632 21 0 0 0 49.219582
48.511791 2.3461821 13.802234 22 0 0 0 48.822861
34.607956 6.8975873 13.521459 4 0 0 0 46.481529
39.026062 3.8412936 14.061052 7 0 0 0 48.052441
16.242531 -34.534935 14.517523 6 0 0 0 67.583107
17.193218 -34.34227 14.613159 6 0 0 0 67.196831
48.43737 1.160289 14.966727 24 0 0 0 49.219582
