# .PCD v0.7 - Point Cloud Data file format
VERSION 0.7
FIELDS x y z intensity normal_x normal_y normal_z curvature
SIZE 4 4 4 4 4 4 4 4
TYPE F F F F F F F F
COUNT 1 1 1 1 1 1 1 1
WIDTH 905
HEIGHT 1
VIEWPOINT 0 0 0 1 0 0 0
POINTS 905
DATA ascii
-0.23927963 6.4680095 -0.71160269 263.66666 0 0 0 24.192877
4.2174234 6.2423077 -0.66308916 322.75 0 0 0 34.149757
7.2096648 6.2709365 -0.61884069 276.66666 0 0 0 38.264652
-14.111814 6.6076417 -0.59227514 229 0 0 0 6.6247802
-13.605475 6.779408 -0.5768373 261 0 0 0 7.0247002
-13.167089 6.8288803 -0.80238628 193.33333 0 0 0 7.2802796
-6.3463407 6.557198 -0.77849257 228 0 0 0 12.47092
-1.5457129 6.5010166 -0.73168629 266 0 0 0 21.07201
-1.2166933 6.5244765 -0.72761267 238 0 0 0 21.851572
-0.72411609 6.5126462 -0.71939319 286.66666 0 0 0 23.018761
3.3812158 6.8508153 -0.66959786 268 0 0 0 32.000771
3.6857331 6.6235366 -0.66535878 270.33334 0 0 0 32.781273
6.8721981 6.7652626 -0.62337828 250.5 0 0 0 37.2878
-12.649515 7.0917206 -0.90158308 323 0 0 0 7.7983899
-12.01457 7.1248779 -0.86701965 90 0 0 0 8.1904402
2.9015191 7.171236 -0.67668736 258 0 0 0 30.82604
3.0598843 7.0571141 -0.67323166 266 0 0 0 31.2188
6.3984237 7.4907861 -0.63533479 314 0 0 0 35.918728
6.6461334 7.2220969 -0.63381028 267 0 0 0 36.505554
9.9856215 7.0743327 -0.50352579 406 0 0 0 39.824089
10.020169 7.4758143 -0.51453578 443 0 0 0 39.434921
-2.6545334 7.7711897 -0.60264945 106 0 0 0 19.513821
4.1736221 7.7029262 -0.55647117 204 0 0 0 32.588272
4.7640743 7.6268783 -0.5735566 181 0 0 0 33.569061
5.1578889 7.6114502 -0.58815277 263 0 0 0 34.146019
6.1238813 7.7338915 -0.63536918 158.5 0 0 0 35.326248
-8.7945976 8.268631 -0.74553341 36 0 0 0 11.69633
-3.2652605 8.2306318 -0.76116914 189.66667 0 0 0 18.727547
-2.5640209 8.1651268 -0.7357567 439 0 0 0 19.90649
-2.2492144 8.2035627 -0.73188794 212.5 0 0 0 20.491131
-1.8098928 8.1484365 -0.71850371 122 0 0 0 21.26778
-1.3117093 8.2956438 -0.7245934 199.66667 0 0 0 22.238237
-0.790681 8.2173624 -0.71279645 192.5 0 0 0 23.21637
-0.2765964 8.0574026 -0.6966632 144.66667 0 0 0 24.192877
6.0270362 8.2140951 -0.6562655 223 0 0 0 34.737942
9.7700529 8.4807692 -0.5316785 218 0 0 0 38.261791
10.126361 8.3607035 -0.54086274 166 0 0 0 38.652081
10.527496 8.263257 -0.55253863 198 0 0 0 39.052952
-9.7630396 8.7465105 -0.81267875 67 0 0 0 11.30286
-8.7551613 8.6461706 -0.76102376 72 0 0 0 12.08805
-8.4081907 8.7184114 -0.74881679 51 0 0 0 12.47092
3.6924856 8.775033 -0.60496843 317 0 0 0 31.022419
4.3228612 8.723731 -0.62110424 259 0 0 0 32.000771
5.1282139 8.6676121 -0.64569914 367 0 0 0 33.167278
8.8960991 8.5288534 -0.50350434 275 0 0 0 37.485298
9.3304768 8.5126276 -0.51756638 266 0 0 0 37.880089
-2.8186884 9.4157867 -0.60849559 502 0 0 0 20.101505
-2.3141041 9.3798008 -0.59851503 392 0 0 0 20.878876
-1.8237901 9.3395519 -0.59000689 415.5 0 0 0 21.6591
-1.3476713 9.3098249 -0.58386648 414.5 0 0 0 22.430031
-0.7653628 9.2638597 -0.57790333 499 0 0 0 23.410273
-0.19263162 9.2085466 -0.57354069 561.5 0 0 0 24.390274
-12.176874 -27.47032 -0.49218938 290 0 0 0 81.264488
7.2009072 -26.052156 -0.43684733 150 0 0 0 70.316841
3.1864233 -25.889772 -0.41740784 144 0 0 0 72.671631
9.2555256 -25.894238 -0.44733852 71 0 0 0 69.147209
12.189683 -25.795355 -0.46937269 101 0 0 0 67.58757
-9.8650475 -7.3202848 -0.48988065 247 0 0 0 89.480247
-9.2038403 -7.1870465 -0.46328965 206 0 0 0 89.093712
-1.5768352 -7.0113263 -0.43977872 360 0 0 0 78.134491
0.68808025 -7.0688844 -0.43438172 301 0 0 0 73.058418
1.3850129 -7.0140676 -0.43797228 361 0 0 0 71.493233
1.5792594 -7.079525 -0.26762921 202 0 0 0 71.108994
-9.3489132 -6.5895286 -0.31457376 173 0 0 0 89.875679
-7.4054298 -6.8844337 -0.39453375 216 0 0 0 87.720917
-5.8236418 -6.7570543 -0.34189439 495 0 0 0 85.968475
-5.0227232 -6.7780118 -0.3202849 243 0 0 0 84.787666
-4.6333246 -6.9394879 -0.31575271 463 0 0 0 84.008385
-4.2000275 -6.6404457 -0.2959303 271 0 0 0 83.617172
-3.8795149 -6.8527145 -0.29507634 547 0 0 0 82.837822
-3.0474796 -6.8772826 -0.46330374 335 0 0 0 81.264488
-2.2105603 -6.6790504 -0.3426559 501 0 0 0 79.703033
-1.5451573 -6.8704691 -0.25800443 331 0 0 0 78.134491
-1.2611538 -6.7602096 -0.2534599 297 0 0 0 77.556725
-0.62479752 -6.8788009 -0.30888152 298.66666 0 0 0 76.057693
-0.13126536 -6.6907663 -0.20334998 377.75 0 0 0 74.914246
0.32461926 -6.7871928 -0.30605099 168.66667 0 0 0 73.837364
0.655797 -6.775651 -0.24834564 358 0 0 0 73.057724
1.1301724 -6.8929343 -0.19967754 400 0 0 0 72.014946
1.7291358 -6.9436612 -0.35076207 550.75 0 0 0 70.710655
2.4017136 -6.9264064 -0.39110005 403.66666 0 0 0 69.277893
3.7813077 -6.7022448 -0.47803384 336.5 0 0 0 66.407791
-5.148849 -6.2821283 -0.10924158 363 0 0 0 85.571617
-4.8547201 -6.0716014 -0.1986647 293 0 0 0 85.373993
-3.6478019 -6.0912638 -0.26262853 240 0 0 0 83.225967
-3.4218307 -6.4061341 -0.3575021 196.5 0 0 0 82.439728
-2.98879 -6.3225656 -0.25726175 569 0 0 0 81.667442
-2.2612031 -6.3122516 -0.29845917 295.33334 0 0 0 80.096756
-1.7960893 -6.1863728 -0.23312359 197.5 0 0 0 79.115379
-0.62116635 -6.2737269 -0.073100269 505 0 0 0 76.188995
-0.15320767 -6.2092609 -0.37497258 270 0 0 0 75.011154
1.274631 -6.4515061 -0.078593664 399 0 0 0 71.493233
1.7809167 -6.4769907 -0.40983748 415 0 0 0 70.316841
2.6319969 -6.387701 -0.4237929 566 0 0 0 68.369209
3.8216753 -6.0622921 -0.35636157 353 0 0 0 65.631157
4.7480841 -6.1841345 -0.43999591 488 0 0 0 64.159691
6.9984579 -6.0566082 -0.36197138 217 0 0 0 60.919079
-15.713511 -5.6237473 -0.28004932 50 0 0 0 94.17424
-13.849911 -5.7395487 -0.24643146 60 0 0 0 93.388969
-11.063414 -5.9183707 -0.1978668 127 0 0 0 91.82399
-10.632995 -5.6861882 -0.48357728 162 0 0 0 91.82399
-9.7098856 -5.5040231 -0.44431674 124 0 0 0 91.436043
-9.1269417 -5.6274605 -0.42465669 251 0 0 0 90.860001
-5.7443805 -5.8930664 -0.31344301 268 0 0 0 86.945679
-5.2775908 -5.5507927 -0.28766799 285 0 0 0 86.744629
-4.0272465 -5.7254734 -0.17345199 75.5 0 0 0 84.394882
-3.5296674 -5.896524 -0.085252009 307 0 0 0 83.225967
-2.8919296 -5.750742 -0.15554748 409.5 0 0 0 82.052361
-2.1848075 -5.6653056 -0.21801671 424 0 0 0 80.487869
-1.8312267 -5.7036095 -0.11589519 169 0 0 0 79.575851
-1.0028964 -5.7625675 -0.49533239 327 0 0 0 77.358955
-0.73636818 -5.7159224 -0.28976119 296.39999 0 0 0 76.653587
-0.35884237 -5.7638612 -0.28013486 304.5 0 0 0 75.597763
0.26459002 -5.5285563 -0.19487534 74 0 0 0 73.834709
0.97189188 -5.6553741 -0.27285376 174 0 0 0 71.882477
1.1860428 -5.6470528 -0.27641812 166.5 0 0 0 71.301117
1.8006088 -5.718401 -0.069203034 210.5 0 0 0 69.737244
2.3828533 -5.782268 -0.074489087 95 0 0 0 68.369209
3.3674374 -5.9029551 -0.21944773 356.79999 0 0 0 66.32695
3.9204066 -5.5923223 -0.33812997 390.5 0 0 0 64.84362
4.4284778 -5.6964803 -0.094874017 148 0 0 0 64.058777
4.7723899 -5.6946983 -0.28053537 490 0 0 0 63.474327
5.3056688 -5.8764777 -0.30234 286 0 0 0 62.879601
5.6395988 -5.6609931 -0.30634683 299 0 0 0 62.095047
6.164732 -5.7500839 -0.22565708 492.5 0 0 0 61.513199
7.091363 -5.8376045 -0.24779138 294.5 0 0 0 60.527519
12.913574 -5.7333217 -0.23482338 136 0 0 0 56.233078
15.738123 -5.6375341 -0.28673732 178 0 0 0 55.071873
-15.187411 -5.0184064 -0.26752913 182 0 0 0 94.573265
-11.466146 -5.4272604 -0.20160869 223 0 0 0 92.596153
-10.717628 -5.3984079 -0.33383045 190.5 0 0 0 92.212524
-9.2673626 -5.2556162 -0.16188933 215 0 0 0 91.436043
-8.8332462 -5.3005371 -0.15483889 178 0 0 0 91.05471
-8.0926542 -5.1311679 -0.14098513 194 0 0 0 90.665291
-7.9247627 -5.3010015 -0.25641751 216.5 0 0 0 90.274521
-6.6332235 -5.1842756 -0.11781115 207 0 0 0 89.093712
-6.3062339 -5.269835 -0.24856226 246.33333 0 0 0 88.57029
-5.8159332 -5.024981 -0.10363369 218 0 0 0 88.304688
-5.3078132 -5.1904783 -0.098042741 513.5 0 0 0 87.337997
-4.7536273 -5.3180056 -0.22378305 330 0 0 0 86.257721
-4.2603965 -5.4658198 -0.25672957 318 0 0 0 85.176369
-3.7331443 -5.3072581 -0.39624372 475 0 0 0 84.394882
-3.4091351 -5.3903317 -0.23402111 401.33334 0 0 0 83.617889
-2.6961288 -5.150609 -0.39758536 382.33334 0 0 0 82.314178
-2.2177064 -5.151978 -0.18033402 311.28571 0 0 0 81.103294
-1.8255496 -5.1028929 -0.32294267 153 0 0 0 80.094444
-1.3644996 -5.3508754 -0.17122982 168.66667 0 0 0 78.594978
-0.73699003 -5.4000621 -0.29106629 230 0 0 0 76.76973
-0.18197401 -5.3232069 -0.2714124 99.333336 0 0 0 75.14325
0.30867139 -5.1598945 -0.23924591 82.75 0 0 0 73.642967
0.90766466 -5.2821374 -0.25401393 171.5 0 0 0 71.882477
1.551966 -5.1544671 -0.18972507 146 0 0 0 69.935234
2.2254043 -5.0490952 -0.16276988 127.75 0 0 0 67.979675
2.6655049 -5.1642246 -0.20947179 192.5 0 0 0 66.99733
3.3782449 -5.2215643 -0.14989398 77.5 0 0 0 65.430664
4.3130298 -5.0209541 -0.084766276 342 0 0 0 63.275791
4.8936353 -5.225534 -0.22718701 397 0 0 0 62.586815
5.1909189 -5.2761831 -0.37151873 695 0 0 0 62.198009
5.6911988 -5.1784072 -0.2945427 311 0 0 0 61.315441
7.7499003 -5.4754219 -0.37417722 876 0 0 0 59.355247
8.142705 -5.1712227 -0.26271734 374.5 0 0 0 58.580528
10.868642 -5.1506543 -0.19409227 168 0 0 0 56.628399
14.056196 -5.4295731 -0.25428516 78 0 0 0 55.453114
-24.003159 -4.7701302 -0.43416387 50 0 0 0 96.509811
-21.76421 -4.8842826 -0.39151433 30 0 0 0 96.115456
-15.363914 -4.6612825 -0.26934722 138 0 0 0 94.959877
-10.402445 -4.6153426 -0.17751977 509 0 0 0 92.990349
-9.6462555 -4.5651808 -0.42467225 219 0 0 0 92.596153
-6.6238742 -4.9201393 -0.11509289 447 0 0 0 89.480247
-5.4949503 -4.9886279 -0.098466225 518 0 0 0 87.912567
-2.6962662 -4.904211 -0.062339749 527.5 0 0 0 82.638779
0.23606692 -4.8809319 -0.12847349 80 0 0 0 73.842308
1.3544614 -4.9288502 -0.17945927 118.5 0 0 0 70.321808
1.7789528 -4.8159065 -0.18034697 181.25 0 0 0 68.954788
2.3022079 -4.8009567 -0.23511076 249.33333 0 0 0 67.455994
2.7074025 -4.8051844 -0.062583216 167 0 0 0 66.402382
3.1919181 -4.7191997 -0.16127464 379 0 0 0 65.101318
3.7879403 -4.8761411 -0.17751677 318.33334 0 0 0 64.061729
4.2193828 -4.9144845 -0.24054043 200 0 0 0 63.275791
5.2709103 -4.9160614 -0.27363628 467 0 0 0 61.513199
5.7504272 -4.7947235 -0.33398587 666.5 0 0 0 60.627205
6.1282215 -4.6798506 -0.25022334 328.25 0 0 0 59.946655
6.6229525 -4.6796451 -0.11622666 241 0 0 0 59.355247
7.1210966 -4.772727 -0.12535559 446 0 0 0 58.97031
7.6926508 -4.625206 -0.24384603 283.5 0 0 0 58.19099
8.1376152 -4.6247802 -0.37081543 304 0 0 0 57.793087
8.5058327 -4.8310432 -0.14966491 274 0 0 0 57.793087
9.2449951 -4.8101091 -0.29088295 374.5 0 0 0 57.210609
9.7747297 -4.7820225 -0.43839872 535 0 0 0 56.823013
10.187111 -4.5280123 -0.45083877 246 0 0 0 56.233078
11.281358 -4.6845207 -0.49797249 438 0 0 0 55.839912
14.840142 -4.9084206 -0.26658508 177 0 0 0 54.672901
-16.602308 -4.158011 -0.29098505 139 0 0 0 95.73455
-15.321936 -4.2404222 -0.26697502 42 0 0 0 95.34333
-10.461506 -4.0390344 -0.17537777 16 0 0 0 93.788841
6.7035232 -4.4958515 -0.31352332 336 0 0 0 58.97031
8.0798655 -4.3308792 -0.13858363 215 0 0 0 57.403591
10.521447 -4.3672705 -0.1831506 379 0 0 0 55.839912
13.905019 -4.2234936 -0.24607557 212 0 0 0 54.282261
15.587291 -4.3178158 -0.27852991 77 0 0 0 53.901859
16.890743 -4.234004 -0.30329016 56 0 0 0 53.507328
19.692381 -4.4235497 -0.35790476 118 0 0 0 53.113312
-10.36471 -3.9997144 -0.4451589 105 0 0 0 93.788841
19.756256 -3.9304085 -0.35793874 91 0 0 0 52.726002
22.071678 -3.8288984 -0.40281311 118 0 0 0 52.334927
22.849813 -3.387435 -0.41729721 36 0 0 0 51.947151
25.822142 -3.1810014 -0.47530118 26 0 0 0 51.553951
-4.7496872 -0.63785845 -0.20585844 298.71429 0 0 0 97.517906
-5.0108953 -0.49315387 -0.43182141 164 0 0 0 98.07164
-4.8334413 -0.40681416 -0.21034941 355.14285 0 0 0 98.292786
-4.7063046 0.21186762 -0.20736688 124.93333 0 0 0 7.0346675
-4.2182608 0.82781434 -0.21557555 134.76923 0 0 0 2.7941623
-4.2058477 1.0217047 -0.18956417 168.5 0 0 0 3.5188301
24.024281 1.1907523 -0.44155839 20 0 0 0 48.816689
24.125862 1.7913573 -0.44479692 20 0 0 0 48.427639
23.547359 2.9182696 -0.43642753 14 0 0 0 47.647438
9.125515 3.8038266 -0.1609709 606 0 0 0 43.341339
9.5104475 3.6910112 -0.16742977 285 0 0 0 43.734261
10.131516 3.6453278 -0.3105976 270.5 0 0 0 44.127151
11.02522 3.6622195 -0.19588822 264 0 0 0 44.510647
23.605534 3.5168569 -0.43953252 13 0 0 0 47.250431
-4.1544251 4.4763818 -0.28436548 506 0 0 0 12.86117
-3.6938303 4.4130988 -0.29554126 632 0 0 0 13.703868
-3.3058636 4.4441266 -0.32281077 717.66669 0 0 0 14.629933
0.31668186 4.3170705 -0.29854417 23.6875 0 0 0 26.02256
0.75395471 4.1908121 -0.24432141 77.666664 0 0 0 27.671129
1.2378476 4.1879015 -0.27343708 33.400002 0 0 0 29.379414
1.5955477 4.3092575 -0.33048302 66.5 0 0 0 30.44062
9.1600609 4.2231817 -0.16453803 591 0 0 0 42.76038
9.784914 4.2190247 -0.43736118 531.5 0 0 0 43.148373
10.465352 4.0580034 -0.46287191 695 0 0 0 43.734261
-8.6164637 4.8118019 -0.12211912 141 0 0 0 7.7983899
-8.2200089 4.7199984 -0.2318266 662 0 0 0 7.9944153
-7.7154999 4.8114481 -0.27447709 199.5 0 0 0 8.5843697
-4.1676493 4.6001372 -0.064551473 499.5 0 0 0 13.059099
-3.8198402 4.535367 -0.27933961 646 0 0 0 13.649602
-3.1467648 4.5702591 -0.18771341 1019.1111 0 0 0 15.216975
-2.8917856 4.7628651 -0.27998161 1021.7778 0 0 0 16.125099
0.093773648 4.5723209 -0.1964606 155.5 0 0 0 25.169838
1.6847463 4.7059278 -0.119275 98.5 0 0 0 30.240356
2.2484279 4.8926659 -0.2634038 95.75 0 0 0 31.61413
9.2209158 4.6709123 -0.16898763 301 0 0 0 42.176201
9.8383131 4.8298721 -0.45019111 537.5 0 0 0 42.370777
19.514889 4.9075527 -0.3652724 25 0 0 0 45.692341
21.063852 4.7485418 -0.39467219 33 0 0 0 46.073261
23.272902 4.6472044 -0.43736324 19 0 0 0 46.471313
-18.838448 5.1576467 -0.27759817 96 0 0 0 3.91031
-17.938009 5.3841929 -0.26454529 142 0 0 0 4.2979498
-7.6035519 5.0034442 -0.10993939 50 0 0 0 8.9751596
-7.4296064 5.289978 -0.22068867 449 0 0 0 9.5524445
-2.796021 5.1977277 -0.24509294 300 0 0 0 16.938938
9.8306751 5.2855968 -0.32131502 502.5 0 0 0 41.777126
18.457268 5.1282229 -0.34585878 193 0 0 0 45.297352
-17.157877 5.60918 -0.25355363 183 0 0 0 4.6849198
-16.407974 5.8100133 -0.24311069 177 0 0 0 5.0710702
-7.3628473 5.8061771 -0.22851974 214 0 0 0 10.33724
-2.7712116 5.6718163 -0.22181992 811.66669 0 0 0 17.558941
9.8876772 5.7983742 -0.33016634 537.5 0 0 0 41.19416
18.514671 5.6384192 -0.34950557 162 0 0 0 44.901569
-15.763382 6.0177426 -0.23449056 195 0 0 0 5.46312
-15.163084 6.2157826 -0.22666855 197 0 0 0 5.8559299
-14.612174 6.4099383 -0.21974753 269 0 0 0 6.2372499
-7.3436151 6.2409511 -0.23590764 298 0 0 0 10.91921
-2.7444105 6.2021294 -0.24157071 867.33331 0 0 0 18.137409
9.3435555 6.2837963 -0.18505478 286 0 0 0 40.218739
9.8906469 6.2998405 -0.48211071 448 0 0 0 40.613911
10.118695 6.4463882 -0.19991867 238 0 0 0 40.613911
-14.096292 6.5976372 -0.21339881 279 0 0 0 6.6247802
-13.61317 6.780632 -0.20765874 328 0 0 0 7.0247002
-13.147365 6.9534059 -0.20227419 320 0 0 0 7.4080701
-7.3048859 6.687748 -0.24380369 249.5 0 0 0 11.499595
-2.7114136 6.8019414 -0.26408052 874 0 0 0 18.730761
9.3795748 6.6490617 -0.18917136 311 0 0 0 39.824089
9.9491987 6.6869464 -0.49308294 537 0 0 0 40.218739
-7.2537384 7.2670312 -0.21230136 221.33333 0 0 0 12.215672
-2.688633 7.2700667 -0.28199777 669 0 0 0 19.11965
9.4206133 7.2168975 -0.19554943 413 0 0 0 39.243935
-7.247407 7.5024567 -0.38566667 235 0 0 0 12.47092
-2.6661773 7.806704 -0.20304459 322 0 0 0 19.513821
10.263629 8.4757624 -0.22250161 114 0 0 0 38.652081
3.7731767 8.963439 -0.26101243 859.25 0 0 0 31.022419
4.4207816 8.9186649 -0.26952413 719.5 0 0 0 32.000771
4.8204761 8.8799286 -0.27513292 734.5 0 0 0 32.588272
5.362606 8.8103485 -0.28293002 577.25 0 0 0 33.368172
5.7943974 8.7711887 -0.2900289 459 0 0 0 33.951962
6.264596 8.7566385 -0.29867887 375.5 0 0 0 34.539009
6.7386293 8.7183285 -0.3074047 363 0 0 0 35.128262
7.2445312 8.6846895 -0.31743595 308.75 0 0 0 35.721481
7.7664852 8.6398964 -0.32826382 336 0 0 0 36.308609
8.1383905 8.6149635 -0.33595729 302.5 0 0 0 36.702499
8.6565552 8.576355 -0.29714814 302.66666 0 0 0 37.221966
9.3698826 8.5506134 -0.20909265 114 0 0 0 37.880089
9.7969112 8.5062227 -0.21533953 133 0 0 0 38.261791
-2.8244603 9.4362345 -0.24949573 790 0 0 0 20.101505
-2.32427 9.422348 -0.2460247 1085 0 0 0 20.878876
-1.8302228 9.3724747 -0.2424399 917 0 0 0 21.659101
-1.2363033 9.3474922 -0.24006963 1288.6666 0 0 0 22.628122
-0.65243691 9.2971544 -0.2380389 1397.75 0 0 0 23.603256
-0.19282673 9.2264643 -0.23628457 815.5 0 0 0 24.390276
3.4150879 9.0374689 -0.13989893 29 0 0 0 30.44062
-30.374861 -9.2151098 0.20649391 14 0 0 0 94.959877
-27.346338 -9.0360174 0.19205305 13 0 0 0 94.573265
-49.213463 -8.533884 0.29342526 24 0 0 0 96.901756
-38.344704 -8.6084967 0.2419536 20 0 0 0 96.115456
-31.879101 -8.8223467 0.21224862 16 0 0 0 95.34333
-21.860857 -7.825315 0.16313717 43 0 0 0 94.17424
-2.3337154 -7.0703516 0.087893553 155 0 0 0 79.707962
-0.0049117934 -7.0324125 0.26087749 251 0 0 0 74.62188
1.214662 -7.0459347 0.26409012 162 0 0 0 71.882477
1.7519391 -7.0308571 0.26671693 247 0 0 0 70.708389
-3.1697881 -6.7076206 0.4530327 235 0 0 0 81.667442
-1.2701124 -6.6619339 0.14041229 120.66666 0 0 0 77.62265
-0.64760888 -6.5542688 0.082554899 117 0 0 0 76.188995
0.79876184 -6.5251937 0.082099743 145 0 0 0 72.671631
1.4594721 -6.5385671 0.24941851 112 0 0 0 71.108994
1.6666975 -6.6898117 0.08368478 136 0 0 0 70.711403
3.5521779 -6.6701088 0.45902929 192 0 0 0 66.801155
-5.4895711 -6.0646892 0.49275386 221 0 0 0 86.354141
-3.9095638 -6.1826863 0.17468777 336 0 0 0 83.617889
-3.2378056 -6.0669174 0.082805976 525 0 0 0 82.439728
-1.4242533 -6.3404922 0.16315773 181 0 0 0 78.134491
-0.079547063 -6.2815943 0.39028811 311 0 0 0 74.817337
1.2609564 -6.3815084 0.24333422 205 0 0 0 71.493233
1.7392435 -6.3198724 0.24448928 210 0 0 0 70.316841
2.3816168 -6.2036495 0.24660555 140 0 0 0 68.759956
2.902879 -6.1638846 0.417808 101 0 0 0 67.58757
4.1490045 -6.2302227 0.084074378 304 0 0 0 65.230171
4.7238817 -6.0723052 0.084379092 304 0 0 0 64.058777
-15.345092 -5.9240999 0.12722383 95 0 0 0 93.788841
-13.83274 -5.7351737 0.11984356 26 0 0 0 93.388969
-10.313652 -5.5200796 0.10386658 159 0 0 0 91.82399
-9.9318628 -5.6315789 0.38777605 146 0 0 0 91.436043
-5.5574155 -5.5654941 0.28224051 313 0 0 0 87.146729
-5.295392 -5.8508701 0.086895205 274 0 0 0 86.356552
-4.5712576 -5.5804377 0.083139397 187 0 0 0 85.571617
-4.4099922 -5.6612115 0.083166085 353 0 0 0 85.176369
-3.8781955 -5.5146856 0.24886443 111 0 0 0 84.394882
-3.0064261 -5.6315336 0.23853295 168 0 0 0 82.439728
-2.770664 -5.6811595 0.15947624 216.5 0 0 0 81.859901
-2.0207942 -5.6510496 0.22723076 179 0 0 0 80.094444
-1.7525249 -5.7819777 0.078257009 149 0 0 0 79.31163
-0.81522733 -5.6789618 0.189761 234 0 0 0 76.887589
-0.27984124 -5.6653733 0.076095082 128.33333 0 0 0 75.402771
1.0965412 -5.5508008 0.075329721 200 0 0 0 71.493233
1.7467901 -5.7888117 0.077448279 332 0 0 0 69.935234
2.7015884 -5.6189518 0.23201625 143 0 0 0 67.456215
3.2053113 -5.8502798 0.16418128 116 0 0 0 66.601768
4.2753286 -5.7845874 0.081530459 232 0 0 0 64.45356
5.1343017 -5.6842399 0.27425298 204 0 0 0 62.879601
-21.897064 -5.4863915 0.15592732 41 0 0 0 95.73455
-12.358942 -5.4843931 0.11244819 189 0 0 0 92.990349
-11.126279 -5.2689109 0.10627578 129 0 0 0 92.596153
-10.43754 -5.2608113 0.10329876 245 0 0 0 92.212524
-9.5535355 -5.1116424 0.36943737 266 0 0 0 91.82399
-9.0164967 -5.1155624 0.096748956 159 0 0 0 91.436043
-8.44485 -5.0676594 0.34002528 700 0 0 0 91.05471
-7.9154878 -5.0188222 0.32577878 373 0 0 0 90.665291
-7.1839385 -5.0684681 0.089251891 306 0 0 0 89.875679
-6.8241639 -5.2042532 0.088577792 221 0 0 0 89.28698
-6.1972694 -5.0936494 0.28585032 320 0 0 0 88.703087
-5.776516 -5.2454371 0.085056454 331 0 0 0 87.912567
-5.1248765 -5.0094042 0.081569463 309 0 0 0 87.337997
-4.5850163 -5.1942339 0.16702333 394.5 0 0 0 86.161308
-4.0312967 -5.4458656 0.080814317 209 0 0 0 84.787666
-3.8689785 -5.1621304 0.31958777 406.5 0 0 0 84.88382
-3.1576819 -5.4250956 0.3882699 487.5 0 0 0 83.031891
-2.7494953 -5.1534677 0.16947822 323.66666 0 0 0 82.443306
-2.2329781 -5.2197957 0.21346752 302.83334 0 0 0 81.073586
-1.7219895 -5.0326781 0.3551783 332.42856 0 0 0 79.872765
-1.3301687 -5.1301675 0.31279492 215.5 0 0 0 78.659439
-0.68051857 -5.1510038 0.45802721 195.66667 0 0 0 76.707573
-0.25378832 -5.0796485 0.32412434 144.25 0 0 0 75.403938
0.36415344 -5.0111761 0.071317509 54 0 0 0 73.443825
0.86761427 -5.237359 0.16912071 163 0 0 0 71.981827
1.2764202 -5.1328135 0.3333976 113 0 0 0 70.708389
1.5252668 -5.061573 0.33299097 120 0 0 0 69.935234
2.1841164 -5.1828361 0.1710586 226.33333 0 0 0 68.239799
2.7316818 -5.3440585 0.12563103 217.33333 0 0 0 67.062721
3.2561038 -5.1627378 0.22828884 264 0 0 0 65.622299
4.2290039 -5.0452948 0.32239142 256.5 0 0 0 63.474327
5.3061986 -5.1969156 0.26731959 376 0 0 0 61.903
9.4159184 -5.3437719 0.095359586 142 0 0 0 57.793087
-24.960789 -4.9648256 0.1690343 29 0 0 0 96.509811
-9.9015865 -4.9888449 0.37670106 447 0 0 0 92.212524
-8.2796478 -4.9707761 0.093097046 457 0 0 0 91.05471
-7.7475147 -4.9145212 0.090709157 686 0 0 0 90.665291
-7.257925 -4.8573666 0.19796425 775.5 0 0 0 90.274521
-6.7037039 -4.8502159 0.29284304 483 0 0 0 89.677963
-6.1808724 -4.9118056 0.41052803 645 0 0 0 88.963501
-5.7426133 -4.8998604 0.22191434 591.75 0 0 0 88.404289
-5.1730752 -4.7733674 0.37075806 700.33331 0 0 0 87.784798
-4.7591543 -4.8254795 0.33037448 800.25 0 0 0 87.041313
-4.1859312 -4.9174533 0.31769252 509.25 0 0 0 85.866455
-3.5888753 -4.8473563 0.37364787 992 0 0 0 84.787666
-3.2754447 -4.9098487 0.22084567 329 0 0 0 84.007584
-2.7729027 -4.9560981 0.29807377 446.39999 0 0 0 82.756371
-2.1878831 -4.8833585 0.33717522 451.16666 0 0 0 81.334328
-1.7474754 -4.885417 0.26477066 313.25 0 0 0 80.096176
-1.3320911 -4.9317822 0.22936764 256.5 0 0 0 78.823875
-0.81540877 -4.9193444 0.33837199 196 0 0 0 77.228691
-0.26140812 -4.8554025 0.26102775 232.71428 0 0 0 75.459679
0.27609602 -4.7986908 0.23550823 156.23077 0 0 0 73.688408
0.72232175 -4.8182526 0.35643336 179 0 0 0 72.228081
1.2526127 -4.7535706 0.36522621 253.42857 0 0 0 70.490074
1.6875066 -4.7182894 0.25619346 179.83333 0 0 0 69.116241
2.2064199 -4.6867218 0.38997304 150.16667 0 0 0 67.587517
2.7563932 -4.5893073 0.30173671 293.875 0 0 0 65.968277
3.2860591 -4.645927 0.32834575 317.83334 0 0 0 64.778023
3.7036459 -4.7649713 0.22164635 290 0 0 0 64.060989
4.2114725 -4.7114 0.16716526 350.39999 0 0 0 62.960762
4.8167233 -4.660295 0.2006126 301 0 0 0 61.804123
5.0884848 -4.6282287 0.076791041 352 0 0 0 61.315441
5.662641 -4.7412219 0.13994502 367 0 0 0 60.660435
6.2013535 -4.6924491 0.21146436 369.33334 0 0 0 59.87764
6.7378712 -4.7561822 0.15069747 340 0 0 0 59.35857
7.112627 -4.5159802 0.082950212 247 0 0 0 58.580528
10.176847 -4.5202227 0.37300044 174 0 0 0 56.233078
14.804753 -4.8934484 0.11551459 67 0 0 0 54.672901
3.6311793 -4.4453964 0.35533795 491 0 0 0 63.672859
4.2238207 -4.4556532 0.30234587 692.5 0 0 0 62.493019
4.7414188 -4.4220486 0.39522576 738.5 0 0 0 61.513199
5.2998028 -4.3633709 0.33017921 351.25 0 0 0 60.52932
5.7112527 -4.3590097 0.34627098 363.5 0 0 0 59.946651
6.2901459 -4.3270483 0.45689192 456.5 0 0 0 59.162781
6.7835617 -4.259634 0.35958886 488.60001 0 0 0 58.502666
7.3784142 -4.2732301 0.29238659 560 0 0 0 57.92572
7.769568 -4.1637421 0.19254619 743 0 0 0 57.403591
8.2731419 -4.1751566 0.3172732 258 0 0 0 57.017632
8.7971716 -4.2573328 0.16922589 229 0 0 0 56.758144
9.3572664 -4.1556015 0.089916825 290 0 0 0 56.233078
9.9277277 -4.1208224 0.36075962 274 0 0 0 55.839912
10.817038 -4.4870415 0.097192615 214 0 0 0 55.839912
11.020455 -4.2568383 0.097161643 114 0 0 0 55.453114
11.665329 -4.3426695 0.25616091 268.5 0 0 0 55.262493
12.302074 -4.0699673 0.42579931 131 0 0 0 54.672901
13.959002 -4.2368164 0.10967848 143 0 0 0 54.282261
14.870848 -4.1165872 0.11331319 62 0 0 0 53.901859
17.911999 -4.020606 0.1266097 38 0 0 0 53.113312
44.625175 -4.3758759 0.25052831 14 0 0 0 51.16058
55.474678 -4.0661778 0.30062631 7 0 0 0 50.769619
11.043148 -3.9582882 0.38938496 393 0 0 0 55.071873
13.028162 -3.9570472 0.44501969 232 0 0 0 54.282261
13.898355 -3.8502092 0.46865112 334 0 0 0 53.901859
15.445168 -3.8691015 0.11512881 96 0 0 0 53.507328
19.76053 -3.9272721 0.13473728 53 0 0 0 52.726002
21.344244 -3.6986644 0.14141148 39 0 0 0 52.334927
24.155413 -3.5759768 0.15405872 24 0 0 0 51.947151
28.546932 -3.5107138 0.17422397 18 0 0 0 51.553951
59.76223 -2.9067509 0.31895903 15 0 0 0 50.372009
-49.427177 -2.4188221 0.28273851 57 0 0 0 98.85553
72.843155 -1.7510362 0.37881067 16 0 0 0 49.984966
-53.250027 -1.2961085 0.29986718 36 0 0 0 99.245911
-4.838275 -0.68041337 0.2652398 338.22223 0 0 0 97.424034
-4.7847981 -0.33370125 0.26046726 406.08334 0 0 0 98.527
-4.6859574 0.2204086 0.24183717 223.5 0 0 0 20.396315
-4.2732 0.80166298 0.2606529 280.375 0 0 0 2.6605239
38.078552 0.9559992 0.21286377 52 0 0 0 49.201481
-4.2529321 1.0814271 0.25901303 264.11111 0 0 0 3.692821
38.172932 1.8977816 0.2126403 35 0 0 0 48.816689
38.239967 2.8444996 0.2124593 31 0 0 0 48.427639
9.2981205 3.7404056 0.20729578 396.75 0 0 0 43.537796
10.163865 3.6585188 0.22011825 263 0 0 0 44.127151
10.870999 3.6131167 0.087909713 195 0 0 0 44.510647
11.183993 3.7143576 0.38431281 331 0 0 0 44.510647
31.641296 3.9252789 0.18146603 8 0 0 0 47.647438
36.491261 3.6181626 0.20403717 4 0 0 0 48.032913
0.47627845 4.4528522 0.065943375 102 0 0 0 26.53583
0.7419275 4.3663282 0.064953357 128.25 0 0 0 27.509193
1.1978468 4.3628182 0.064522594 103.75 0 0 0 29.067562
1.5417297 4.4993196 0.065331444 7 0 0 0 30.040091
9.1577816 4.2225833 0.20885678 474.25 0 0 0 42.760384
25.274761 4.4073601 0.15217173 19 0 0 0 46.858433
28.366833 4.2300096 0.16633624 26 0 0 0 47.250431
-4.0720105 4.84234 0.086193658 603 0 0 0 13.65278
-3.7379386 4.7844591 0.083911955 748.5 0 0 0 14.236345
-3.2088261 4.8440223 0.14295273 462.85715 0 0 0 15.49474
0.27640185 4.7247167 0.12883408 144 0 0 0 25.753113
0.7489475 4.7299142 0.18711826 136 0 0 0 27.314524
1.2545762 4.7787914 0.25418773 85.5 0 0 0 28.869938
1.5257293 4.8234491 0.19402069 24 0 0 0 29.658449
2.2098792 4.7841296 0.28210649 633.18182 0 0 0 31.646912
9.2302532 4.8213401 0.21525055 351.5 0 0 0 41.976662
19.334423 4.865654 0.12624811 76 0 0 0 45.692341
20.839699 4.7017574 0.13256603 62 0 0 0 46.073261
22.856754 4.5682588 0.14127466 45 0 0 0 46.471313
-3.0456486 5.3720121 0.23669048 14.5 0 0 0 16.579044
-2.8869829 5.2366586 0.082196504 695.66669 0 0 0 16.772547
0.17236626 5.0167041 0.19543307 20 0 0 0 25.36092
1.7535219 5.2263007 0.25359583 171.33333 0 0 0 29.914576
2.0725389 5.1635399 0.27745843 269 0 0 0 30.82604
9.2499084 5.2754121 0.086468041 444 0 0 0 41.386711
18.421335 5.1214933 0.12274105 184 0 0 0 45.297352
-8.038331 5.5781722 0.11594462 382 0 0 0 9.3580503
-7.6559086 5.7369003 0.11406521 572 0 0 0 9.9449549
-4.2878199 5.7996893 0.27164078 547 0 0 0 14.629934
-2.8386159 5.8160796 0.24669123 584.20001 0 0 0 17.555792
9.2961197 5.7684212 0.088503286 418 0 0 0 40.807762
9.9275417 5.8218579 0.37887162 333 0 0 0 41.19416
18.466507 5.6270328 0.12387187 184 0 0 0 44.901569
-15.731268 6.0025239 0.17493565 8 0 0 0 5.46312
-15.137743 6.2025213 0.1709905 43 0 0 0 5.8559299
-14.632833 6.416316 0.16782543 104 0 0 0 6.2372499
-8.2951832 6.3854113 0.3808296 522 0 0 0 10.14307
-7.7507114 6.4273539 0.36749393 497 0 0 0 10.72531
-7.4384623 6.1651258 0.1147324 292 0 0 0 10.72531
-4.1726489 6.104002 0.45698446 12 0 0 0 15.21572
-2.7710965 6.2599006 0.088399112 731.5 0 0 0 18.137409
9.3334045 6.2774725 0.23140185 296 0 0 0 40.218739
10.141011 6.4595757 0.39488637 231 0 0 0 40.613911
-53.715034 6.530241 0.48207265 38 0 0 0 1.56976
-14.062446 6.5790048 0.16411604 181 0 0 0 6.6247802
-13.584197 6.7634645 0.16124851 136 0 0 0 7.0247002
-13.120528 6.9365168 0.15848899 190 0 0 0 7.4080701
-7.3819799 6.7561913 0.11743835 744 0 0 0 11.499596
-4.1626201 6.7894588 0.48960507 11 0 0 0 15.99436
-2.8461092 6.8142695 0.27545038 303.66666 0 0 0 18.465073
9.3732471 6.6450491 0.23615485 369 0 0 0 39.824089
-12.681041 7.1047683 0.15595096 194 0 0 0 7.7983899
-12.326289 7.3065095 0.15422833 310 0 0 0 8.1904402
-7.7041416 7.2321138 0.3839252 37 0 0 0 11.69633
-7.3947716 7.2867365 0.24994229 295 0 0 0 12.08805
-2.8442116 7.4095883 0.29478917 374 0 0 0 18.925205
9.4153748 7.2134128 0.24341437 378.5 0 0 0 39.243935
-53.666691 7.8628531 0.48405138 63 0 0 0 1.9529001
-12.279655 7.6910944 0.15557799 235 0 0 0 8.5859404
-7.2977004 7.6786246 0.20913239 454 0 0 0 12.601003
-2.7435861 7.7237759 0.19841865 243.5 0 0 0 19.316734
-12.243909 8.0927343 0.15712959 139 0 0 0 8.9751596
-7.3414688 8.1827393 0.26118943 269 0 0 0 13.059099
-2.7907386 8.1835871 0.31649855 315 0 0 0 19.513821
9.7788315 8.4909992 0.26403233 221.5 0 0 0 38.261791
10.221994 8.4419861 0.26844454 226.5 0 0 0 38.652081
-29.453495 8.8555079 0.2912828 15 0 0 0 4.2979498
3.7674155 8.954237 0.095822148 936.5 0 0 0 31.022419
4.8094974 8.8614101 0.22148868 521.25 0 0 0 32.588272
5.3567162 8.8020573 0.22456613 591 0 0 0 33.368172
5.7905946 8.7667599 0.22751053 474.5 0 0 0 33.951962
6.2579126 8.7483063 0.23078726 392.5 0 0 0 34.539009
6.7370577 8.7175903 0.23466742 343.5 0 0 0 35.128262
7.2362461 8.6761036 0.23875257 331.75 0 0 0 35.721481
7.7753878 8.6510506 0.24379674 353.5 0 0 0 36.308609
8.2528801 8.5934715 0.19779134 366.33334 0 0 0 36.831768
8.7854052 8.5622425 0.30372804 294.33334 0 0 0 37.353634
9.3459053 8.529211 0.25920492 231.5 0 0 0 37.880089
-2.8212547 9.4216299 0.23253569 729.5 0 0 0 20.101505
-2.3168573 9.3884869 0.22842838 781 0 0 0 20.878874
-1.8257012 9.3456945 0.2248233 758.25 0 0 0 21.6591
-1.2793354 9.3133106 0.19825184 902.59998 0 0 0 22.548885
-0.71956074 9.2645855 0.24175516 841 0 0 0 23.487467
-0.19324259 9.2173672 0.21625629 793 0 0 0 24.390274
0.14642024 9.1830826 0.21497528 575.5 0 0 0 24.97702
3.400161 9.001832 0.096126437 1081 0 0 0 30.44062
-8.5820732 10.860847 0.49196774 319 0 0 0 14.03582
-4.1575332 10.540487 0.40516049 14 0 0 0 18.730761
-24.517752 -9.4558592 0.83692735 31 0 0 0 93.788841
-27.524771 -8.345706 0.90883392 25 0 0 0 94.959877
-25.364292 -8.3765564 0.84783113 15 0 0 0 94.573265
-17.706545 -8.3762417 0.63601381 89 0 0 0 92.596153
-21.786613 -7.7943611 0.74046278 71 0 0 0 94.17424
-14.31181 -7.6530638 0.93206167 139 0 0 0 91.82399
-26.748806 -7.3984289 0.87716299 43 0 0 0 95.34333
0.68764538 -7.0344334 0.61009926 86 0 0 0 73.059799
-14.289228 -6.7611017 0.9074747 122 0 0 0 92.596153
-13.259488 -6.6776934 0.85514963 112 0 0 0 92.212524
-0.33692825 -6.8023982 0.58937746 176 0 0 0 75.400436
-25.681702 -6.4289284 0.83743083 7 0 0 0 95.73455
-14.608468 -6.0531764 0.90638977 184 0 0 0 93.388969
-14.470527 -6.4168205 0.90797502 143 0 0 0 92.990349
-10.127209 -6.2480135 0.84387571 193.5 0 0 0 90.860001
-8.7083683 -6.3037586 0.90006089 85 0 0 0 89.677963
-1.5856426 -6.0220833 0.92189914 322 0 0 0 78.725754
-1.4208015 -6.3331127 0.87964499 225 0 0 0 78.134491
-0.61849546 -6.2599006 0.69943535 226 0 0 0 76.188995
1.0583743 -6.1373296 0.69243485 197 0 0 0 71.882477
2.664484 -6.4568863 0.6016084 239 0 0 0 68.369209
3.9534831 -6.2628202 0.81381267 278 0 0 0 65.631157
-14.666483 -5.6593199 0.90064716 191 0 0 0 93.788841
-9.8380823 -5.578371 0.66127074 296 0 0 0 91.436043
-8.9452963 -5.985208 0.90032697 138 0 0 0 90.274521
-4.5679688 -5.86514 0.99966508 13 0 0 0 85.176369
-4.0800233 -5.6572523 0.94048256 665 0 0 0 84.591278
-3.7889895 -5.8375349 0.93883693 568.5 0 0 0 83.813141
-3.2267699 -5.5474668 0.86880124 726 0 0 0 83.031891
-2.6607807 -5.6415944 0.84598893 499 0 0 0 81.66143
-2.2449765 -5.6206026 0.82208061 607.5 0 0 0 80.683243
-1.7642075 -5.5751619 0.79571176 452 0 0 0 79.509796
-1.2378448 -5.7846117 0.83381951 442.79999 0 0 0 77.982956
-0.72814363 -5.6778502 0.86632347 445.39999 0 0 0 76.65358
-0.25392812 -5.7151947 0.89276439 352.60001 0 0 0 75.325058
0.27469766 -5.6768999 0.80896258 269.25 0 0 0 73.8367
0.70605147 -5.7510538 0.78715467 216 0 0 0 72.667801
1.342327 -5.6752386 0.86653697 282 0 0 0 70.908691
1.7336549 -5.7304311 0.96144438 341.66666 0 0 0 69.930443
2.2983747 -5.5651093 0.96628618 195 0 0 0 68.370461
3.1901789 -5.6510663 0.63876253 208.5 0 0 0 66.407791
-10.174862 -5.1283197 0.94865352 299 0 0 0 92.212524
-9.8353415 -5.2641559 0.93000954 243 0 0 0 91.82399
-9.2600508 -5.4027147 0.89593148 236.5 0 0 0 91.245377
-8.2448788 -5.369071 0.58116394 379 0 0 0 90.46991
-7.3193197 -5.2976694 0.53746688 355.5 0 0 0 89.677963
-6.1100168 -5.279933 0.68625504 732 0 0 0 88.304688
-5.1583719 -5.2551303 0.74847382 335 0 0 0 87.012695
-4.6817055 -5.1752439 0.7331093 516.20001 0 0 0 86.355103
-4.2532945 -5.3230352 0.75180715 778 0 0 0 85.373993
-3.6811457 -5.234901 0.70884275 950 0 0 0 84.39698
-3.1869431 -5.1093297 0.5971356 548 0 0 0 83.519554
-2.8310311 -5.2425451 0.66508341 612.59998 0 0 0 82.5215
-2.3127 -5.2251649 0.63777739 637.33331 0 0 0 81.27018
-1.8010117 -5.1949687 0.64385927 540.20001 0 0 0 79.93927
-1.2047493 -5.2402048 0.630418 288.20001 0 0 0 78.218994
-0.74293411 -5.1697254 0.63932151 308.60001 0 0 0 76.889267
-0.16584028 -5.233737 0.64438999 338.71429 0 0 0 75.123611
0.25370187 -5.2465806 0.65582222 323.83334 0 0 0 73.837364
0.69804591 -5.2821393 0.70351464 265.20001 0 0 0 72.512268
1.1131619 -5.1934948 0.77113467 439.33334 0 0 0 71.231621
1.8346449 -5.1581006 0.65615433 265 0 0 0 69.148811
2.67588 -5.0261831 0.77405554 424 0 0 0 66.801155
3.3743041 -5.2077284 0.83991462 449.5 0 0 0 65.430664
3.6379158 -5.185348 0.54685563 162 0 0 0 64.84362
4.5161104 -5.0000482 0.57809293 372 0 0 0 62.879601
-5.5033488 -4.9975367 0.63491547 581 0 0 0 87.912567
-5.198966 -4.9595594 0.61514628 669 0 0 0 87.529274
-4.1673126 -4.9616952 0.55932152 766.5 0 0 0 85.77005
-3.7457318 -4.9323034 0.53659534 741.5 0 0 0 84.982018
-3.3078127 -4.9581871 0.5182873 623 0 0 0 84.006386
0.98342752 -4.9808731 0.5707373 304 0 0 0 71.493233
1.3245428 -4.8938251 0.61211038 349.33334 0 0 0 70.386925
1.7852733 -4.8322582 0.64203167 280 0 0 0 68.953903
2.2410979 -4.8475313 0.67394978 294.71429 0 0 0 67.699043
2.7669063 -4.7656298 0.68375027 352.75 0 0 0 66.208405
3.3343284 -4.752193 0.68172681 414.25 0 0 0 64.842743
3.788801 -4.8142257 0.71883255 345.75 0 0 0 63.963116
4.2227554 -4.6750674 0.76323354 564.14288 0 0 0 62.883846
4.7623563 -4.6611304 0.73299229 481.25 0 0 0 61.903
5.3105011 -4.5934019 0.94272864 865 0 0 0 60.919079
6.7470794 -4.5195808 0.88321328 577 0 0 0 58.97031
3.8446672 -4.4753695 0.5108465 374 0 0 0 63.275791
4.3977251 -4.4141374 0.68808728 538 0 0 0 62.095047
4.8495488 -4.409121 0.69023222 642.20001 0 0 0 61.315269
5.1992378 -4.3520193 0.68976802 742.66669 0 0 0 60.658039
5.7199588 -4.3636594 0.70122492 596 0 0 0 59.946655
6.2661171 -4.3479514 0.70922261 433 0 0 0 59.22694
6.8567696 -4.2347507 0.68032861 584.5 0 0 0 58.385757
7.3016572 -4.3858175 0.85529166 575.66669 0 0 0 58.188202
7.7760797 -4.2504525 0.74419922 530.66669 0 0 0 57.533421
8.2309227 -4.1525168 0.65759933 590.5 0 0 0 57.017632
8.7804775 -4.1614709 0.69029939 358.5 0 0 0 56.628399
9.1357164 -4.0576258 0.70842183 511 0 0 0 56.233078
9.8774376 -4.0984917 0.75401247 286.5 0 0 0 55.839912
10.383115 -4.0127211 0.64460051 383 0 0 0 55.453114
12.587178 -4.1636949 0.75971872 278 0 0 0 54.672901
13.381736 -4.0638227 0.79882658 309 0 0 0 54.282261
14.497154 -4.0153503 0.85591412 238 0 0 0 53.901859
16.512705 -4.1382523 0.96317858 124 0 0 0 53.507328
10.94812 -3.923986 0.67135066 448 0 0 0 55.071873
15.395159 -3.8590901 0.51152956 119 0 0 0 53.507328
16.656111 -3.7419047 0.54682773 113 0 0 0 53.113312
18.406199 -3.6615243 0.59689182 51 0 0 0 52.726002
20.34458 -3.5289857 0.65240657 45 0 0 0 52.334927
22.910376 -3.3956163 0.72663993 98 0 0 0 51.947151
26.421888 -3.2539656 0.82900161 66 0 0 0 51.553951
28.353531 -2.7861757 0.88377029 50 0 0 0 51.16058
-4.8786535 -0.65399808 0.64632452 494 0 0 0 97.529343
-4.8397236 -0.38469285 0.67439848 420 0 0 0 98.374847
-4.736259 0.18561248 0.62544334 178.14285 0 0 0 0.28151003
-4.2910461 0.87804681 0.64851618 157 0 0 0 2.9308701
-4.2927766 1.0415161 0.60100633 38 0 0 0 3.5188301
9.2893219 3.7361796 0.70328772 390.5 0 0 0 43.537796
10.174482 3.6619141 0.75585091 201.5 0 0 0 44.127151
10.83226 3.5978081 0.65339512 245 0 0 0 44.510647
31.813995 3.9410038 0.98322588 22 0 0 0 47.647438
9.146944 4.2171116 0.70769411 517 0 0 0 42.76038
25.509996 4.4436035 0.80036873 95 0 0 0 46.858433
28.445463 4.2365599 0.88533062 39 0 0 0 47.250431
0.77084249 4.8549252 0.67380184 49 0 0 0 27.310749
1.9521173 4.8743548 0.71603364 554 0 0 0 30.82604
2.1124651 4.7868485 0.68769181 638.59998 0 0 0 31.376932
9.2005806 4.8051772 0.72868323 369.5 0 0 0 41.976662
9.2451763 5.2707243 0.74678338 431 0 0 0 41.386711
25.80928 5.1524496 0.81271476 9 0 0 0 46.471313
0.42176241 5.761734 0.50432897 308 0 0 0 25.949886
9.2996254 5.7673912 0.6309371 452 0 0 0 40.807762
9.9105377 5.9770842 0.95372516 182 0 0 0 41.00161
26.024567 5.864213 0.82351261 5 0 0 0 46.073261
-3.7441185 6.4453602 0.6443916 392 0 0 0 16.384609
-3.3004417 6.3740597 0.62163311 579.66669 0 0 0 17.16399
1.0189713 6.2876611 0.70644122 69 0 0 0 27.310749
9.3404408 6.2802763 0.64854997 292 0 0 0 40.218739
10.171965 6.4807301 0.99281543 408 0 0 0 40.613911
-3.0293939 6.6324592 0.63070148 444 0 0 0 17.942591
9.3795795 6.6475024 0.66214103 360 0 0 0 39.824089
10.011736 6.7312789 0.99355024 294 0 0 0 40.218739
0.8322897 7.351757 0.63603079 16 0 0 0 26.53583
9.3869925 7.0060921 0.67446983 177 0 0 0 39.434921
-4.1085634 7.5140839 0.52386659 8 0 0 0 16.773479
-3.7517924 7.7382884 0.52571374 62.5 0 0 0 17.551071
9.8490143 7.7335033 0.71913904 251 0 0 0 39.052952
26.837759 8.1664047 0.86520249 62 0 0 0 44.901569
-27.445829 8.9934731 0.99427736 26 0 0 0 4.6849198
6.719439 8.913722 0.651205 383.5 0 0 0 34.933102
7.3029175 8.753561 0.66305351 32.5 0 0 0 35.721481
7.7608457 8.6321802 0.67352974 25 0 0 0 36.308609
8.7013588 8.7636642 0.71287972 34 0 0 0 37.090302
9.0018692 8.6295023 0.7187953 22 0 0 0 37.485298
-24.290119 9.294651 0.89877766 17 0 0 0 5.46312
6.3004751 9.0381098 0.64405537 24 0 0 0 34.340073
11.45337 9.4509401 0.84678143 222 0 0 0 38.652081
-23.138609 9.5077629 0.86581576 26 0 0 0 5.8559299
-20.997835 9.8514805 0.80523068 28 0 0 0 6.6247802
3.3587809 9.9677277 0.62327933 244 0 0 0 29.84927
3.7537262 9.9122686 0.62686539 390 0 0 0 30.44062
5.384306 9.809062 0.74956638 471.33334 0 0 0 32.653221
5.7894802 9.7716084 0.80644608 517.5 0 0 0 33.167278
6.2451653 9.7883234 0.77478099 279.66666 0 0 0 33.696697
6.5726504 9.9379473 0.9913612 50 0 0 0 33.951962
9.059021 9.5814638 0.75946021 179 0 0 0 36.702499
10.58187 9.6478643 0.8193233 183 0 0 0 37.880089
11.057885 9.5927725 0.83602816 204 0 0 0 38.261791
-20.122896 10.047485 0.78194135 64 0 0 0 7.0247002
-18.547131 10.421277 0.74147534 31 0 0 0 7.7983899
-3.5488908 10.470753 0.80230916 570.5 0 0 0 19.513821
-3.2599742 10.453608 0.79474628 639 0 0 0 19.90649
-2.9749522 10.432047 0.78729731 650.5 0 0 0 20.29652
-2.2894182 10.40716 0.64092815 358.5 0 0 0 21.26778
-1.7078686 10.361748 0.71880484 466.33334 0 0 0 22.10923
-1.2234484 10.290053 0.6228683 466 0 0 0 22.823925
-0.71917683 10.377941 0.7550261 407.5 0 0 0 23.603256
-0.20604131 10.274619 0.74498212 639.25 0 0 0 24.390276
0.30059814 10.298512 0.74699348 295.5 0 0 0 25.168968
3.1615324 10.207354 0.89945012 299.5 0 0 0 29.460735
3.7023129 10.151802 0.90801698 61.5 0 0 0 30.240356
4.0760493 10.011407 0.90736896 499 0 0 0 30.82604
5.2863069 10.019323 0.9467839 406 0 0 0 32.393421
-18.369236 10.921427 0.74474686 9 0 0 0 8.1904402
-9.5335455 10.925115 0.51428777 225 0 0 0 13.25703
-9.0925674 10.948303 0.67928904 289 0 0 0 13.65278
-7.7571707 10.868546 0.80060196 384 0 0 0 14.823
-4.5533524 10.766278 0.99240786 439 0 0 0 18.33223
-4.242837 10.758602 0.98190302 63 0 0 0 18.730761
-3.9311943 10.732515 0.82884151 108 0 0 0 19.11965
-2.7510691 10.634072 0.79659581 429 0 0 0 20.68574
-2.3347092 10.615719 0.92306101 61.5 0 0 0 21.26778
-1.9183034 10.562585 0.91157365 490 0 0 0 21.85465
-1.2512456 10.526804 0.89987993 61.5 0 0 0 22.823925
-18.304613 11.499167 0.75299889 92 0 0 0 8.5859404
-12.408813 11.138571 0.9939186 235 0 0 0 11.30286
-11.861814 11.181922 0.97224092 238 0 0 0 11.69633
-11.38883 11.273709 0.95614415 36 0 0 0 12.08805
-10.679416 11.098529 0.92000955 224 0 0 0 12.47092
-10.231349 11.166071 0.90498275 38 0 0 0 12.86117
-9.8086433 11.244123 0.89190561 35 0 0 0 13.25703
-8.7450647 11.070106 0.8445605 41 0 0 0 14.03582
-8.3176374 11.074282 0.82949656 32 0 0 0 14.43687
-17.711029 11.739413 0.7406944 57 0 0 0 8.9751596
-16.613031 11.603716 0.70780724 178 0 0 0 9.3580503
-15.863833 11.666436 0.68865007 20 0 0 0 9.7468395
-7.9010406 -7.1701841 1.1544429 309 0 0 0 87.912567
-22.699062 -6.8835392 1.3368533 84 0 0 0 94.959877
-8.5972166 -6.7179337 1.1784273 172 0 0 0 89.093712
-8.2756052 -6.8004127 1.1579785 208 0 0 0 88.703087
-0.34487113 -6.9946289 1.2926743 209 0 0 0 75.400436
2.3217735 -6.5087786 1.4446509 26 0 0 0 69.147209
2.5598977 -6.6551704 1.4894375 35 0 0 0 68.759956
-22.522959 -6.2304821 1.3167167 49 0 0 0 95.34333
-17.304405 -6.1921525 1.0458424 97 0 0 0 94.17424
-13.232374 -6.2643504 1.2076919 161 0 0 0 92.596153
-7.7289958 -6.3540273 1.3299903 141 0 0 0 88.703087
-7.3041382 -6.3107185 1.1663344 341.5 0 0 0 88.304688
-6.839962 -6.2106829 1.2315408 168 0 0 0 87.912567
-6.2134209 -6.3777733 1.3003113 77 0 0 0 86.945679
-5.8260074 -6.1307697 1.340387 73 0 0 0 86.744629
-2.6685224 -6.2406549 1.0852455 441.5 0 0 0 81.071548
-2.1264598 -6.188602 1.0478673 353 0 0 0 79.901199
-1.6743549 -6.0580482 1.0079468 15 0 0 0 78.919128
1.7007 -6.1639228 1.4958018 150 0 0 0 70.316841
3.1846168 -6.343854 1.4821554 4 0 0 0 67.193504
-17.5541 -5.7991996 1.0510154 125 0 0 0 94.573265
-8.0696392 -5.9933815 1.0881512 278 0 0 0 89.480247
-7.5139794 -5.8747301 1.2691716 197 0 0 0 89.093712
-6.0570793 -5.6392565 1.3117768 280 0 0 0 87.720917
-3.9154711 -5.5711637 1.0872709 6 0 0 0 84.394882
-2.9367158 -5.8453374 1.0467963 128 0 0 0 82.052361
-0.72693175 -5.7409005 1.2678796 450.5 0 0 0 76.624557
-0.41562709 -5.6308804 1.4633633 581 0 0 0 75.79509
1.0971899 -5.5385141 1.4631735 309 0 0 0 71.493233
1.7259439 -5.7116184 1.2518694 92.333336 0 0 0 69.935234
2.3506343 -5.6950421 1.2913393 37 0 0 0 68.369209
2.7383084 -5.6269493 1.0798798 385 0 0 0 67.39106
3.3225827 -5.8013844 1.1952242 315 0 0 0 66.305397
3.9996665 -5.6952424 1.1094525 475 0 0 0 64.84362
4.3586092 -5.6002951 1.1301591 587 0 0 0 64.058777
6.0667362 -5.5098023 1.3988922 566 0 0 0 61.315441
-10.136353 -5.1088428 1.2208977 342 0 0 0 92.212524
-9.5161123 -5.2456579 1.1710565 265 0 0 0 91.63002
-8.1504431 -5.1691704 1.0451313 547 0 0 0 90.665291
-7.6640687 -5.2222571 1.0817562 223.66667 0 0 0 90.141579
-7.3027191 -5.1533251 1.4120281 184 0 0 0 89.875679
-6.8416939 -5.1708016 1.285928 238 0 0 0 89.351402
-6.4058619 -5.4006114 1.3270572 215.5 0 0 0 88.503891
1.5097884 -5.4757462 1.4715962 357 0 0 0 70.316841
2.7198493 -5.1075807 1.0721439 39 0 0 0 66.801155
3.4140167 -5.4089379 1.022874 625 0 0 0 65.631157
3.6453092 -5.4726062 1.0503751 605 0 0 0 65.230171
4.3428154 -5.176692 1.0774982 622.5 0 0 0 63.474327
4.8022337 -5.184803 1.124826 597 0 0 0 62.68631
5.0405092 -5.0538225 1.1352485 93 0 0 0 62.095047
6.822598 -5.0698304 1.132679 54 0 0 0 59.750153
13.031783 -5.030386 1.1478647 226 0 0 0 55.453114
-10.517245 -4.9805665 1.2502627 320 0 0 0 92.596153
-8.3060045 -4.9861407 1.0485468 394 0 0 0 91.05471
-7.5451365 -4.7876067 1.4110807 367 0 0 0 90.665291
-7.3427606 -4.9162164 1.3961165 278 0 0 0 90.274521
-6.979939 -4.9260907 1.1399761 393 0 0 0 89.875679
1.6283699 -4.9489794 1.4815494 150 0 0 0 69.539261
6.0295696 -4.8385258 1.0339897 149.5 0 0 0 60.335335
6.9972453 -4.9373679 1.1405286 437 0 0 0 59.355247
11.797399 -4.8909893 1.3635752 5 0 0 0 55.839912
13.163065 -4.712678 1.1482314 41 0 0 0 55.071873
14.814576 -4.8954015 1.2765045 97 0 0 0 54.672901
17.65925 -4.8854909 1.4912224 19 0 0 0 53.901859
18.55748 -4.1678171 1.0711745 126 0 0 0 53.113312
40.699425 1.0148654 1.2421123 46 0 0 0 49.201481
40.782558 2.020427 1.2448097 49 0 0 0 48.816689
40.826836 3.0296686 1.2471589 35 0 0 0 48.427639
10.303094 3.9981134 1.1791004 286 0 0 0 43.734261
9.8071127 4.2304673 1.1412684 442 0 0 0 43.148373
25.50561 4.4427247 1.4345818 93 0 0 0 46.858433
9.8273373 4.6765285 1.1625783 555 0 0 0 42.565353
10.01368 5.3848763 1.2135758 806 0 0 0 41.777126
9.9108019 5.6487989 1.2178822 754 0 0 0 41.386711
10.177479 6.6609106 1.2973299 712 0 0 0 40.416325
10.069356 7.1355686 1.1665585 428 0 0 0 39.824089
-29.536085 8.8863754 1.0594603 9 0 0 0 4.2979498
-23.076822 9.4826689 1.4719523 28 0 0 0 5.8559299
11.459998 9.4589357 1.2179052 327 0 0 0 38.652081
12.683002 9.4556084 1.2927653 46 0 0 0 39.434921
5.4775858 9.7904148 1.3483481 632 0 0 0 32.783119
5.7873812 9.768218 1.223799 647 0 0 0 33.167278
6.2333097 9.9496603 1.26366 422 0 0 0 33.569061
6.7944207 9.9121094 1.1937331 303.33334 0 0 0 34.210705
7.1712589 9.759037 1.153098 492.5 0 0 0 34.737942
7.6366138 9.8704948 1.1862895 216 0 0 0 35.128262
8.1935272 9.8140278 1.2135768 263.5 0 0 0 35.721481
8.6875744 9.6576366 1.2314376 450.5 0 0 0 36.308609
9.2576523 9.7927542 1.1114484 39 0 0 0 36.702499
9.6373806 9.7030602 1.1266345 44 0 0 0 37.090302
10.040125 9.6209908 1.3134542 294 0 0 0 37.485298
10.623494 9.6881418 1.1810473 50 0 0 0 37.880089
11.029894 9.5711355 1.1982874 42 0 0 0 38.261791
12.247784 9.6099701 1.2734761 45 0 0 0 39.052952
-20.030813 10.001743 1.3242902 30 0 0 0 7.0247002
-18.547232 10.421837 1.2600607 61 0 0 0 7.7983899
-3.5491366 10.468943 1.3425596 708.5 0 0 0 19.513821
-3.2611144 10.454664 1.3301668 666 0 0 0 19.90649
-2.9768414 10.435989 1.3181686 749.5 0 0 0 20.29652
-1.6330872 10.438384 1.2830994 387 0 0 0 22.236521
-0.59592623 10.466786 1.2725046 551.5 0 0 0 23.79808
-0.20734519 10.323894 1.253476 914 0 0 0 24.390274
0.30471462 10.41399 1.1358947 103.5 0 0 0 25.16897
0.81810474 10.396478 1.1363513 185.5 0 0 0 25.949886
1.2737055 10.249011 1.2092396 722.33331 0 0 0 26.665747
1.9721835 10.288983 1.1393675 67 0 0 0 27.703871
2.3861713 10.175358 1.221393 604.33331 0 0 0 28.352745
2.7228918 10.1042 1.2653875 497.5 0 0 0 28.86795
3.112952 10.198247 1.2440815 396.66666 0 0 0 29.394831
3.7079611 10.165296 1.1722612 109.5 0 0 0 30.240356
4.0730848 10.002637 1.1692142 588 0 0 0 30.82604
4.9992561 10.068644 1.2137892 82 0 0 0 32.000771
5.2792087 10.006121 1.359935 407.5 0 0 0 32.393421
-9.1248569 10.984932 1.2086902 339 0 0 0 13.65278
-7.7616272 10.872272 1.2935071 391.5 0 0 0 14.823
-7.3031249 10.966933 1.2235179 117.66666 0 0 0 15.34715
-6.6049566 10.852074 1.2305138 195 0 0 0 15.99436
-6.1972556 10.765273 1.3544549 573 0 0 0 16.384609
-5.9098587 10.873765 1.349417 172 0 0 0 16.773479
-4.6872864 10.716249 1.2763116 393.5 0 0 0 18.137409
-4.2364573 10.743686 1.2601571 509 0 0 0 18.730761
-3.926502 10.719044 1.2457489 508 0 0 0 19.11965
-2.7701311 10.706704 1.3434527 265.5 0 0 0 20.68574
-2.3317838 10.604976 1.1852753 596 0 0 0 21.26778
-1.9138795 10.536806 1.3001888 546 0 0 0 21.85465
-1.2526946 10.54561 1.1589259 125.5 0 0 0 22.823925
-0.85859978 10.529722 1.1525953 113 0 0 0 23.40843
-18.28154 11.485179 1.2784696 88 0 0 0 8.5859404
-14.111329 11.477856 1.0817033 112 0 0 0 10.53141
-13.347156 11.405972 1.2625191 41.5 0 0 0 10.91921
-12.400819 11.128137 1.4061518 215 0 0 0 11.30286
-11.865338 11.182093 1.3765141 292 0 0 0 11.69633
-10.676326 11.092191 1.3012005 232 0 0 0 12.47092
-8.7548676 11.079557 1.195367 224 0 0 0 14.03582
-8.3078098 11.057973 1.1712577 270 0 0 0 14.43687
-17.908791 11.871816 1.2725171 21 0 0 0 8.9751596
-16.620493 11.609574 1.2023484 128 0 0 0 9.3580503
-15.719166 11.560052 1.1582789 45 0 0 0 9.7468395
-14.937729 11.556976 1.1220536 148 0 0 0 10.14307
-11.821657 11.702258 1.4037302 13 0 0 0 12.08805
-50.887398 -10.107894 1.6007485 6 0 0 0 96.509811
-19.32929 -8.5726166 1.7267519 21 0 0 0 92.990349
-19.663338 -8.148963 1.737016 44 0 0 0 93.388969
-31.043785 -7.7700725 1.7878505 24 0 0 0 95.73455
-22.706381 -7.5036845 1.9439052 41 0 0 0 94.573265
-18.286097 -7.0577664 1.6017115 65 0 0 0 93.788841
-18.68244 -6.688293 1.6202735 87 0 0 0 94.17424
-15.102625 -6.6996832 1.7587376 158 0 0 0 92.990349
-10.358665 -6.5695052 1.6198558 97 0 0 0 90.665291
