# .PCD v0.7 - Point Cloud Data file format
VERSION 0.7
FIELDS x y z intensity normal_x normal_y normal_z curvature
SIZE 4 4 4 4 4 4 4 4
TYPE F F F F F F F F
COUNT 1 1 1 1 1 1 1 1
WIDTH 892
HEIGHT 1
VIEWPOINT 0 0 0 1 0 0 0
POINTS 892
DATA ascii
-7.0568695 0.60881412 -0.79899025 163 0 0 0 0.97558498
-6.9954805 0.85932463 -0.79635948 182 0 0 0 1.55986
-5.7968783 0.78023744 -0.79307741 131 0 0 0 1.7567924
-4.7314548 0.80483562 -0.69814807 67.666664 0 0 0 2.3393984
-4.3452172 0.74067438 -0.79366672 43.400002 0 0 0 2.3417759
4.0731368 0.71296167 -0.74917579 29.6 0 0 0 46.824867
4.6886687 0.75870216 -0.74364352 63.25 0 0 0 47.021091
5.5897737 0.7626977 -0.75146937 147.5 0 0 0 47.413746
6.8369184 0.67347604 -0.74926728 180.66667 0 0 0 47.997807
8.8269215 0.75451416 -0.75563186 141 0 0 0 48.194489
12.25066 0.74113071 -0.75434697 111 0 0 0 48.583168
18.816513 0.90370077 -0.71387345 14 0 0 0 48.778687
35.879478 0.84330457 -0.51258689 53 0 0 0 49.17281
-18.09388 1.3642328 -0.80892181 56 0 0 0 0.77879
-11.762304 1.3153062 -0.79942548 136.5 0 0 0 1.36612
-8.6897545 1.2883399 -0.79560357 215.33333 0 0 0 1.9515966
-6.9383001 1.1080928 -0.79539859 167 0 0 0 2.147465
-5.6229553 1.3165717 -0.7856521 140.5 0 0 0 3.3185799
-4.7471805 1.1950004 -0.72653884 71.800003 0 0 0 3.5909278
-4.1667352 1.234946 -0.78538132 37.799999 0 0 0 4.2907877
3.8803566 1.2781606 -0.74238592 38.599998 0 0 0 44.563839
4.2373514 1.3075265 -0.74760282 74.5 0 0 0 44.874481
4.569036 1.2159353 -0.74199098 113.25 0 0 0 45.457729
5.4645729 1.3079963 -0.75030708 122 0 0 0 45.848289
5.535893 1.1086174 -0.75317848 87 0 0 0 46.430714
6.7451949 1.1759223 -0.74868554 118.33334 0 0 0 46.826641
8.7199364 1.1820323 -0.75202358 149.5 0 0 0 47.413322
12.161238 1.340481 -0.75417101 142.5 0 0 0 47.802887
18.909739 1.3754336 -0.72043341 28 0 0 0 48.38765
-18.070343 1.8063078 -0.8123439 41 0 0 0 1.17238
-11.677926 1.7387391 -0.79986465 154 0 0 0 1.95336
-6.6864648 1.8288656 -0.78861308 164.33333 0 0 0 3.9002867
-5.5448284 1.5835259 -0.7861582 123 0 0 0 4.095295
-5.45123 1.844319 -0.78612059 209 0 0 0 4.8765402
-4.6256561 1.7490513 -0.78435791 70.800003 0 0 0 5.4623036
-4.0498857 1.5801109 -0.7878629 30 0 0 0 5.658175
-3.9511516 1.8212808 -0.79047662 51 0 0 0 6.6296964
3.7188041 1.7875532 -0.751908 54.200001 0 0 0 42.53772
4.3733478 1.7702529 -0.74266815 150.75 0 0 0 43.511951
5.33321 1.7047825 -0.74942774 125 0 0 0 44.679073
6.5977387 1.7505116 -0.74875778 218.25 0 0 0 45.457729
8.623477 1.7171942 -0.75368398 178.33333 0 0 0 46.43256
12.124539 1.7925357 -0.75729626 130 0 0 0 47.222198
18.935417 1.8469058 -0.72483236 40 0 0 0 48.001328
35.954334 1.7300215 -0.5173642 55 0 0 0 48.778687
-18.317406 2.2833385 -0.82922006 37 0 0 0 1.55986
-8.5033302 2.1176152 -0.79831421 126 0 0 0 3.5102699
-8.4310455 2.3177805 -0.79760623 267 0 0 0 3.8964901
-6.5697212 2.230407 -0.79160899 180 0 0 0 4.8765402
-6.4921532 2.4700065 -0.7939049 196 0 0 0 5.4646401
-5.3348866 2.2466803 -0.79379749 176 0 0 0 6.0465221
-4.378633 2.2891464 -0.78722107 141.60001 0 0 0 7.4075823
-3.6939096 2.212019 -0.78511924 60.5 0 0 0 8.3819637
3.3573415 2.3485608 -0.74871266 56.25 0 0 0 40.000381
3.557972 2.1104512 -0.7548691 70.5 0 0 0 41.166138
4.153204 2.2514482 -0.74596995 112 0 0 0 41.7561
4.9853816 2.3853464 -0.74209309 297 0 0 0 42.540833
5.1248279 2.1451948 -0.74518633 210.33333 0 0 0 43.316914
6.3588796 2.2933156 -0.74339509 279.33334 0 0 0 44.097443
8.3697958 2.3236461 -0.74650145 250 0 0 0 45.26408
8.5040245 2.1356373 -0.75299585 250 0 0 0 45.65662
11.922549 2.2161412 -0.75075698 96.5 0 0 0 46.62886
18.7827 2.3001914 -0.72253776 39 0 0 0 47.604446
-18.185209 2.7185137 -0.82839668 71 0 0 0 1.95336
-8.2656612 2.7087173 -0.79552859 236 0 0 0 4.6823936
-6.3109975 2.7562361 -0.78845692 246.33333 0 0 0 6.2404828
-5.1032376 2.6757863 -0.79231292 185.33333 0 0 0 7.4093633
-4.8696547 2.9398651 -0.78288352 222 0 0 0 8.38169
-4.1084366 2.6788819 -0.78319359 185.66667 0 0 0 8.9669571
-3.91359 2.9022779 -0.77896345 145.5 0 0 0 9.9446001
-3.2942264 2.7526715 -0.78678524 101.28571 0 0 0 10.917185
2.8538024 2.9253178 -0.74921685 105.66666 0 0 0 37.076797
3.1191289 2.6826069 -0.7533595 71.75 0 0 0 38.443512
3.7821252 2.7793894 -0.74368358 71.833336 0 0 0 39.611221
4.7802138 2.7423666 -0.74209231 269.39999 0 0 0 41.365654
6.1169701 2.7362633 -0.73873466 380.33334 0 0 0 42.927067
8.184226 2.7142229 -0.74266261 189.66667 0 0 0 44.48407
11.746931 2.7894371 -0.74961722 157 0 0 0 45.848289
18.743822 2.7654133 -0.72536713 48 0 0 0 47.222198
36.043167 2.6235456 -0.52283317 55 0 0 0 48.38765
-11.101039 3.208581 -0.79023528 199.5 0 0 0 4.095295
-8.0317879 3.0704153 -0.7877087 304 0 0 0 5.4646401
-7.8761101 3.3432143 -0.7850768 294 0 0 0 6.0468998
-6.065186 3.0977392 -0.78093064 376 0 0 0 7.2161503
-5.8583107 3.3583701 -0.7751869 334 0 0 0 7.9889803
-4.6500812 3.2049952 -0.77843589 421.66666 0 0 0 9.3553305
-4.4671068 3.408673 -0.77513963 279 0 0 0 10.14287
-3.6777787 3.1640437 -0.77720559 178 0 0 0 11.111429
-3.4228127 3.4061878 -0.77448756 197 0 0 0 12.279329
-2.7369061 3.2118499 -0.77583158 119 0 0 0 13.645562
-2.3413444 3.4449749 -0.76602554 100.5 0 0 0 15.410709
2.2955849 3.3679626 -0.74964392 94 0 0 0 34.331169
2.6197028 3.1227076 -0.74817538 100.33334 0 0 0 35.894787
3.2941647 3.2812071 -0.73867995 183.75 0 0 0 37.272369
3.5108433 3.0863173 -0.74142295 89 0 0 0 38.249168
4.3957996 3.3088646 -0.74339318 362.33334 0 0 0 39.41721
4.5852065 3.1063318 -0.74720734 76 0 0 0 40.190353
5.8119516 3.2314501 -0.73546118 325.5 0 0 0 41.559921
7.8981032 3.2882292 -0.73928261 251.66667 0 0 0 43.316914
11.484027 3.4879491 -0.74789399 143 0 0 0 44.870258
11.585864 3.2087786 -0.74798387 157 0 0 0 45.26408
18.714067 3.2335997 -0.72906417 34 0 0 0 46.827007
-29.398726 3.6709034 -0.64007461 392 0 0 0 1.55986
-10.823336 3.7064543 -0.78456366 178 0 0 0 4.8765402
-7.6251011 3.6825404 -0.77819252 267.5 0 0 0 6.8234997
-7.4508801 3.9387081 -0.77541834 323 0 0 0 7.41295
-5.6219583 3.6917419 -0.7735278 364 0 0 0 8.9669571
-5.4194169 3.9469883 -0.77186626 440 0 0 0 9.7463303
-4.238976 3.6603634 -0.7739315 259.25 0 0 0 11.111429
-3.9985898 3.8993647 -0.77243471 372 0 0 0 12.08538
-3.1471453 3.623106 -0.77085072 239 0 0 0 13.448352
-2.8282757 3.877491 -0.77202541 242.33333 0 0 0 14.824273
-2.1351292 3.5943606 -0.77007586 92 0 0 0 16.382141
-1.7704118 3.774631 -0.76924515 116 0 0 0 17.944363
-1.2845323 3.9178264 -0.76124567 108.4 0 0 0 19.897425
-0.98590082 3.9717751 -0.75521976 156 0 0 0 21.07082
1.2556182 3.8905776 -0.75476933 79.833336 0 0 0 29.83696
1.7785797 3.6916699 -0.75536859 77 0 0 0 31.989527
2.0224488 3.5045962 -0.74424314 41 0 0 0 33.162121
2.7586834 3.8189652 -0.75196493 97.400002 0 0 0 34.721992
3.0550706 3.5352573 -0.74360991 313.5 0 0 0 36.090858
3.9195828 3.8922019 -0.74957669 159.5 0 0 0 37.273903
4.1374927 3.6278541 -0.74524277 147 0 0 0 38.248337
5.3641706 3.9237802 -0.73845464 342 0 0 0 39.611294
5.5559855 3.6555967 -0.73751491 315 0 0 0 40.389477
6.9489832 3.7417114 -0.68250042 107 0 0 0 41.754478
7.3307486 3.715641 -0.50657266 448 0 0 0 42.152927
7.6925144 3.7380807 -0.6695804 225.33333 0 0 0 42.41153
8.2582321 3.6802154 -0.5590089 91 0 0 0 42.925381
8.9240236 3.7127373 -0.59913796 52 0 0 0 43.314991
11.410607 3.775605 -0.75025058 170 0 0 0 44.484879
19.015799 3.7697124 -0.74682027 24 0 0 0 46.430714
36.084881 3.520072 -0.52805239 47 0 0 0 48.001328
-27.403111 4.103189 -0.5994755 22 0 0 0 1.95336
-10.605691 4.2184362 -0.78516161 195.5 0 0 0 5.658175
-7.2224793 4.2783737 -0.77375716 347.66666 0 0 0 8.1863899
-5.1579709 4.2581716 -0.77144456 328.5 0 0 0 10.722446
-3.763159 4.1439962 -0.7755481 385.75 0 0 0 13.058245
-3.4491758 4.4044437 -0.77576101 407 0 0 0 14.23086
-2.5911393 4.0480843 -0.77388728 241.5 0 0 0 15.798855
-2.2023644 4.2729568 -0.736417 148.66667 0 0 0 17.292776
-1.7581002 4.3604732 -0.64664179 70 0 0 0 18.791018
-1.1738002 4.213027 -0.55265296 43.400002 0 0 0 20.601648
-0.76174802 4.1606922 -0.67650378 46.375 0 0 0 22.041111
-0.29413062 4.1472731 -0.76920468 77.599998 0 0 0 23.793428
0.21733189 4.1371946 -0.76630354 41.799999 0 0 0 25.746319
0.72331011 4.0681772 -0.76378047 74.199997 0 0 0 27.695972
1.7466071 4.40763 -0.76069796 129 0 0 0 30.815542
2.2928319 4.1811714 -0.76356715 92.199997 0 0 0 32.769897
3.3597553 4.3993292 -0.75458813 231 0 0 0 35.112301
3.6716874 4.1297097 -0.75149769 216.33333 0 0 0 36.288097
5.1224914 4.2584267 -0.7422139 313 0 0 0 38.638325
6.9683294 4.2096729 -0.5042125 591 0 0 0 40.971352
7.2333713 4.3649254 -0.66621327 372 0 0 0 40.973625
11.188459 4.1675897 -0.74698836 163.5 0 0 0 43.903721
19.590975 4.3868942 -0.77670842 32 0 0 0 46.039959
-17.916906 4.9652004 -0.85026747 62 0 0 0 3.8964901
-10.680299 4.7089705 -0.52287579 41 0 0 0 6.2420897
-10.351632 4.7636299 -0.695265 131.66667 0 0 0 6.4991298
-7.0366478 4.644176 -0.77853674 304 0 0 0 8.9660101
-6.9306655 4.8199887 -0.78022015 306 0 0 0 9.3536501
-6.1902933 4.5249319 -0.51696795 271 0 0 0 9.7463303
-5.1089573 4.8939819 -0.64784473 193 0 0 0 11.89209
-4.7619853 4.7812791 -0.78044963 391.75 0 0 0 12.279039
-3.1824958 4.6168647 -0.778449 366.33334 0 0 0 15.215218
-2.8562889 4.8729076 -0.78507662 222 0 0 0 16.382141
-2.0880098 4.8100839 -0.72527313 52 0 0 0 18.33676
-1.7852435 4.7092648 -0.75224531 86.5 0 0 0 19.11401
-1.2518468 4.629364 -0.77423286 75.599998 0 0 0 20.678427
-0.73463494 4.7394929 -0.77411699 54.75 0 0 0 22.429255
-0.32231036 4.7506251 -0.71089524 58.5 0 0 0 23.794823
0.20992747 4.8103423 -0.77648395 102.25 0 0 0 25.550539
0.73437911 4.7211123 -0.76942551 108.6 0 0 0 27.306763
1.2413898 4.5625157 -0.75971651 106.25 0 0 0 29.057074
2.4262271 4.9750142 -0.7586776 118 0 0 0 31.99288
2.7518165 4.8532782 -0.76401412 57.25 0 0 0 32.964153
3.0872555 4.6083384 -0.75750911 192.5 0 0 0 34.136528
4.7597632 4.7112436 -0.7492066 241.75 0 0 0 37.272369
6.9658742 4.9445028 -0.74660343 151 0 0 0 39.801899
7.0759659 4.6801572 -0.66972798 386 0 0 0 40.323101
17.717211 4.8964739 -0.71156859 37 0 0 0 45.26408
19.126915 4.7807312 -0.76401204 115 0 0 0 45.65662
-10.248989 5.2832994 -0.7982204 122 0 0 0 7.2161503
-9.6296272 5.414577 -0.7638697 69 0 0 0 7.7957902
-6.7244983 5.1785889 -0.78597116 242.66667 0 0 0 10.14003
-4.8262296 5.217104 -0.70744687 210.66667 0 0 0 12.861816
-4.2721705 5.3495002 -0.79370302 407.33334 0 0 0 14.036416
-2.6160011 5.0067983 -0.78519678 208 0 0 0 17.16633
-2.4226351 5.0809226 -0.78237081 201.5 0 0 0 17.74791
-1.8353252 5.2723956 -0.77563524 18 0 0 0 19.50614
1.2848512 5.4601874 -0.77378988 208.66667 0 0 0 28.473167
1.7490592 5.3196907 -0.77100873 233.75 0 0 0 29.836693
2.1961219 5.1318059 -0.76660138 273.33334 0 0 0 31.208784
4.3333945 5.2369428 -0.76415265 200.25 0 0 0 35.700432
6.8448381 5.2508669 -0.75595033 240 0 0 0 39.224865
7.1284251 5.3288865 -0.55893409 183 0 0 0 39.420689
16.294676 5.381834 -0.66529894 180 0 0 0 44.484879
16.6308 5.0416665 -0.6724143 49 0 0 0 44.870258
-18.279175 5.5500669 -0.87725657 73 0 0 0 4.2940998
-17.523737 5.7900319 -0.84792101 862 0 0 0 4.67978
-9.5891457 5.7044072 -0.63764417 310.5 0 0 0 8.1821699
-6.6040134 5.6207542 -0.80505937 184 0 0 0 10.91394
-6.4739394 5.7876344 -0.80663681 171 0 0 0 11.30209
-4.96242 5.7906346 -0.51674509 1326.5 0 0 0 13.4505
-3.7704768 5.6485224 -0.78762519 402.5 0 0 0 15.410629
-3.4465477 5.9158392 -0.79433817 383 0 0 0 16.379141
-0.26241586 5.6648908 -0.71656692 134.5 0 0 0 24.083918
0.3375625 5.7370582 -0.68813568 167.875 0 0 0 25.747324
0.74436212 5.5896339 -0.77972198 168.33333 0 0 0 26.915817
1.0144173 5.5212569 -0.77507943 130 0 0 0 27.69977
3.7084513 5.8149867 -0.77980661 183.25 0 0 0 33.745922
4.0489445 5.5572672 -0.77506012 174 0 0 0 34.7169
6.4355521 5.8864179 -0.76825243 133 0 0 0 37.859081
6.6083059 5.6090527 -0.76177967 174 0 0 0 38.442963
7.1565418 5.6295671 -0.57380408 166 0 0 0 39.029041
7.7622828 5.5045938 -0.59908617 354 0 0 0 39.801899
16.317259 5.8386092 -0.67410696 208 0 0 0 44.097073
-17.296907 6.1868982 -0.84577543 126 0 0 0 5.0732999
-16.657938 6.4197078 -0.82240438 169 0 0 0 5.4646401
-9.6941919 6.2603111 -0.66425043 199.75 0 0 0 8.7736101
-4.9348431 6.2069607 -0.5394007 1400 0 0 0 14.03371
-3.1799076 6.1306701 -0.80181289 349 0 0 0 17.162537
2.7536252 6.3859754 -0.79140943 168.66667 0 0 0 31.208784
3.2045357 6.1379337 -0.78557295 138 0 0 0 32.37962
5.9828091 6.3487606 -0.77169651 199 0 0 0 36.682579
6.1901512 6.0990686 -0.7669816 209.5 0 0 0 37.273903
7.7264929 6.3862538 -0.63676578 309 0 0 0 38.636761
16.3645 6.3140416 -0.68463486 188 0 0 0 43.710369
-16.011738 6.6223254 -0.79851156 139 0 0 0 5.8517098
-9.5775518 6.6930695 -0.6730091 114 0 0 0 9.3536501
-5.7512913 6.7301416 -0.82503146 264 0 0 0 13.4505
-5.4852023 6.9150729 -0.82257998 275 0 0 0 14.03371
-4.9287529 6.6975942 -0.56815559 934 0 0 0 14.62612
-0.25853196 6.9628797 -0.80429476 212.66667 0 0 0 24.181976
0.084172525 6.9396501 -0.79977614 258 0 0 0 24.9625
0.85506225 6.9144096 -0.80055177 246 0 0 0 26.721886
1.2789482 6.8456302 -0.79873556 265.33334 0 0 0 27.696684
1.784783 6.7421384 -0.79802948 269.33334 0 0 0 28.861282
2.2679818 6.5607324 -0.79204577 349.66666 0 0 0 30.031939
5.3718634 6.9663906 -0.78287578 243 0 0 0 35.117367
5.680408 6.6589227 -0.77672887 223.33333 0 0 0 35.894787
7.7592182 6.740931 -0.65516049 160 0 0 0 38.249168
-5.2450275 7.1343207 -0.82558548 266.5 0 0 0 14.62612
-4.890677 7.3159561 -0.7486549 604.66669 0 0 0 15.347333
-0.26219201 7.2283764 -0.65819645 150 0 0 0 24.17758
0.25895667 7.0124516 -0.80861229 214 0 0 0 25.35144
4.9042716 7.4395752 -0.79678398 330 0 0 0 33.94146
5.1873875 7.2672958 -0.79689324 311 0 0 0 34.524246
7.7843041 7.1056585 -0.67410582 513 0 0 0 37.859081
-4.7855649 7.6959305 -0.69606048 235.66667 0 0 0 15.864861
-4.3992257 7.8355255 -0.83832502 318 0 0 0 16.574776
-0.082890794 7.8463402 -0.71714061 174 0 0 0 24.578609
0.30315623 7.8391843 -0.71560508 186 0 0 0 25.35144
0.87977803 7.7856426 -0.71245384 124 0 0 0 26.52944
1.7564217 7.7242184 -0.7171818 131.5 0 0 0 28.281034
2.1512694 7.6824884 -0.7209096 203.5 0 0 0 29.05419
2.7673848 7.6449471 -0.73276949 228.5 0 0 0 30.225685
3.0791368 7.6116638 -0.73896325 209 0 0 0 30.81756
3.9602308 7.5408959 -0.76405221 231 0 0 0 32.377151
4.3199644 7.5294876 -0.77793491 165.5 0 0 0 32.965469
4.7256107 7.5689554 -0.79904413 275 0 0 0 33.548519
7.249999 7.6761651 -0.67946875 130 0 0 0 36.682579
7.8308449 7.508543 -0.69637668 504 0 0 0 37.470631
-4.1178031 8.0075893 -0.83971798 393 0 0 0 17.16633
-3.9005566 8.0630722 -0.83478546 351 0 0 0 17.550871
3.7867498 8.4205866 -0.83437073 246 0 0 0 31.404396
4.0882354 8.2596798 -0.83105892 228 0 0 0 31.99288
7.6438537 8.4963837 -0.74011868 242 0 0 0 36.29052
8.2354603 8.2896185 -0.75448853 245 0 0 0 37.077179
0.13756217 8.8674688 -0.81546271 361 0 0 0 24.9625
1.384518 8.8516169 -0.74410743 788 0 0 0 27.173897
1.7673335 8.8867626 -0.67647737 992 0 0 0 27.828712
2.2746317 8.9166813 -0.61074507 890 0 0 0 28.666451
2.7543716 8.8041859 -0.68519592 306.66666 0 0 0 29.513283
3.204972 8.8179264 -0.61906064 481.5 0 0 0 30.225685
3.6971223 8.7903452 -0.62754929 454 0 0 0 31.01576
4.1992989 8.7458143 -0.63673079 464.5 0 0 0 31.793854
4.7264538 8.7095108 -0.64871299 468.5 0 0 0 32.572987
5.2951279 8.6985645 -0.66515875 565.5 0 0 0 33.35532
5.7104735 8.6430025 -0.67526376 499 0 0 0 33.94146
6.1630735 8.6120262 -0.6891948 425 0 0 0 34.524246
6.7877731 8.5549297 -0.70909071 345 0 0 0 35.310005
7.2934289 8.5227194 -0.72717434 264 0 0 0 35.891193
-5.2625666 9.4081078 -0.75016904 302 0 0 0 16.574776
-4.6644936 9.38272 -0.72706491 377.5 0 0 0 17.358601
-0.081007749 9.0834675 -0.6125136 968 0 0 0 24.578609
0.14252329 9.0873098 -0.61196733 1129 0 0 0 24.9625
0.69797385 9.0270319 -0.60724139 709 0 0 0 25.944111
1.1473253 9.0246763 -0.60839683 1806.5 0 0 0 26.721886
1.8641651 -25.866074 -0.36515063 201 0 0 0 73.379616
7.7802882 -25.821016 -0.36756104 202 0 0 0 69.873856
20.229401 -24.742285 -0.41973293 26 0 0 0 63.6115
-0.57309836 -21.76926 -0.30560645 27 0 0 0 74.945915
-2.7386196 -7.0328922 -0.45494714 388 0 0 0 80.416199
-1.6054097 -7.0205612 -0.25439757 449 0 0 0 78.068802
-0.73102069 -7.0921144 -0.24847974 315 0 0 0 76.124969
-0.20532115 -7.0108967 -0.41531742 656 0 0 0 74.945915
-8.240591 -6.7501717 -0.27627087 333.5 0 0 0 88.63192
-6.8586569 -6.6766219 -0.24399018 388 0 0 0 87.271706
-5.2294273 -6.8496819 -0.10848194 255.5 0 0 0 84.91333
-4.6385827 -6.909802 -0.30556163 219 0 0 0 83.927353
-4.1409221 -6.7490897 -0.41608122 439.66666 0 0 0 83.288139
-3.9073582 -6.8571367 -0.3820135 755.5 0 0 0 82.762558
-3.0482523 -6.8218722 -0.26875266 248 0 0 0 81.204521
-2.7610807 -6.8363218 -0.26360199 305.5 0 0 0 80.61261
-2.2428741 -6.7131438 -0.32050639 347.39999 0 0 0 79.639809
-1.7899806 -6.8879938 -0.35501713 417.20001 0 0 0 78.539848
-1.2086778 -6.7725143 -0.2741501 284.39999 0 0 0 77.292473
-0.62698931 -6.9097252 -0.24269605 301.75 0 0 0 75.929642
-0.20390899 -6.9561052 -0.30964825 319.60001 0 0 0 74.948303
0.30058983 -6.8378124 -0.29180729 176.33333 0 0 0 73.775299
0.8484 -6.8240805 -0.32010591 331 0 0 0 72.504311
1.765718 -6.5253391 -0.3946014 184 0 0 0 70.264526
-12.90304 -6.0981598 -0.21174483 85 0 0 0 92.52729
-11.046534 -6.2492628 -0.49348119 182 0 0 0 91.365379
-10.280968 -6.1531997 -0.46353731 286 0 0 0 90.980209
-9.0496426 -6.3624287 -0.42432538 488 0 0 0 89.807922
-8.7235823 -6.4579606 -0.4153325 602 0 0 0 89.409103
-6.3415112 -6.3256679 -0.11603905 183 0 0 0 87.07534
-5.8877764 -6.4754915 -0.32536614 289 0 0 0 86.292679
-4.5799079 -6.4754529 -0.09636683 317 0 0 0 84.323685
-4.3800201 -6.3527312 -0.37447587 309 0 0 0 84.125519
-3.7695405 -6.2537727 -0.14354602 311 0 0 0 83.155334
-3.3317118 -6.1924419 -0.079657763 134 0 0 0 82.376915
-2.6991034 -6.4584551 -0.077827789 143 0 0 0 80.809029
-2.1478078 -6.4215498 -0.40356007 372 0 0 0 79.63356
-1.5337725 -6.0159745 -0.062965371 300 0 0 0 78.459618
-1.0966425 -6.1504741 -0.21502776 250 0 0 0 77.292145
-0.98794144 -6.4640894 -0.067073435 97 0 0 0 76.899361
0.5620141 -6.066905 -0.35404471 217 0 0 0 72.991264
1.0302809 -6.1473074 -0.057319347 168 0 0 0 71.821915
2.3646164 -6.2400713 -0.38777837 277 0 0 0 68.697792
2.8405831 -6.2326946 -0.3441658 271.33334 0 0 0 67.652504
3.09637 -6.2412505 -0.40538847 230 0 0 0 67.140388
-8.9036312 -5.6310101 -0.1456957 121 0 0 0 90.596085
-7.9625711 -5.895937 -0.1340958 202 0 0 0 89.409103
-7.477344 -5.8231049 -0.35761756 295 0 0 0 89.018074
-6.2415886 -5.6438084 -0.10730842 42 0 0 0 87.843758
-5.6936293 -5.677989 -0.49304092 283 0 0 0 87.07473
-5.3540716 -5.7445621 -0.09672977 242.5 0 0 0 86.48703
-4.9454823 -5.7133942 -0.091241412 383 0 0 0 85.897728
-4.4760809 -5.7107854 -0.43963462 298 0 0 0 85.111389
-3.9322627 -5.8556294 -0.081249848 213 0 0 0 83.927353
-3.0858185 -5.7308717 -0.38846385 529 0 0 0 82.376915
-2.820972 -5.6992636 -0.192193 582.59998 0 0 0 81.829269
-2.1893077 -5.612072 -0.27913487 449.5 0 0 0 80.416199
-1.6149065 -5.739459 -0.2781404 210 0 0 0 78.855614
-1.4110932 -5.8249359 -0.49973455 493 0 0 0 78.264206
-0.61869007 -5.9687104 -0.49885416 380 0 0 0 76.123749
-0.31582436 -5.7805772 -0.4792932 68 0 0 0 75.337753
0.38381404 -5.6736031 -0.32815853 98 0 0 0 73.379616
0.93264335 -5.8772621 -0.34546331 272.33334 0 0 0 71.950951
1.2712823 -5.8363662 -0.37396774 304.39999 0 0 0 71.047073
1.7667269 -5.678812 -0.34272897 251.55556 0 0 0 69.656944
2.3143981 -5.785903 -0.27828649 297.5 0 0 0 68.405693
2.5613363 -5.7462692 -0.10576241 188 0 0 0 67.781609
3.3170528 -5.6879668 -0.26058251 487.25 0 0 0 66.058098
3.8588092 -5.5463896 -0.059064813 203 0 0 0 64.786995
4.1250868 -5.6293216 -0.23297542 339 0 0 0 64.394928
4.9049273 -5.7461696 -0.16255096 266 0 0 0 63.229366
5.0641599 -5.646503 -0.25564077 98 0 0 0 62.830318
8.3365574 -5.6153469 -0.35023406 292 0 0 0 58.922562
-28.948751 -5.0217342 -0.47630644 25 0 0 0 96.827698
-20.185682 -5.0545535 -0.32679534 60 0 0 0 95.654205
-17.147327 -5.1994438 -0.27622426 155 0 0 0 94.889885
-12.779148 -5.2898755 -0.20441684 116 0 0 0 93.314178
-10.236207 -5.3049407 -0.30516288 223.75 0 0 0 91.947456
-9.5291967 -5.3923879 -0.15332538 193 0 0 0 91.365379
-8.6972475 -5.2065611 -0.13900478 98 0 0 0 90.980209
-8.1488714 -5.2918825 -0.36851013 256.5 0 0 0 90.401245
-7.779994 -5.331059 -0.12623492 251 0 0 0 90.007172
-6.9078693 -5.3807755 -0.11395784 296 0 0 0 89.018074
-5.7147231 -5.2495699 -0.34787908 465.66666 0 0 0 87.718529
-4.8357267 -5.1853518 -0.34222332 405.5 0 0 0 86.48703
-4.2602777 -5.1684961 -0.24124837 267.20001 0 0 0 85.505547
-3.4234781 -5.3747225 -0.069508791 76 0 0 0 83.542473
-2.681448 -5.3870831 -0.35483119 543.33331 0 0 0 81.853874
-2.2588394 -5.269424 -0.43183601 352.66666 0 0 0 80.940857
-1.6318998 -5.0717125 -0.049327075 101 0 0 0 79.442596
-1.2056273 -5.2483211 -0.049328975 174 0 0 0 78.068802
0.1600267 -5.1963816 -0.23138481 98 0 0 0 73.973129
1.0869892 -5.2478518 -0.19899096 196.2 0 0 0 71.203964
1.7563486 -5.022387 -0.17131448 16 0 0 0 69.092308
2.3177164 -5.3265014 -0.4760727 368.33334 0 0 0 67.914154
2.7843108 -5.2465754 -0.36043331 333.28571 0 0 0 66.687828
3.1583557 -5.1177721 -0.25386673 402.20001 0 0 0 65.65007
3.7150853 -5.3434291 -0.37472367 724.33331 0 0 0 64.788338
4.271935 -5.263443 -0.3913255 411.66666 0 0 0 63.616528
4.7318034 -5.1928968 -0.28994665 605 0 0 0 62.698559
5.4664516 -5.2580085 -0.44153774 765 0 0 0 61.658661
5.7669535 -5.2787447 -0.35829529 601 0 0 0 61.266113
-24.427973 -4.8576584 -0.39829594 24 0 0 0 96.433281
-17.624804 -4.8756237 -0.28272203 25 0 0 0 95.277077
-12.735023 -4.7329707 -0.20037024 295.5 0 0 0 93.906677
-11.050907 -4.8948307 -0.17385295 149 0 0 0 92.91671
-5.80581 -4.9953818 -0.18787806 387.5 0 0 0 88.230164
-3.7060864 -4.9707832 -0.21845126 504 0 0 0 84.715271
-1.8106073 -4.9920936 -0.049424686 286 0 0 0 80.03109
-1.0088748 -4.9308233 -0.41300312 124 0 0 0 77.685753
-0.73092902 -4.8872442 -0.16367581 146.60001 0 0 0 76.826096
-0.14997905 -4.8961892 -0.039269544 109.5 0 0 0 74.948898
0.2450316 -4.7724433 -0.036412206 75 0 0 0 73.645844
0.60044968 -4.8257871 -0.076528221 78.333336 0 0 0 72.474937
1.2182158 -4.8419342 -0.079139851 157.33333 0 0 0 70.524208
1.6826733 -4.7238374 -0.12996873 80 0 0 0 68.992905
2.3425627 -4.7382269 -0.039352652 142 0 0 0 67.140388
2.5185201 -4.7949133 -0.1735341 114 0 0 0 66.738243
3.2282429 -4.8172131 -0.23844115 345.83334 0 0 0 65.048363
3.7715061 -4.8147054 -0.37235436 560.66669 0 0 0 63.876995
4.4417076 -4.7196369 -0.13312531 468.5 0 0 0 62.435032
4.7561879 -4.7305522 -0.16238387 306.66666 0 0 0 61.916157
5.2973371 -4.7367201 -0.14649385 433.5 0 0 0 61.069
5.7062731 -4.789567 -0.2976253 416.25 0 0 0 60.582382
6.2902398 -4.7940297 -0.33306482 483.66666 0 0 0 59.835312
6.6794362 -4.8715525 -0.2832858 546.75 0 0 0 59.51086
7.8027291 -4.6275387 -0.23848294 328 0 0 0 58.013119
9.6164579 -4.8792243 -0.37929478 176 0 0 0 56.967087
10.48568 -4.9979496 -0.41178045 520 0 0 0 56.582439
10.947002 -4.890141 -0.42662191 405 0 0 0 56.183819
11.894837 -4.6242123 -0.457495 316 0 0 0 55.417446
12.500723 -4.5080185 -0.47847778 515 0 0 0 55.025951
13.500035 -4.8632526 -0.16786137 98 0 0 0 55.025951
14.550601 -4.8394456 -0.18269986 54 0 0 0 54.635193
20.3629 -4.6059899 -0.26698694 75 0 0 0 53.07555
-18.668041 -4.190793 -0.29753718 173 0 0 0 96.046913
-13.293429 -4.38941 -0.2077264 70 0 0 0 94.493347
4.5972586 -4.4283051 -0.20872487 308 0 0 0 61.658661
5.1568937 -4.4949255 -0.05840103 318 0 0 0 60.871887
5.7599502 -4.4235001 -0.1556569 272.5 0 0 0 59.903465
6.3782873 -4.301362 -0.070299588 313 0 0 0 58.922562
6.9463286 -4.3185482 -0.077279791 285.5 0 0 0 58.343159
7.1954741 -4.3524346 -0.28697199 261 0 0 0 58.148727
8.1284885 -4.3814449 -0.20655528 272.5 0 0 0 57.35788
8.7954407 -4.3273878 -0.10089801 264 0 0 0 56.774765
9.23668 -4.1266131 -0.10576135 497 0 0 0 56.183819
9.8720703 -4.1206484 -0.11442033 509 0 0 0 55.796501
10.387783 -4.3379264 -0.39862731 215 0 0 0 55.796501
10.565601 -4.1064014 -0.12398124 181 0 0 0 55.417446
13.085039 -4.3571963 -0.49861157 210 0 0 0 54.635193
14.757915 -4.1137857 -0.18391913 86 0 0 0 53.857418
16.103804 -4.0635924 -0.20351133 28 0 0 0 53.468689
12.944652 -3.9557884 -0.15729591 231 0 0 0 54.246712
18.338753 -3.6772256 -0.23617725 27 0 0 0 52.681271
20.214628 -3.537708 -0.26417208 22 0 0 0 52.291912
25.438093 -3.8082147 -0.34264114 74 0 0 0 51.894833
29.099358 -3.6267486 -0.39807943 20 0 0 0 51.507721
-5.077002 -0.68035716 -0.21531597 467.28571 0 0 0 97.445023
-5.0287032 -0.37097853 -0.11310426 271 0 0 0 98.391693
-4.9054465 -0.38395271 -0.21078861 331.66666 0 0 0 98.326134
-5.0498219 0.25434521 -0.43017545 150 0 0 0 0.38782001
-4.8670545 0.17658263 -0.20592292 157.25 0 0 0 25.148252
-4.5136881 0.77397555 -0.1692614 183 0 0 0 2.3415699
-4.4601173 0.92237008 -0.19989371 246.14285 0 0 0 2.8984954
-4.5423255 1.0900658 -0.23165324 141 0 0 0 3.4144249
6.9502811 3.8576615 -0.29428735 526.33331 0 0 0 41.557705
7.3371515 3.7215676 -0.20324923 424 0 0 0 42.152927
7.7634788 3.6972818 -0.2133248 240.5 0 0 0 42.540833
8.2732248 3.6881809 -0.3369166 284 0 0 0 42.925381
8.7928505 3.6616788 -0.23815517 349.5 0 0 0 43.314991
-6.0848312 4.4464059 -0.23370978 582.5 0 0 0 9.7463303
-5.6633272 4.4358521 -0.27438268 373.60001 0 0 0 10.298078
-5.4851785 4.4260392 -0.4718585 1290 0 0 0 10.53089
-2.0666714 4.4445076 -0.25458616 13 0 0 0 17.94495
-1.6870934 4.2513132 -0.24970248 26.642857 0 0 0 18.894318
-1.2211329 4.1661477 -0.26078242 73.736839 0 0 0 20.389824
-0.78910279 4.2734962 -0.28247884 42.842106 0 0 0 22.010588
6.9758468 4.2962155 -0.23929228 527 0 0 0 40.843769
9.0481606 4.0334873 -0.12858617 600 0 0 0 42.925381
25.123043 4.3430328 -0.36711559 12 0 0 0 46.827007
28.064615 4.1417117 -0.41011867 14 0 0 0 47.222198
-10.908364 4.8096771 -0.24664053 242 0 0 0 6.2420897
-10.17809 4.7836142 -0.23107456 149 0 0 0 6.6276498
-9.7801304 4.8892546 -0.35638654 974.5 0 0 0 7.0193501
-5.1635556 4.710351 -0.2990227 921.5 0 0 0 11.500053
-2.0662284 4.5965061 -0.2625685 276 0 0 0 18.140854
-0.65741098 4.5652628 -0.066820264 115 0 0 0 22.62108
-0.44049108 4.729342 -0.29996446 13.666667 0 0 0 23.407669
7.0226355 4.732954 -0.21499914 556.5 0 0 0 40.190353
17.783087 4.9204016 -0.26194364 73 0 0 0 45.26408
19.228079 4.8120737 -0.28234342 58 0 0 0 45.65662
20.972404 4.7014189 -0.30736807 37 0 0 0 46.039959
22.976984 4.5582862 -0.33628958 29 0 0 0 46.430714
-19.769278 5.4807391 -0.44486851 10 0 0 0 3.8964901
-9.6365862 5.266078 -0.35929713 659.25 0 0 0 7.6043701
-5.007164 5.161819 -0.48398563 120 0 0 0 12.47328
-4.9806447 5.2888918 -0.27951151 669.59998 0 0 0 12.704532
7.7422957 5.3069816 -0.20504515 421.66666 0 0 0 40.064133
16.289335 5.3856139 -0.24432555 280 0 0 0 44.484879
16.525143 5.0153065 -0.24439046 89 0 0 0 44.870258
-18.769779 5.6989045 -0.42560065 94 0 0 0 4.2940998
-18.062231 5.9680071 -0.41344947 71 0 0 0 4.67978
-9.5889606 5.8635397 -0.2346326 205.5 0 0 0 8.38169
-4.9583993 5.785048 -0.23969626 1415 0 0 0 13.4505
-0.36411995 5.5869474 -0.2930274 24.5 0 0 0 23.78974
0.22627753 5.8986983 -0.1903628 177.5 0 0 0 25.418123
7.125031 5.8963628 -0.35680804 541 0 0 0 38.636761
7.7170362 5.7672772 -0.25249007 592.5 0 0 0 39.420689
16.329855 5.8487568 -0.24929813 283 0 0 0 44.097073
-16.828671 6.2489395 -0.39043158 103.5 0 0 0 5.26897
-15.680361 6.4830403 -0.36902168 40 0 0 0 5.8517098
-9.5193367 6.3103266 -0.24013694 343 0 0 0 8.9660101
-4.9328628 6.2034154 -0.25112522 1472.5 0 0 0 14.03371
7.1376348 6.2087107 -0.36705849 508 0 0 0 38.249168
7.7721782 6.2187233 -0.22222836 525.66669 0 0 0 38.898281
16.355526 6.3163977 -0.25431362 277 0 0 0 43.710369
-9.5000057 6.6371264 -0.24494198 267 0 0 0 9.3536501
-4.9248061 6.690887 -0.26540917 1303.75 0 0 0 14.62612
-0.25206232 6.7448297 -0.44451818 35 0 0 0 24.17758
0.72259909 6.5465508 -0.2677992 368 0 0 0 26.52944
7.1912155 6.7952466 -0.30590427 372 0 0 0 37.600113
7.8339553 6.8114944 -0.15168011 103 0 0 0 38.249168
-4.9089127 7.2123804 -0.28076017 1079 0 0 0 15.22058
7.2226682 7.285346 -0.27928811 348 0 0 0 37.077179
7.8546929 7.175859 -0.15782344 326 0 0 0 37.859081
-4.8665729 7.6876373 -0.33219716 747 0 0 0 15.732849
7.2404251 7.6708074 -0.28972653 354 0 0 0 36.682579
-4.8867946 8.3132601 -0.27563617 440 0 0 0 16.251717
1.819392 8.9689751 -0.2729083 1339.75 0 0 0 27.893185
2.2800102 8.9463196 -0.27341306 1418.75 0 0 0 28.666451
2.7448015 8.9064665 -0.27405027 1163.25 0 0 0 29.447701
3.2026317 8.8190241 -0.27376443 645.5 0 0 0 30.225685
3.6978803 8.7988825 -0.27684709 707.25 0 0 0 31.01576
4.2194014 8.7931156 -0.28114951 775.75 0 0 0 31.793854
4.7439804 8.7476473 -0.28511029 654 0 0 0 32.572987
5.2988791 8.7109661 -0.29034647 557.25 0 0 0 33.35532
5.7271051 8.6733799 -0.29475757 543.5 0 0 0 33.94146
6.1691127 8.6262865 -0.29940307 506.5 0 0 0 34.524246
6.7989411 8.5732985 -0.30720696 403 0 0 0 35.310005
7.3165317 8.5546188 -0.31507254 258 0 0 0 35.891193
7.6729383 8.5335369 -0.32030934 253.5 0 0 0 36.29052
-5.1293011 9.4371929 -0.35483766 611.5 0 0 0 16.770411
-4.6853571 9.4225044 -0.34602541 512.25 0 0 0 17.358601
-4.2595153 9.4134636 -0.21251059 579 0 0 0 17.94495
-0.19481242 9.1020193 -0.28049582 842.75 0 0 0 24.378094
0.14176841 9.0936069 -0.38984996 1739 0 0 0 24.9625
0.81253672 9.0762215 -0.27637169 2736 0 0 0 26.14226
1.3048011 9.0339594 -0.25225154 1993.2 0 0 0 26.993092
-51.277954 -8.9041071 0.39962247 18 0 0 0 96.827698
-1.6176275 -7.0851393 0.097299136 159 0 0 0 78.068802
-3.0446615 -6.8148084 0.28179738 176 0 0 0 81.204521
-1.1999556 -6.7445831 0.26426417 114.5 0 0 0 77.292557
-0.69425517 -6.7410817 0.20846814 184.66667 0 0 0 76.124565
-0.19577526 -6.7114434 0.095817178 127 0 0 0 74.945915
0.37273648 -6.6177483 0.34323353 152 0 0 0 73.576736
-22.585567 -6.2521939 0.19963706 37 0 0 0 95.277077
-6.8272538 -6.4874573 0.10531241 200 0 0 0 87.468071
-4.0498848 -6.362793 0.28227964 184 0 0 0 83.542473
-3.6479537 -6.0538044 0.091239244 340 0 0 0 83.160973
-3.3367743 -6.2042093 0.091697216 267 0 0 0 82.376915
-2.5202804 -6.0264306 0.25150892 253 0 0 0 80.809029
-2.1648321 -6.4792948 0.092340216 173 0 0 0 79.63356
-1.5998476 -6.2778592 0.40988141 107 0 0 0 78.459618
-1.285001 -6.326077 0.24917242 279 0 0 0 77.680473
-0.87335402 -6.2007165 0.16579553 231 0 0 0 76.706894
-0.3288044 -6.0511951 0.38874421 153 0 0 0 75.337753
0.44314942 -6.4744925 0.25728774 62 0 0 0 73.379616
1.3339144 -6.1025043 0.095702589 133 0 0 0 71.04628
2.1449277 -6.1045766 0.099697031 104 0 0 0 69.092308
2.9781556 -6.0004907 0.10368164 61 0 0 0 67.140388
-24.949022 -5.6053152 0.21452679 24 0 0 0 96.046913
-19.703535 -5.9782996 0.17984864 94 0 0 0 94.889885
-17.607872 -5.8175874 0.1656504 86 0 0 0 94.493347
-14.417671 -5.5611711 0.14428841 97 0 0 0 93.712448
-6.7448483 -5.5260129 0.099423453 225 0 0 0 88.63192
-5.2426472 -5.8603721 0.16168229 252.66667 0 0 0 86.161034
-4.299798 -5.6290159 0.090010151 130.5 0 0 0 84.91333
-3.5064988 -5.5076346 0.086817771 255 0 0 0 83.542473
-2.6382947 -5.529922 0.23757148 367 0 0 0 81.592354
-2.499706 -5.5862489 0.38693407 156 0 0 0 81.204521
-1.6622694 -5.9097443 0.16424398 150 0 0 0 78.855629
-1.0636247 -5.9644241 0.38667294 139 0 0 0 77.292145
0.40785897 -5.9772177 0.091085106 79 0 0 0 73.379616
1.3578477 -5.7716084 0.29044545 147.66667 0 0 0 70.78479
1.79169 -5.5433521 0.38129795 121 0 0 0 69.483719
2.6426065 -5.6749363 0.099091381 59 0 0 0 67.523399
3.0457115 -5.7783542 0.10245623 193 0 0 0 66.738243
-12.855298 -5.322577 0.30774277 187.5 0 0 0 93.314178
-12.004673 -5.3172708 0.45564848 119 0 0 0 92.91671
-10.754206 -5.0831757 0.26618943 413.5 0 0 0 92.52729
-10.49263 -5.278995 0.11894066 155 0 0 0 92.13887
-9.2754536 -5.2512875 0.11168622 116 0 0 0 91.368126
-8.9065475 -5.0417132 0.10866059 171 0 0 0 91.365379
-7.6634459 -5.1146841 0.10202725 219 0 0 0 90.206413
-7.421721 -5.220304 0.10125163 260 0 0 0 89.807922
-6.7913327 -5.2023311 0.16988432 299.33334 0 0 0 89.148415
-6.2279391 -5.099854 0.29499876 260 0 0 0 88.63192
-5.8214235 -5.2660532 0.38618535 239 0 0 0 87.849121
-5.3633103 -5.0918493 0.27462822 280 0 0 0 87.468071
-4.6900973 -5.0301542 0.25423989 435 0 0 0 86.48703
-4.0924921 -5.2272887 0.17089938 368.5 0 0 0 85.110741
-3.5844946 -5.0634689 0.16032657 522.5 0 0 0 84.323685
-3.3874402 -5.249507 0.27955523 460 0 0 0 83.639542
-2.7719798 -5.2279282 0.15707225 350.5 0 0 0 82.278473
-2.1973774 -5.1596842 0.32010511 316 0 0 0 80.908569
-1.5787435 -5.1213007 0.21445103 154.5 0 0 0 79.25164
-1.4580928 -5.1752648 0.21342714 109.33334 0 0 0 78.855614
-0.5315097 -5.1029124 0.081126116 144 0 0 0 76.123749
-0.23806736 -5.2360063 0.21023807 109.4 0 0 0 75.183395
0.26714987 -5.1268497 0.22555391 110.375 0 0 0 73.629845
0.65477943 -5.2415538 0.21415341 121 0 0 0 72.474937
1.0260072 -5.3394594 0.1558004 158 0 0 0 71.440491
1.7142357 -5.2153974 0.25267673 104.8 0 0 0 69.404312
2.2476158 -5.1644192 0.3036131 164.5 0 0 0 67.910721
2.7723794 -5.2638774 0.35456532 205.5 0 0 0 66.742348
3.2011609 -5.1968369 0.17354049 158.25 0 0 0 65.669312
3.5770257 -5.1435528 0.10141641 340 0 0 0 64.786995
5.3492851 -5.016531 0.38675916 371.5 0 0 0 61.462387
6.0720568 -5.0271239 0.12012529 164 0 0 0 60.485878
-18.361881 -4.6012378 0.16817766 121 0 0 0 95.654205
-12.676616 -4.5357065 0.13027006 11 0 0 0 94.100899
-11.103601 -4.920404 0.1214174 165 0 0 0 92.91671
-9.8465471 -4.9515018 0.38851973 260 0 0 0 92.13887
-9.1363821 -4.8781757 0.3674193 446 0 0 0 91.756042
-8.5926533 -4.8617954 0.35207897 330 0 0 0 91.365379
-8.2123671 -4.9157982 0.34259769 571 0 0 0 90.980209
-7.7542791 -4.904212 0.21493894 396.5 0 0 0 90.596085
-7.0465598 -4.8270612 0.31007278 597 0 0 0 90.007172
-6.675961 -4.9417939 0.30280396 490 0 0 0 89.409103
-6.2220545 -4.9675331 0.48646063 370.5 0 0 0 88.824997
-5.6541061 -4.94557 0.3355186 533.66669 0 0 0 88.101357
-5.4033031 -4.8849597 0.18003435 367 0 0 0 87.843758
-4.7455282 -4.8460593 0.25405794 545.25 0 0 0 86.878365
-4.1034737 -4.8549981 0.31974846 675 0 0 0 85.701965
-3.73052 -4.9383826 0.34961912 637 0 0 0 84.81543
-3.3287864 -4.9525523 0.23066178 548 0 0 0 83.927353
-2.7860155 -4.8774395 0.32308322 545.25 0 0 0 82.765747
-2.2910345 -4.8542151 0.26630622 406.39999 0 0 0 81.514656
-1.7426691 -4.8010025 0.30988652 283.66666 0 0 0 80.027855
-1.1996179 -4.7804646 0.34470055 150 0 0 0 78.382492
-0.79495496 -4.7030568 0.36291161 158.28572 0 0 0 77.126282
-0.23361179 -4.6864557 0.30760032 158.55556 0 0 0 75.254501
0.25659332 -4.7188392 0.40040165 123.5 0 0 0 73.579292
0.71177316 -4.7260566 0.25837967 105.25 0 0 0 72.067513
1.2340517 -4.6519623 0.30604237 146 0 0 0 70.313385
1.7404671 -4.7517452 0.18706931 109.6 0 0 0 68.85598
2.1215212 -4.7760887 0.32630527 116.83334 0 0 0 67.785759
2.6762602 -4.5875788 0.24932785 153.60001 0 0 0 66.039833
3.3139424 -4.711791 0.24128228 195.75 0 0 0 64.689926
3.7630618 -4.8023934 0.22698604 340.33334 0 0 0 63.875156
4.2889624 -4.7889142 0.26556486 341.20001 0 0 0 62.831825
4.783977 -4.754868 0.16148581 379 0 0 0 61.916157
5.4479184 -4.7443938 0.11326353 235 0 0 0 60.871887
6.6903591 -4.5081286 0.12224116 143 0 0 0 58.922562
0.85795707 -4.4948683 0.3059932 173 0 0 0 71.440491
1.1964339 -4.458066 0.19500771 204.5 0 0 0 70.264526
1.6120803 -4.4417777 0.43472916 201.5 0 0 0 68.89505
2.1889429 -4.4290414 0.29238534 175 0 0 0 67.13401
2.9150681 -4.3717051 0.31893057 230 0 0 0 65.084084
3.3173382 -4.2558193 0.42791119 325 0 0 0 63.906662
3.9329023 -4.3927226 0.24512142 257.5 0 0 0 62.830318
4.3044696 -4.3541598 0.35478792 306 0 0 0 62.046204
4.7483397 -4.243886 0.30156562 461.25 0 0 0 61.069
5.2848978 -4.206531 0.30924743 604.79999 0 0 0 60.175152
5.824996 -4.3619208 0.29654616 387.25 0 0 0 59.707161
6.2383704 -4.2497683 0.37863135 321.20001 0 0 0 59.001282
6.806325 -4.2296429 0.22072139 358.25 0 0 0 58.343163
7.247479 -4.1392303 0.12497526 318 0 0 0 57.750881
7.5738068 -4.2034626 0.34531897 238 0 0 0 57.554382
8.320632 -4.2199116 0.25069898 355.25 0 0 0 56.968624
8.5563288 -4.0772767 0.13611008 137 0 0 0 56.582439
9.1859198 -4.1024966 0.39391363 411 0 0 0 56.183819
9.6760101 -4.1295934 0.23464425 388 0 0 0 55.92561
11.149806 -4.0174761 0.45565256 326 0 0 0 55.025951
-19.172499 -3.8161137 0.17253397 14 0 0 0 96.433281
10.125802 -3.9338701 0.28452766 357.5 0 0 0 55.417446
10.875057 -3.9176931 0.15577734 442 0 0 0 55.025951
11.85195 -3.9419045 0.31938624 133.5 0 0 0 54.635193
12.309443 -3.7594972 0.32994157 336 0 0 0 54.246712
13.504383 -3.7616103 0.17860357 297 0 0 0 53.857418
15.314469 -3.8606741 0.19535945 100 0 0 0 53.468689
16.074263 -3.6333838 0.20124097 66 0 0 0 53.07555
18.276131 -3.6596398 0.22130707 36 0 0 0 52.681271
19.788332 -3.4577637 0.23419718 29 0 0 0 52.291912
21.589588 -3.2268147 0.24965842 123 0 0 0 51.894833
25.2967 -3.1462238 0.28310049 47 0 0 0 51.507721
-51.586033 -2.5426333 0.39906731 45 0 0 0 98.776268
27.528086 -2.7379956 0.30186597 57 0 0 0 51.12542
-55.426079 -1.3699189 0.42648202 26 0 0 0 99.176849
-5.0420327 -0.79089743 0.24009384 510.33334 0 0 0 97.092461
-4.9548812 -0.65328592 0.29733905 375.33334 0 0 0 97.48172
-5.0869875 -0.34479865 0.29338115 395.5 0 0 0 98.487839
-4.9175715 -0.23319222 0.25930378 350.63635 0 0 0 98.815895
-4.8923221 0.30817062 0.22830361 231.6875 0 0 0 0.58474755
-4.5825238 0.81309515 0.29671031 289.30768 0 0 0 2.4310474
-4.4819565 0.96377981 0.12933542 440.25 0 0 0 3.0269675
35.864014 0.85319787 0.36544427 51 0 0 0 49.17281
-4.549633 1.1397518 0.31867939 281.42856 0 0 0 3.56585
-4.4869418 1.1051885 0.045874495 390 0 0 0 3.5102699
35.929733 1.7392086 0.36320108 46 0 0 0 48.778687
36.021416 2.6324654 0.36125389 74 0 0 0 48.38765
6.9481812 3.8620303 0.29538545 614.66669 0 0 0 41.557697
7.7785473 3.7086859 0.21269614 191.5 0 0 0 42.540833
8.2647123 3.6902351 0.33560574 410 0 0 0 42.925381
8.7534332 3.6500115 0.23169988 334 0 0 0 43.314991
32.321449 3.9681098 0.32356745 14 0 0 0 47.604446
36.03812 3.5261431 0.35869932 61 0 0 0 48.001328
-27.24448 4.0785928 0.073937409 21 0 0 0 1.95336
-1.278205 4.4758224 0.042758763 176.25 0 0 0 20.482796
6.9680634 4.2964244 0.16490658 564 0 0 0 40.843769
8.0328064 4.074935 0.21916127 323 0 0 0 42.152927
9.0616961 4.0428443 0.1148278 281 0 0 0 42.925381
25.30142 4.3815055 0.25867125 49 0 0 0 46.827007
28.189547 4.1686034 0.28540942 32 0 0 0 47.222198
-6.2389956 4.7976856 0.037173323 415 0 0 0 10.14287
-5.7436709 4.7527933 0.037118532 535 0 0 0 10.722415
-5.2967548 4.8722506 0.095743321 648.66669 0 0 0 11.566563
-1.7356523 4.5735946 0.041466247 193 0 0 0 19.11656
-1.1922433 4.8829236 0.1678033 21 0 0 0 21.07082
-0.77424496 4.5826783 0.044645589 97 0 0 0 22.235598
23.331896 4.6356649 0.2403986 143 0 0 0 46.430714
-19.706772 5.4623189 0.053019743 104 0 0 0 3.8964901
-10.228422 5.114471 0.039617676 312 0 0 0 7.0193501
-9.8462906 5.3791695 0.038490996 399 0 0 0 7.6043701
-5.1515312 5.2597799 0.11002731 615.40002 0 0 0 12.395205
-1.8996377 5.2419758 0.17933914 189.5 0 0 0 19.313385
-0.72274619 5.1005445 0.17318903 10 0 0 0 22.623697
-0.43580604 5.2449241 0.13546281 13 0 0 0 23.535027
7.0498428 5.1463299 0.20668614 414 0 0 0 39.611294
7.7598352 5.2289801 0.22041607 515.5 0 0 0 40.190353
8.2189903 5.2451487 0.35131124 257 0 0 0 40.5886
23.627419 5.3014765 0.24164918 110 0 0 0 46.039959
-18.847193 5.7215023 0.050408527 142 0 0 0 4.2940998
-18.067797 5.9687548 0.04806675 143 0 0 0 4.67978
-9.6292477 5.7265801 0.037414722 467 0 0 0 8.1821699
-6.5184846 5.8284769 0.25139797 663 0 0 0 11.30209
-5.0430965 5.7377582 0.13113768 1045.5 0 0 0 13.25347
-4.967865 5.9393291 0.1311897 1474 0 0 0 13.64753
-1.68242 5.7470541 0.4120965 181.5 0 0 0 20.284821
-1.2618202 5.861557 0.48683006 40.5 0 0 0 21.458374
-0.82159603 5.8784924 0.48462316 44.5 0 0 0 22.625004
-0.37186715 5.681663 0.04754737 16 0 0 0 23.78974
0.26905102 5.8380842 0.26817238 1105.3572 0 0 0 25.55028
7.1092224 5.7464404 0.212129 536.25 0 0 0 38.832901
23.85173 5.9714813 0.2423083 117 0 0 0 45.65662
-17.323664 6.1942172 0.045962177 164 0 0 0 5.0732999
-16.657944 6.4172802 0.044072501 172 0 0 0 5.4646401
-10.773376 6.4189019 0.34669784 219 0 0 0 8.1821699
-10.075867 6.3369279 0.33046454 416 0 0 0 8.5812101
-9.5972252 6.2518258 0.1319363 365 0 0 0 8.8377428
-6.3876953 6.2999005 0.47373563 137 0 0 0 12.08538
-5.1477771 6.1606731 0.42832452 1230 0 0 0 13.64753
-4.9894195 6.2729192 0.03619799 1113 0 0 0 14.03371
-0.83794636 6.025465 0.49557334 5 0 0 0 22.62108
0.50595909 6.0489345 0.052132554 714 0 0 0 26.14226
7.1526489 6.229435 0.21676053 501.5 0 0 0 38.249168
-55.569271 6.9475818 0.11357106 5 0 0 0 1.55986
-16.072264 6.6449838 0.042364668 214 0 0 0 5.8517098
-15.499313 6.8540411 0.040821441 227 0 0 0 6.2420897
-9.5134811 6.645103 0.0353918 165 0 0 0 9.3536501
-9.4859867 6.9768162 0.034783952 191 0 0 0 9.7463303
-6.39676 6.9609098 0.26838365 40 0 0 0 12.8587
-5.2215953 6.7997398 0.31668523 47.333332 0 0 0 14.296576
-4.9388962 6.7064652 0.036173474 1185 0 0 0 14.62612
7.1929593 6.7484031 0.22167218 435.25 0 0 0 37.664856
24.139143 6.6782317 0.24354509 106 0 0 0 45.26408
-14.97744 7.0635762 0.03941999 279 0 0 0 6.6276498
-9.8680439 7.2647977 0.33743975 44 0 0 0 9.7463303
-6.2071209 7.0937624 0.49608946 13 0 0 0 13.25347
-5.1807771 7.227747 0.47116348 87 0 0 0 14.82423
-4.9209609 7.2262077 0.036177397 995 0 0 0 15.22058
7.2265654 7.2959876 0.22703722 383.5 0 0 0 37.077179
24.381128 7.3951054 0.24443038 84 0 0 0 44.870258
-5.1472611 7.7049518 0.33885598 284.33334 0 0 0 15.347333
-4.8928337 7.5813208 0.036245886 997 0 0 0 15.60084
7.2475281 7.6853657 0.23088312 373 0 0 0 36.682579
-10.799926 8.3742456 0.37127763 19 0 0 0 10.14287
-9.5745783 8.1941471 0.3448427 106 0 0 0 10.91394
-6.0716858 8.4978247 0.29322937 17 0 0 0 14.82423
-5.0190759 8.225255 0.27474818 624 0 0 0 15.99687
-4.9059467 8.0328674 0.0363128 727 0 0 0 15.99687
21.992817 8.4898949 0.22165866 56 0 0 0 43.710369
23.418339 8.3823557 0.23432483 53 0 0 0 44.097073
24.626019 8.1356411 0.24535562 72 0 0 0 44.484879
1.2460976 8.9673376 0.17241688 743.33331 0 0 0 26.915817
1.8066049 8.9263477 0.17623226 648 0 0 0 27.893185
2.2607172 8.8891735 0.17962417 651 0 0 0 28.666451
2.7256131 8.8592997 0.18356709 630 0 0 0 29.447699
3.1998982 8.8233776 0.18792713 689.25 0 0 0 30.225685
3.6884158 8.7877951 0.192801 622 0 0 0 31.01576
4.1940317 8.7512989 0.19832093 565.25 0 0 0 31.793854
4.7194042 8.7123623 0.20443456 510.75 0 0 0 32.572987
5.2687211 8.6710501 0.21117026 482.5 0 0 0 33.35532
5.7953534 8.6286707 0.26173404 385.33334 0 0 0 34.071507
6.2008958 8.6039619 0.17972834 390.33334 0 0 0 34.588467
6.7752166 8.5523891 0.23160616 316.75 0 0 0 35.310005
7.2907453 8.5330448 0.09889812 374 0 0 0 35.891193
7.6388574 8.5042076 0.10153528 364 0 0 0 36.29052
-5.2803574 9.4322252 0.16999322 520.5 0 0 0 16.574776
-4.6742139 9.3939371 0.16749468 492 0 0 0 17.358601
-4.2365131 9.3576193 0.16580984 563 0 0 0 17.94495
-3.8647947 9.3301849 0.20610231 436 0 0 0 18.465477
-0.19829537 9.0783367 0.1653688 469.25 0 0 0 24.378096
8.2970181 9.4564304 0.42176789 247 0 0 0 36.090858
-28.869589 -8.7540236 0.99948996 35 0 0 0 94.889885
-29.026987 -8.029871 0.99781901 16 0 0 0 95.277077
-23.956329 -7.9106307 0.84179312 54 0 0 0 94.493347
0.93513411 -6.5412641 0.58859307 97 0 0 0 72.209038
-6.307168 -6.2907195 0.5412299 159 0 0 0 87.07534
-0.18894817 -6.419971 0.72561651 442 0 0 0 74.945915
-12.152617 -5.7430096 0.79436672 165 0 0 0 92.52729
-6.088728 -5.5063915 0.90377927 696 0 0 0 87.843758
-4.3577538 -5.8535118 0.98843938 800.33331 0 0 0 84.716782
-3.7761841 -5.7764301 0.93725204 560.5 0 0 0 83.734909
-3.1352551 -5.5003109 0.86333591 738 0 0 0 82.762558
-2.7704575 -5.5734 0.7466417 662.66669 0 0 0 81.855591
-2.0529671 -5.6726694 0.90175384 577 0 0 0 80.03109
-1.6699566 -5.5795836 0.89693874 453.33334 0 0 0 79.114929
-1.388117 -5.7289743 0.95560294 454.5 0 0 0 78.264206
-0.89005101 -5.8149557 0.95501763 392 0 0 0 76.899361
-0.38645715 -5.7710152 0.73496366 349.5 0 0 0 75.536636
0.82903463 -5.8060389 0.59664953 98.5 0 0 0 72.214897
1.373346 -5.630332 0.59327537 211.5 0 0 0 70.654045
1.6321913 -5.5025916 0.79939789 149 0 0 0 69.873856
2.4005575 -5.892983 0.5727666 147 0 0 0 68.308327
-12.030105 -5.3284416 0.77818441 146 0 0 0 92.91671
-10.48704 -5.2736712 0.69835037 403 0 0 0 92.13887
-9.6147661 -5.2865705 0.65537119 429 0 0 0 91.560715
-7.5250468 -5.021821 0.77185112 438 0 0 0 90.206413
-7.1223974 -5.1401482 0.64128166 455 0 0 0 89.608513
-6.7331781 -5.3789997 0.94652927 410 0 0 0 88.824997
-6.2937918 -5.4180527 0.91363484 548 0 0 0 88.230164
-5.6710167 -5.2593784 0.76274717 730 0 0 0 87.655914
-5.2801938 -5.263598 0.76383454 605.66669 0 0 0 87.074928
-4.6916451 -5.1603851 0.69056165 646.5 0 0 0 86.291122
-4.3184719 -5.3725786 0.76599324 739.5 0 0 0 85.3088
-3.7345259 -5.1420894 0.6335873 721.5 0 0 0 84.51944
-3.2371793 -5.193953 0.65777302 655.20001 0 0 0 83.390549
-2.8404169 -5.2007985 0.66448206 645.75 0 0 0 82.473328
-2.235342 -5.1966109 0.72258538 665.20001 0 0 0 80.966225
-1.7397941 -5.1953421 0.69899493 494.71429 0 0 0 79.638481
-1.2469397 -5.1979575 0.71313846 228.2 0 0 0 78.229271
-0.69103003 -5.3665872 0.81410694 403.75 0 0 0 76.513519
-0.19372317 -5.3570137 0.84320784 243.5 0 0 0 75.045364
0.24238487 -5.1243715 0.74222791 202.2 0 0 0 73.697914
0.73757011 -5.2149162 0.86371905 239.33333 0 0 0 72.213272
1.1559573 -5.1166553 0.77671307 249 0 0 0 70.917099
1.6761867 -5.1837268 0.89489222 209.25 0 0 0 69.483398
2.2306275 -5.2966576 0.59074849 217.5 0 0 0 68.109528
-10.521764 -4.9741125 0.98186094 165 0 0 0 92.52729
-8.2960567 -4.9658237 0.5819118 619 0 0 0 90.980209
-7.5774899 -4.7911735 0.54231095 591 0 0 0 90.596085
-7.2132497 -4.8118091 0.5258534 626 0 0 0 90.206413
-6.7813854 -4.8932981 0.61260104 680.5 0 0 0 89.608513
-6.1777401 -4.933382 0.67960531 866.5 0 0 0 88.824997
-5.789371 -4.9831638 0.65808374 616 0 0 0 88.230164
-5.0105028 -4.9962969 0.61282903 766 0 0 0 87.07534
-4.1489439 -4.9119949 0.56091368 715 0 0 0 85.701965
-3.1603382 -4.9604707 0.51743644 978 0 0 0 83.542473
-2.6686592 -4.9504642 0.56454533 699.5 0 0 0 82.374878
-2.233876 -4.9889355 0.61729884 600 0 0 0 81.204521
-1.1208953 -4.8752666 0.63249123 286 0 0 0 78.068802
-0.74561328 -4.8427243 0.6212849 231.625 0 0 0 76.902664
-0.2064902 -4.7667885 0.60691071 221.16667 0 0 0 75.145805
0.26295537 -4.8046727 0.63344979 210.33333 0 0 0 73.578438
0.77943337 -4.7802391 0.64873326 189.75 0 0 0 71.874489
1.2593495 -4.7474685 0.69041598 265.85715 0 0 0 70.320137
1.766403 -4.6817346 0.71668494 168.55556 0 0 0 68.698792
2.2316961 -4.6541615 0.73906356 219.3 0 0 0 67.328926
2.6271417 -4.6675911 0.68643016 243.33333 0 0 0 66.286804
3.1953757 -4.7417221 0.73837787 322.14285 0 0 0 65.011024
3.6616626 -4.7498331 0.68726128 392.5 0 0 0 64.008713
4.2433743 -4.5779214 0.77329701 419.66666 0 0 0 62.568516
4.673243 -4.5679874 0.80678225 573.66669 0 0 0 61.787411
5.181459 -4.5820942 0.85432917 566.33331 0 0 0 61.006031
6.408905 -4.5508981 0.89861453 465 0 0 0 59.31184
2.7600551 -4.3894033 0.73123068 273.71429 0 0 0 65.515205
3.2048445 -4.3080611 0.66860348 450.33334 0 0 0 64.26619
3.6844683 -4.3589973 0.68660194 416.5 0 0 0 63.290237
4.1970325 -4.4053617 0.66792715 433.5 0 0 0 62.337502
4.7401476 -4.2865653 0.66014057 740 0 0 0 61.167137
5.2606554 -4.1863766 0.67597836 807 0 0 0 60.175148
5.7359371 -4.182364 0.72793758 531.5 0 0 0 59.51086
6.308815 -4.251112 0.78059363 853 0 0 0 58.922562
6.7068343 -4.1674995 0.7096104 501.5 0 0 0 58.343163
7.1277356 -4.1504283 0.74141282 484.66666 0 0 0 57.883499
7.5308323 -4.0569715 0.65913367 326 0 0 0 57.35788
8.2361135 -4.1776919 0.59231508 181 0 0 0 56.967087
8.6369057 -4.1132989 0.85116482 490 0 0 0 56.582439
9.735673 -4.0614891 0.67003137 504 0 0 0 55.796501
10.495807 -4.0766726 0.71202552 546 0 0 0 55.417446
11.678411 -4.2061563 0.78024882 373 0 0 0 55.025951
12.234409 -4.0681987 0.8083477 256 0 0 0 54.635193
14.390077 -4.3921218 0.93566883 187 0 0 0 54.246712
15.121191 -4.2106175 0.97364593 99 0 0 0 53.857418
7.7988071 -3.9547412 0.78174502 611 0 0 0 56.967087
8.1886826 -3.9034169 0.58244044 533 0 0 0 56.582439
8.9036875 -3.9763334 0.62277019 502 0 0 0 56.183819
14.182099 -3.9511495 0.55425549 91 0 0 0 53.857418
14.710487 -3.7101874 0.56917143 88 0 0 0 53.468689
16.586576 -3.7503669 0.63212794 98 0 0 0 53.07555
18.231384 -3.6522517 0.68629962 174 0 0 0 52.681271
20.361912 -3.5594788 0.7571401 164 0 0 0 52.291912
