# .PCD v0.7 - Point Cloud Data file format
VERSION 0.7
FIELDS x y z intensity normal_x normal_y normal_z curvature
SIZE 4 4 4 4 4 4 4 4
TYPE F F F F F F F F
COUNT 1 1 1 1 1 1 1 1
WIDTH 922
HEIGHT 1
VIEWPOINT 0 0 0 1 0 0 0
POINTS 922
DATA ascii
5.5228438 -4.1298032 0.24958751 44 0 0 0 59.680698
17.702053 -4.4545431 0.14321756 69 0 0 0 53.441769
18.994797 -4.2853971 0.15021229 107 0 0 0 53.055721
20.875652 -4.1722136 0.1607696 77 0 0 0 52.659779
-11.936481 -3.9427834 0.28301311 125 0 0 0 94.466248
-11.167246 -3.9949551 0.26967508 248 0 0 0 94.077232
-10.160536 -3.9183125 0.25155985 339 0 0 0 93.676208
-9.3690186 -3.8794484 0.23512813 244 0 0 0 93.278351
-8.622036 -3.8193369 0.33935192 480 0 0 0 92.886116
-7.8129921 -3.6932645 0.20628105 434.5 0 0 0 92.499504
-7.3341866 -3.6893413 0.19784315 539.5 0 0 0 92.099457
-6.7663069 -3.7197721 0.37989259 437.25 0 0 0 91.529015
-6.1778016 -3.6989701 0.26534244 359 0 0 0 90.952492
-5.8200445 -3.7296474 0.29887757 283.75 0 0 0 90.462715
-5.2499046 -3.6888061 0.31975138 368.5 0 0 0 89.778793
-4.7311258 -3.6857643 0.25661165 282.20001 0 0 0 88.991745
-4.319437 -3.7172699 0.16087684 319.39999 0 0 0 88.204239
-3.7840943 -3.6592956 0.35025254 179.5 0 0 0 87.282845
-3.2966149 -3.8083093 0.22827956 182 0 0 0 85.864143
-2.7206733 -3.7152271 0.25831676 120.66666 0 0 0 84.551582
-2.2167709 -3.7117741 0.2992875 78.800003 0 0 0 83.049759
-1.7459143 -3.7777777 0.23383655 59 0 0 0 81.368095
-1.2292966 -3.9053178 0.41814783 44.5 0 0 0 79.316055
0.88898647 -3.966414 0.2134178 47.25 0 0 0 70.919861
1.4035127 -3.7158363 0.45295781 21 0 0 0 68.67112
1.8491374 -3.8173628 0.23465972 40.666668 0 0 0 67.24308
2.2109408 -3.7537327 0.17006931 45.25 0 0 0 65.933342
2.7723851 -3.9066055 0.20795694 96 0 0 0 64.605927
3.0331755 -3.9344099 0.31253949 87 0 0 0 63.983921
4.3983655 -3.6452646 0.21277855 385 0 0 0 60.468159
4.6652613 -3.6739802 0.15926845 194.39999 0 0 0 60.070457
5.2273893 -3.5695558 0.26968148 361.5 0 0 0 59.004101
5.6252789 -3.9932342 0.076827325 145 0 0 0 59.298519
6.268527 -3.5783589 0.07785812 19 0 0 0 57.734119
7.820508 -3.7247989 0.30314952 219 0 0 0 56.558033
22.908136 -3.9946241 0.17213878 142 0 0 0 52.268726
25.92453 -3.8655429 0.18936555 32 0 0 0 51.884113
29.552994 -3.6656435 0.21011847 27 0 0 0 51.486767
-4.2109914 -3.4494431 0.47871676 332 0 0 0 88.595802
-3.6587219 -3.4733493 0.32117164 235 0 0 0 87.428947
2.2534394 -3.3832915 0.16284336 42.5 0 0 0 65.058754
2.7934275 -3.1611087 0.25435814 124.75 0 0 0 62.9048
3.2588973 -3.151772 0.29427388 222.69231 0 0 0 61.666
3.692107 -3.2217622 0.23191896 295.39999 0 0 0 60.852745
4.0587835 -3.2000978 0.45134979 241 0 0 0 60.067806
4.6960058 -3.2005153 0.32518235 232.8 0 0 0 58.983166
5.2531781 -3.3565679 0.3049553 197.5 0 0 0 58.512741
5.5923014 -3.2341218 0.26453927 263.20001 0 0 0 57.813129
6.2583766 -3.2741852 0.076589614 443.5 0 0 0 57.149902
6.792263 -3.1696312 0.2693741 215.33333 0 0 0 56.428848
8.5424261 -3.317076 0.088918112 241 0 0 0 55.389286
33.423 -3.3132787 0.23211586 39 0 0 0 51.106567
42.063038 -3.1270599 0.28234535 24 0 0 0 50.710918
4.2784243 -2.8880167 0.45043394 398 0 0 0 58.90596
4.5218439 -2.8916564 0.4668892 466 0 0 0 58.512741
5.4127984 -2.9201365 0.22495812 393 0 0 0 57.346722
5.7475886 -2.9189501 0.31139091 244 0 0 0 56.953079
6.2720237 -2.7109995 0.28565586 374.25 0 0 0 55.971848
6.5656638 -2.6169708 0.25145403 567.66669 0 0 0 55.517262
7.2661033 -2.6209958 0.26932052 333 0 0 0 55.008404
7.7238264 -2.5721841 0.48603934 394 0 0 0 54.6106
8.1944923 -2.7269082 0.085292295 365 0 0 0 54.6106
8.7209473 -2.6658375 0.31638956 694 0 0 0 54.2229
9.8507099 -2.8761239 0.22361144 304.5 0 0 0 54.029297
7.4985213 -2.4979215 0.27875203 632 0 0 0 54.6106
-4.7975326 -1.0777467 0.43511412 521 0 0 0 96.009132
-4.7115846 -0.75826114 0.24654287 360.6875 0 0 0 96.986305
38.525013 -0.96700281 0.25891235 19 0 0 0 49.927032
-4.6506248 -0.10083864 0.2670123 156.57143 0 0 0 99.185867
50.716469 -0.026098177 0.32942379 16 0 0 0 49.542809
-4.6673889 0.29226294 0.23815773 193.66667 0 0 0 0.6228267
-4.4805579 0.1091162 0.067359664 212 0 0 0 0
-4.1105351 0.8556965 0.26637462 201.46666 0 0 0 2.9670608
-3.9947984 0.97335035 0.099684566 264.5 0 0 0 3.5090599
17.491516 0.85044318 0.13373555 137 0 0 0 48.75872
22.525023 0.54073358 0.16351421 16 0 0 0 49.151119
-4.0254588 1.1296766 0.28049323 265.85715 0 0 0 4.0708671
15.989899 1.1723808 0.12470303 257 0 0 0 48.374599
16.04179 1.773963 0.12467567 341 0 0 0 47.791618
16.097248 2.3838716 0.12496144 266 0 0 0 47.200321
16.101439 2.791013 0.12503994 291 0 0 0 46.811241
16.145361 3.209733 0.12538885 252 0 0 0 46.426418
-12.405133 3.7380042 0.092765838 114 0 0 0 4.29105
-11.283466 3.7006969 0.23416969 223.5 0 0 0 4.6786399
-10.829698 3.8454742 0.22731414 702.5 0 0 0 5.0741601
15.734675 3.9420421 0.12332185 123 0 0 0 45.643501
16.166676 3.6296704 0.12565099 264 0 0 0 46.03928
-10.801975 4.2876596 0.22921793 655.5 0 0 0 5.65481
6.6873875 4.4969435 0.073757559 803 0 0 0 40.18882
7.1798811 4.4710965 0.24441019 699.59998 0 0 0 40.733295
7.7801151 4.4286089 0.1916271 628 0 0 0 41.361713
8.2154274 4.4103565 0.19853891 554 0 0 0 41.74958
8.6646376 4.3784895 0.20582721 491 0 0 0 42.141769
9.1631603 4.3489218 0.21390659 451.5 0 0 0 42.528393
9.7114182 4.3178692 0.22296441 423 0 0 0 42.92144
10.309629 4.2815361 0.23293824 384.5 0 0 0 43.31469
10.947081 4.2319961 0.24347872 336 0 0 0 43.694599
11.811642 4.2334976 0.25832647 8 0 0 0 44.080978
12.571827 4.1585302 0.27117789 13 0 0 0 44.480167
13.422135 4.0750484 0.28599781 161.5 0 0 0 44.862793
14.519323 4.0195456 0.30513218 602.5 0 0 0 45.251328
-10.782776 4.7436957 0.23162185 400 0 0 0 6.2395701
3.4244287 4.7973886 0.24729717 677.42859 0 0 0 34.545925
3.7828701 4.6709032 0.21010548 998 0 0 0 35.4986
4.2655158 4.6452374 0.21951453 1032.1666 0 0 0 36.475422
4.689692 4.6225858 0.22833915 1018.8333 0 0 0 37.26149
5.1459765 4.5907917 0.23812722 1050.5 0 0 0 38.042591
5.6638942 4.567872 0.2499975 911.66669 0 0 0 38.823277
6.2294412 4.5321937 0.26352122 857.66669 0 0 0 39.597401
6.70891 4.5100622 0.37602124 745.5 0 0 0 40.18882
-11.456355 5.3825169 0.40320167 505 0 0 0 6.62429
-10.742787 5.258471 0.18527734 332.33334 0 0 0 6.890223
3.4376078 5.2267222 0.21613359 235 0 0 0 33.929314
-10.700992 5.6771426 0.23635089 328.5 0 0 0 7.4063401
-10.676691 6.177794 0.24002787 401 0 0 0 7.9921846
-10.635412 6.6855497 0.24361643 349 0 0 0 8.5783195
4.0879345 6.5405445 0.16379917 303.5 0 0 0 33.54594
-10.583662 7.2096405 0.24750011 399.5 0 0 0 9.1691647
4.3931088 7.4182286 0.28498688 240.33333 0 0 0 33.151852
-10.521551 7.748507 0.4136363 315 0 0 0 9.75173
-10.499488 7.7287865 0.089347765 186 0 0 0 9.75173
-3.6143594 7.9872055 0.066637687 480 0 0 0 17.933821
-3.2598875 7.9685292 0.17285505 487 0 0 0 18.524586
-2.912137 7.9379511 0.17036723 521 0 0 0 19.11648
-10.629105 8.2345629 0.090964913 271 0 0 0 10.14201
-10.299681 8.3892441 0.089977875 199 0 0 0 10.52852
-9.7761469 8.3660736 0.087846756 216 0 0 0 10.92005
-9.3000746 8.3587427 0.085974239 205 0 0 0 11.31164
-8.810112 8.3139248 0.08398781 233 0 0 0 11.69283
-8.3704557 8.292738 0.0822853 266 0 0 0 12.07898
-7.7493725 8.2560015 0.079925075 385 0 0 0 12.669425
-7.1601024 8.2107725 0.077714697 410 0 0 0 13.25029
-6.8069835 8.2002077 0.076474071 393 0 0 0 13.64387
-6.288362 8.1616287 0.074640572 412.5 0 0 0 14.238295
-5.8042879 8.1327505 0.073001884 469 0 0 0 14.8187
-5.3501072 8.1048298 0.071525916 463.5 0 0 0 15.407394
-4.7786894 8.0680361 0.069745898 552.5 0 0 0 16.184925
-4.2454872 8.0366917 0.068190485 584.5 0 0 0 16.959829
-3.8640265 8.0128822 0.067191564 506 0 0 0 17.54924
-2.7639494 8.1508961 0.17279318 303 0 0 0 19.49795
4.4862123 8.4945812 0.075083785 641 0 0 0 32.374512
4.7473993 8.4734173 0.19748774 665 0 0 0 32.759899
-2.6340432 8.8451004 0.18338072 571.75 0 0 0 20.088844
-2.1870136 8.9170866 0.18270907 829.5 0 0 0 20.869335
-1.7235417 8.889267 0.18067689 795 0 0 0 21.645716
-1.2716571 8.8665762 0.17910445 759.25 0 0 0 22.421825
-0.8275094 8.8369389 0.17791793 684.5 0 0 0 23.205879
-0.28158784 8.8051987 0.17698149 828 0 0 0 24.180136
0.25917536 8.7710495 0.17658356 1065 0 0 0 25.1633
0.69012195 8.7434883 0.17665087 1048.5 0 0 0 25.943405
1.2303442 8.7061386 0.17728436 980.33331 0 0 0 26.917688
1.7776462 8.6799278 0.17879331 827 0 0 0 27.885021
2.2183745 8.6397362 0.18045075 808.5 0 0 0 28.668427
2.6716909 8.6152458 0.18275402 838.25 0 0 0 29.443066
3.2551317 8.5819254 0.18636371 779.66669 0 0 0 30.424728
3.8600497 8.546278 0.19057505 675 0 0 0 31.399715
4.3231158 8.5194359 0.23430932 654.33331 0 0 0 32.115955
-9.0406656 9.4199839 0.41191348 232 0 0 0 12.47815
-8.5769415 9.3834352 0.4016113 177 0 0 0 12.8607
-8.0709829 9.2723961 0.38909394 266 0 0 0 13.25029
-7.6682105 9.2553015 0.38087505 269 0 0 0 13.64387
-7.2883835 9.2462549 0.37348786 351 0 0 0 14.04281
-6.7365437 9.2175789 0.36280578 358 0 0 0 14.62624
-6.2022419 9.1741352 0.3524943 334 0 0 0 15.20935
-5.7062826 9.141573 0.34357947 401.5 0 0 0 15.79874
-5.2347364 9.1139965 0.33555728 423 0 0 0 16.37781
-4.7846203 9.0819979 0.32821077 379 0 0 0 16.959829
-4.2108121 9.0365753 0.31945992 395 0 0 0 17.741531
-11.825265 9.6475077 0.47797766 233 0 0 0 10.52852
-11.315204 9.7000208 0.4671891 165 0 0 0 10.92005
-10.604846 9.547307 0.44825676 280 0 0 0 11.31164
-10.187473 9.631505 0.44067597 279 0 0 0 11.69283
-9.6982756 9.6267977 0.43001848 236 0 0 0 12.07898
-90.263191 11.182182 0.4883579 8 0 0 0 1.56373
-80.115952 11.92418 0.43639576 19 0 0 0 1.94809
-71.185471 -7.0194583 0.54102391 19 0 0 0 97.959427
5.2475114 -7.1233087 0.75145191 80 0 0 0 64.373802
-24.95216 -5.6014409 0.85698289 51 0 0 0 96.009132
-71.311012 -5.2685018 0.53943342 15 0 0 0 98.349808
-3.8455117 -5.4424696 0.57930481 141 0 0 0 84.289398
-3.3555572 -5.277812 0.54577053 119 0 0 0 83.510201
-2.590832 -5.1169081 0.50330299 53 0 0 0 81.951523
-2.1970193 -5.2674336 0.68627411 104 0 0 0 80.778687
0.099601977 -5.0189352 0.56531894 55 0 0 0 74.145264
-6.9655819 -4.8997641 0.51858658 293 0 0 0 89.779243
-4.26405 -4.6932683 0.55255079 452 0 0 0 86.258034
-3.4866049 -4.6847134 0.51164818 110 0 0 0 84.682686
-2.627717 -4.8909593 0.89541388 585 0 0 0 82.342209
-2.4208298 -4.6853061 0.7641995 125 0 0 0 82.081749
-1.6329489 -4.5153646 0.54277307 215 0 0 0 80.000717
-1.1069275 -4.8430943 0.56046885 105 0 0 0 78.052437
-0.83563554 -4.688283 0.59584004 27 0 0 0 77.266541
-0.36578387 -4.6741176 0.64528859 31 0 0 0 75.703743
0.32951322 -4.7858129 0.65910745 65 0 0 0 73.364288
1.2402847 -4.5829449 0.53548563 132 0 0 0 70.235374
1.5934675 -4.5323868 0.65915722 58 0 0 0 69.067039
-17.383726 -4.3529792 0.61138332 104 0 0 0 95.625824
-14.730865 -4.0751576 0.52687967 208 0 0 0 95.232948
-11.26696 -4.0295353 0.71314454 397 0 0 0 94.077232
-10.568886 -4.0748019 0.67709297 503 0 0 0 93.676208
-10.18013 -4.2144175 0.6597122 456 0 0 0 93.278351
-9.6568775 -4.2779913 0.63398004 230 0 0 0 92.886116
-9.105691 -4.0356107 0.84728599 4 0 0 0 92.886116
-8.689847 -4.1089754 0.81901473 362 0 0 0 92.499504
-7.1310825 -4.154007 0.80859715 463 0 0 0 91.146957
-6.8668003 -4.3452125 0.89489722 545 0 0 0 90.559822
-6.4748878 -4.32271 0.85879785 434 0 0 0 90.17141
-5.7444811 -4.0413918 0.69306457 401.5 0 0 0 89.779243
-4.7933478 -4.0605888 0.90435725 453.66666 0 0 0 88.33551
-4.3315234 -4.1873298 0.7203415 484.33334 0 0 0 87.29467
-3.7520561 -4.0287256 0.88777804 441 0 0 0 86.451912
-3.2371519 -4.1848397 0.75822568 239.75 0 0 0 84.979431
-2.7599678 -4.2496648 0.75931251 287.375 0 0 0 83.660957
-2.322366 -4.3208656 0.6755023 192.25 0 0 0 82.343361
-1.8424951 -4.2023954 0.6490044 89.285713 0 0 0 81.059944
-1.3699036 -4.0955124 0.59705049 80 0 0 0 79.612419
-0.90560305 -4.1901827 0.80423772 80.5 0 0 0 77.85466
-0.22842208 -4.2129698 0.68779337 125 0 0 0 75.321426
0.28329942 -4.1602836 0.67991531 35 0 0 0 73.364288
0.52384394 -4.4421878 0.94713581 144 0 0 0 72.579216
1.0775855 -4.4120173 0.51373595 75 0 0 0 70.624046
1.8959688 -4.3466182 0.53425825 37 0 0 0 67.894844
2.1320484 -4.3877068 0.58860779 39 0 0 0 67.243073
2.7208533 -4.1231747 0.55448055 24 0 0 0 65.154579
3.4796457 -4.2841015 0.61514181 193 0 0 0 63.596001
4.6835303 -4.0747871 0.68677843 358 0 0 0 60.851601
17.66025 -4.4467101 0.59834158 77 0 0 0 53.441769
18.946384 -4.2773232 0.63556933 105 0 0 0 53.055721
-71.410477 -3.5164309 0.53796482 32 0 0 0 98.743912
-12.109135 -3.9986546 0.75755209 145 0 0 0 94.466248
-7.8360333 -3.8621929 0.60374337 464.66666 0 0 0 92.232811
-7.2981014 -3.8990209 0.70987761 703 0 0 0 91.716606
-6.4140277 -3.8416052 0.64479983 443 0 0 0 90.952499
-5.5719185 -3.6227264 0.57701421 429.5 0 0 0 90.365616
-5.1424222 -3.8739583 0.61086988 415 0 0 0 89.25486
-4.8580985 -3.7856815 0.68633342 295 0 0 0 88.992249
-4.2373571 -3.6480966 0.55696869 244 0 0 0 88.205368
-3.7778416 -3.6936646 0.62030995 330 0 0 0 87.195541
-3.2643042 -3.7740273 0.71682543 334.75 0 0 0 85.863655
-2.7697937 -3.7495756 0.60385793 184.33333 0 0 0 84.620186
-2.2215805 -3.6831577 0.70067239 152.66667 0 0 0 83.12619
-1.6499176 -3.7919507 0.73685622 126.4 0 0 0 81.014755
-1.1603031 -3.7677653 0.74210924 117 0 0 0 79.218521
0.96685958 -3.9661 0.66598195 37 0 0 0 70.624046
1.9195945 -3.6529632 0.77478254 44 0 0 0 66.719643
2.2886112 -3.7647429 0.55093992 56.5 0 0 0 65.740295
2.8342466 -3.6810896 0.69360888 161.5 0 0 0 63.984901
3.1129701 -3.6514287 0.53904665 80 0 0 0 63.197712
3.8325093 -3.5077536 0.83724231 310 0 0 0 61.24078
4.8380451 -3.715589 0.67553711 213 0 0 0 59.883339
6.6544967 -3.7962272 0.65160334 252 0 0 0 57.734119
-4.2660623 -3.4946878 0.61796522 571 0 0 0 88.595802
-2.883765 -3.4998894 0.51415312 178 0 0 0 85.468307
2.3331668 -3.3619528 0.70114297 114.16666 0 0 0 64.763023
2.7198145 -3.2128735 0.63390654 137.875 0 0 0 63.248444
3.2691457 -3.1914113 0.62726599 249.14285 0 0 0 61.747639
3.7713244 -3.3274083 0.74981195 384.5 0 0 0 60.95118
4.2209225 -3.2539222 0.72543865 423.28571 0 0 0 59.904503
4.6819425 -3.1995759 0.8065145 494.75 0 0 0 59.001175
5.3684978 -3.3640335 0.699323 334 0 0 0 58.385544
5.7134137 -3.0790601 0.63668817 222.5 0 0 0 57.346722
6.0058675 -3.045553 0.90680516 903 0 0 0 56.953079
4.34167 -2.9300699 0.58419192 133 0 0 0 58.90596
4.9441681 -2.9076009 0.70720339 473.5 0 0 0 57.929729
5.2779522 -2.8429372 0.71104932 417.66666 0 0 0 57.344639
5.8055139 -2.7684553 0.60403949 430 0 0 0 56.560528
6.2048249 -2.771301 0.77575225 724.66669 0 0 0 56.167248
6.629776 -2.5777357 0.69516987 753.5 0 0 0 55.389286
7.339716 -2.6457152 0.75887781 593.5 0 0 0 55.0084
7.6261234 -2.5380948 0.68102974 725 0 0 0 54.6106
8.4356842 -2.5788531 0.52369595 536 0 0 0 54.2229
8.6232109 -2.6338642 0.75969476 6 0 0 0 54.2229
-75.340622 -1.8581526 0.5636344 17 0 0 0 99.139565
-4.8527427 -1.0901489 0.56011236 351 0 0 0 96.009132
-4.7533503 -0.76622009 0.68057609 489.5 0 0 0 96.985924
-4.6620145 0.25359398 0.60165036 205.71428 0 0 0 0.50027996
-4.0899687 0.93428165 0.63491631 122.2 0 0 0 3.280232
18.613768 0.90237218 0.60640973 230 0 0 0 48.75872
22.38888 0.53426254 0.72271621 17 0 0 0 49.151119
-4.0786948 1.046103 0.65818608 18.5 0 0 0 3.7073951
18.624453 1.3627402 0.60711712 250 0 0 0 48.374599
18.665533 1.828279 0.60910732 240 0 0 0 47.985161
18.687027 2.2956975 0.61084056 207 0 0 0 47.59808
18.725435 2.7695768 0.61366141 214 0 0 0 47.200321
18.75284 3.2468476 0.61645758 180 0 0 0 46.811241
15.739656 3.9411569 0.72843599 127.5 0 0 0 45.643501
17.202557 3.8590939 0.57274437 92 0 0 0 46.03928
18.767092 3.7269478 0.61919934 194 0 0 0 46.426418
-11.529988 4.2574129 0.84342527 323.5 0 0 0 5.2663851
7.2630515 4.4743924 0.75329483 731 0 0 0 40.811909
7.8043289 4.4434247 0.74818569 621.33331 0 0 0 41.361713
8.2194061 4.4131546 0.66138464 584 0 0 0 41.74958
8.6870947 4.3904715 0.68913364 513.5 0 0 0 42.141769
9.1728745 4.3542285 0.71776265 498.5 0 0 0 42.528393
9.7367287 4.329813 0.75186789 373 0 0 0 42.92144
10.336933 4.2935977 0.78827 298 0 0 0 43.31469
10.985165 4.2474608 0.82792974 284.5 0 0 0 43.694599
11.754921 4.212718 0.72024328 85 0 0 0 44.080978
12.590114 4.164 0.76315409 87 0 0 0 44.480167
13.441032 4.0801816 0.80675203 112 0 0 0 44.862793
14.519262 4.0189028 0.86318445 125 0 0 0 45.251328
-11.488351 4.7274642 0.69841945 557 0 0 0 5.8510098
3.4213924 4.8315516 0.75016129 765.71429 0 0 0 34.489513
3.7889926 4.6811614 0.73225766 1059.5 0 0 0 35.4986
4.25596 4.653975 0.73198861 1087.7142 0 0 0 36.447323
4.6957536 4.6310711 0.7184217 1050.8334 0 0 0 37.261494
5.1527514 4.5992742 0.75132155 982.16669 0 0 0 38.042591
5.6692672 4.574698 0.7912128 906.66669 0 0 0 38.823277
6.2371769 4.53968 0.74169403 815.25 0 0 0 39.597404
6.7117629 4.5142813 0.77647841 757 0 0 0 40.18882
-11.936791 5.2585034 0.73185223 203 0 0 0 6.2395701
-11.444541 5.377398 0.70999837 788 0 0 0 6.62429
3.4310358 5.2202044 0.75654161 360 0 0 0 33.929314
-11.420901 5.7111788 0.71650678 573 0 0 0 7.02319
-11.380631 6.0432491 0.72256655 712 0 0 0 7.4063401
-11.558008 6.506083 0.7428894 225 0 0 0 7.7940598
-11.345539 6.7563181 0.73956347 472 0 0 0 8.1903095
-11.246416 7.2702322 0.74947369 352 0 0 0 8.7760201
4.3719974 7.3860388 0.81505179 203.5 0 0 0 33.151852
4.7523813 8.4831247 0.67897737 688.5 0 0 0 32.759899
5.1831455 8.2673492 0.68211746 38.5 0 0 0 33.54594
-1.6282035 8.9918966 0.7439273 821 0 0 0 21.841021
-1.3995475 8.9796247 0.740372 729 0 0 0 22.229742
-0.06485755 8.8834181 0.72525519 863.66669 0 0 0 24.572851
0.28956547 8.9931421 0.69052756 550.59998 0 0 0 25.202497
0.7094121 8.9687948 0.73490834 356 0 0 0 25.943405
1.240846 8.7917709 0.72619182 953.88892 0 0 0 26.917686
1.7891787 8.7337294 0.72986728 881.33331 0 0 0 27.885019
2.2788661 8.8708143 0.74964881 298 0 0 0 28.668427
2.7434416 8.8434114 0.75836104 435.83334 0 0 0 29.443064
3.1666698 8.7354546 0.71564358 565 0 0 0 30.192749
3.7124314 8.7892933 0.66520041 278 0 0 0 31.005945
4.2854891 8.6223459 0.67211747 448.16666 0 0 0 31.98646
-9.0567751 9.4374275 0.73105597 433 0 0 0 12.47815
-7.6822863 9.2715092 0.82375777 498 0 0 0 13.64387
-7.1767855 9.3364525 0.80605525 428.25 0 0 0 14.238295
-6.7307787 9.453661 0.79443043 211.5 0 0 0 14.8187
-6.3670025 9.4201593 0.77889025 87 0 0 0 15.20935
-5.8129749 9.3158474 0.75307357 520 0 0 0 15.79874
-5.2159901 9.3442278 0.73437291 85 0 0 0 16.57021
-4.6956902 9.1861038 0.70878601 683 0 0 0 17.157049
-4.2880197 9.2059364 0.6982953 664.25 0 0 0 17.741531
-3.7720613 9.2535114 0.6877709 248.75 0 0 0 18.524586
-3.2204971 9.1529999 0.66883069 505.5 0 0 0 19.307215
-2.7290454 9.1699505 0.66016889 376 0 0 0 20.088844
-2.2429581 9.1527929 0.76597309 492.83334 0 0 0 20.869335
-1.8842416 9.1296854 0.75814199 556.66669 0 0 0 21.450411
-1.1862338 9.0744047 0.74546003 698 0 0 0 22.613913
-0.73492986 9.0612745 0.74124241 266.88889 0 0 0 23.39888
-0.28695619 9.0337133 0.7372551 437.33334 0 0 0 24.182671
0.15641384 9.0110264 0.95591378 872 0 0 0 24.96731
-14.145469 9.9163485 0.95903474 123 0 0 0 9.3646097
-13.198518 9.7389517 0.91166013 288 0 0 0 9.75173
-12.630825 9.8039656 0.69405872 118 0 0 0 10.14201
-11.843109 9.6627588 0.85086524 292 0 0 0 10.52852
-11.344292 9.725728 0.83219343 56 0 0 0 10.92005
-10.59684 9.5405684 0.79511392 312 0 0 0 11.31164
-10.190671 9.6350775 0.78228664 308 0 0 0 11.69283
-9.7009497 9.6299868 0.76295751 53 0 0 0 12.07898
-8.744235 9.568902 0.724558 197 0 0 0 12.8607
-8.3323288 9.5765114 0.70994806 45 0 0 0 13.25029
8.868084 -32.171005 1.1106715 83 0 0 0 70.235374
-4.7491803 -31.846283 1.0863483 24 0 0 0 76.876198
43.125 -7.5168629 1.3894371 154 0 0 0 52.268726
44.325127 -6.6088462 1.420702 26 0 0 0 51.884113
2.3182282 -6.3090315 1.4070829 237.5 0 0 0 68.86908
2.7438171 -6.2516155 1.4286515 538.66669 0 0 0 67.890694
3.2023082 -6.2269263 1.4640077 331 0 0 0 66.917442
4.9564271 -6.080019 1.441928 381 0 0 0 63.596001
5.320323 -6.0537486 1.4804463 355.5 0 0 0 63.000977
-17.500132 -5.3068066 1.0710652 28 0 0 0 94.851425
-4.2440758 -5.293313 1.4209177 157.5 0 0 0 85.274414
-8.2277451 -4.6588755 1.0357065 32 0 0 0 91.341423
-7.2782955 -4.7336459 1.2742053 194 0 0 0 90.365616
-6.871336 -4.8371058 1.2335296 311 0 0 0 89.779243
-5.1990075 -4.7063656 1.1220391 29 0 0 0 87.809265
-4.5162864 -4.5086479 1.023993 37 0 0 0 87.046837
-4.2500048 -4.7399645 1.3351266 176.5 0 0 0 86.159805
-3.1301236 -4.6683397 1.0448179 497.5 0 0 0 83.899796
-2.7064054 -4.7545996 1.017614 667 0 0 0 82.737511
-1.6270361 -4.5023365 1.0117029 180 0 0 0 80.000717
0.84628183 -4.5608654 1.3246125 110 0 0 0 71.54084
-4.2299819 -4.4359679 1.4358047 214 0 0 0 86.64579
-3.6310434 -4.4125237 1.0612764 101 0 0 0 85.468307
-3.2422016 -4.3570337 1.0102144 530 0 0 0 84.682686
-1.6829556 -4.4693308 1.2691568 166 0 0 0 80.216766
0.41596848 -4.4485517 1.3287798 160.25 0 0 0 72.972885
0.66734076 -4.4395499 1.1716851 162.57143 0 0 0 72.079369
1.1234318 -4.4282532 1.2850698 179.5 0 0 0 70.494492
-4.3768888 -3.6801085 1.4813125 254 0 0 0 88.400589
9.0552673 -3.7702425 1.3046715 345 0 0 0 55.77322
38.532185 -0.97266293 1.2221469 17 0 0 0 49.927032
18.603125 0.90244311 1.0628674 259 0 0 0 48.75872
23.050049 0.55081785 1.3083601 27 0 0 0 49.151119
18.621746 1.3631285 1.0649682 195 0 0 0 48.374599
18.673672 1.829663 1.0695424 174 0 0 0 47.985161
18.681194 2.2955687 1.0722859 216 0 0 0 47.59808
18.710623 2.7679808 1.0771011 256 0 0 0 47.200321
18.757648 3.2482781 1.0835134 239 0 0 0 46.811241
15.781039 3.9552212 1.3358191 136 0 0 0 45.643501
17.222633 3.8660202 1.2265244 88.5 0 0 0 46.03928
18.772747 3.7286758 1.0888001 230 0 0 0 46.426418
7.2907653 4.477766 1.2071995 699.66669 0 0 0 40.838116
7.8158169 4.4531555 1.3043569 549 0 0 0 41.361713
8.2336054 4.423737 1.2386148 591.66669 0 0 0 41.74958
8.6969252 4.3980103 1.1693394 530.5 0 0 0 42.141769
9.1959562 4.3678093 1.2202803 416.5 0 0 0 42.528393
9.7394104 4.3337784 1.2764268 373.5 0 0 0 42.92144
10.328259 4.2928953 1.3378088 354.5 0 0 0 43.31469
11.009011 4.2583504 1.2647344 365 0 0 0 43.694599
11.790604 4.2284203 1.1879978 82.5 0 0 0 44.080978
12.591897 4.1676974 1.2564656 62 0 0 0 44.480167
13.431254 4.0804873 1.3277203 82 0 0 0 44.862793
14.518118 4.0218196 1.2391459 99 0 0 0 45.251328
-11.482178 4.7230582 1.0046471 147 0 0 0 5.8510098
3.4235084 4.818541 1.2301999 756.33331 0 0 0 34.517719
3.7911334 4.6860561 1.2549205 1053.8889 0 0 0 35.498604
4.2886572 4.6587744 1.2722607 1071.7142 0 0 0 36.503517
4.6947303 4.6318655 1.2081724 1106.3334 0 0 0 37.261494
5.1656227 4.6125188 1.2676641 949.33331 0 0 0 38.042591
5.6451054 4.5804014 1.2930033 895.40002 0 0 0 38.783325
6.2419238 4.5454712 1.2192452 820.33331 0 0 0 39.597404
6.7115579 4.5166135 1.2760206 768 0 0 0 40.18882
7.0682192 4.5057826 1.3211746 763 0 0 0 40.576061
-11.588717 5.4438229 1.0349569 501 0 0 0 6.62429
3.4294329 5.2204533 1.2970394 465 0 0 0 33.929314
-11.433295 5.7154503 1.0330698 382 0 0 0 7.02319
4.0650311 6.5101738 1.2058121 122 0 0 0 33.54594
4.3751669 7.3950434 1.2388647 275 0 0 0 33.151852
4.7565031 8.4947577 1.1580753 567 0 0 0 32.759899
5.1624317 8.2387753 1.1575334 62.5 0 0 0 33.54594
-1.630753 8.9946423 1.3042401 935.5 0 0 0 21.841021
-1.4016312 8.9796495 1.2971289 929 0 0 0 22.22974
-0.067006335 8.8894253 1.2711713 1028 0 0 0 24.572849
0.37515211 8.9799633 1.3964789 21 0 0 0 25.359289
0.74558085 8.9833841 1.3267423 31.333334 0 0 0 26.008438
1.2391456 8.7967119 1.27226 890.33331 0 0 0 26.917686
1.790062 8.7484722 1.2795632 836.75 0 0 0 27.885021
2.2785554 8.8790321 1.3135633 33 0 0 0 28.668427
2.7433791 8.8515396 1.3286798 346.25 0 0 0 29.443066
3.1970663 8.7578545 1.2212695 446.5 0 0 0 30.231766
3.7130425 8.7956705 1.1342709 283 0 0 0 31.005947
4.2876215 8.6320467 1.1970549 502.85715 0 0 0 31.986492
-9.0695505 9.4483109 1.2144865 396.5 0 0 0 12.47815
-7.6993685 9.2913818 1.2662878 510 0 0 0 13.64387
-7.1822391 9.3424702 1.2372007 484.5 0 0 0 14.238295
-6.3889885 9.4519758 1.1983808 13 0 0 0 15.20935
-5.8168788 9.3192081 1.2892146 308.75 0 0 0 15.798739
-4.6963854 9.1842289 1.2120552 764 0 0 0 17.157049
-4.293973 9.2153177 1.1952558 736.5 0 0 0 17.741531
-3.7684894 9.2426472 1.0521066 648.5 0 0 0 18.524586
-3.1439424 9.1086044 1.1932068 787.75 0 0 0 19.402582
-2.7920651 9.1715794 1.1891061 545.5 0 0 0 19.992083
-2.2454739 9.1552515 1.3435158 12.5 0 0 0 20.869335
-1.8932499 9.1645565 1.3342804 15 0 0 0 21.450411
-1.1893667 9.0827322 1.3074765 687 0 0 0 22.613911
-0.78309149 9.0768147 1.2788827 24 0 0 0 23.32168
0.15454414 9.0019569 1.2872685 670 0 0 0 24.96731
-14.805328 9.8466997 1.4271083 216 0 0 0 8.9737196
-13.205563 9.7412701 1.3184807 287 0 0 0 9.75173
-11.858301 9.6723995 1.2307959 293 0 0 0 10.52852
-10.597738 9.538847 1.3204255 327 0 0 0 11.31164
-10.199277 9.6407146 1.2998877 333 0 0 0 11.69283
-8.759285 9.5829105 1.2042191 138 0 0 0 12.8607
-8.3104868 9.5482388 1.0214733 301 0 0 0 13.25029
-7.0371079 9.8884268 1.2733511 40 0 0 0 14.8187
-13.203556 13.136554 1.4919405 10 0 0 0 12.07898
9.6776934 -32.016022 1.9307611 50 0 0 0 69.846848
-6.3636298 -28.237398 1.6890873 25 0 0 0 78.052437
-30.911482 -8.5518751 1.8518399 26 0 0 0 95.232948
-1.0004543 -7.9750533 1.8749427 120 0 0 0 76.493927
-0.99794412 -7.9415183 1.6716765 154 0 0 0 76.493927
0.74309224 -7.7708597 1.6302351 186 0 0 0 72.972885
4.8480988 -7.70399 1.6686991 17 0 0 0 65.548264
5.2126541 -7.6407399 1.8099527 394.5 0 0 0 64.957138
5.6164532 -7.6150956 1.9657277 265 0 0 0 64.373802
1.9796984 -7.245142 1.5688956 251 0 0 0 70.235374
2.2586169 -7.2106571 1.578118 214.5 0 0 0 69.649094
5.2414379 -7.4867959 1.6749372 177 0 0 0 64.759689
3.8525369 -6.8529348 1.6394333 312 0 0 0 66.323242
4.1123395 -6.9110637 1.6761853 148 0 0 0 65.93232
-18.278385 -6.2879992 1.6116414 53 0 0 0 94.271744
-16.428741 -6.3381171 1.898885 74 0 0 0 93.676208
-12.724821 -6.2085896 1.5341865 139.5 0 0 0 92.299484
-12.136682 -6.1109824 1.8074452 78 0 0 0 92.099457
-11.977274 -6.4035783 1.8067448 51 0 0 0 91.716606
-9.0421553 -6.0409675 1.72219 241 0 0 0 90.17141
-8.7390947 -6.4796872 1.99198 292 0 0 0 89.386169
-26.029835 -5.8433599 1.54518 48 0 0 0 96.009132
-18.460222 -5.6014962 1.6079055 104 0 0 0 94.851425
-13.534573 -5.6064358 1.5856062 100 0 0 0 93.278351
-13.269626 -5.8819685 1.5715199 144 0 0 0 92.886116
-10.238282 -5.8005567 1.5698478 6 0 0 0 91.341423
-9.1931038 -5.5100722 1.697636 242 0 0 0 90.952499
-8.5410595 -5.7059579 1.882273 203 0 0 0 90.17141
-3.9414914 -5.583796 1.7653632 179 0 0 0 84.289398
-20.405014 -5.1133432 1.7495046 84 0 0 0 95.625824
-19.551388 -5.4125223 1.688769 82 0 0 0 95.232948
-11.777687 -5.2228899 1.7150699 146 0 0 0 92.886116
-10.749522 -5.085773 1.8795568 140 0 0 0 92.499504
-9.2065878 -5.2157183 1.676295 196 0 0 0 91.341423
-8.481761 -5.0834389 1.8130199 254 0 0 0 90.952499
-7.9742117 -5.0487528 1.9637163 226 0 0 0 90.559822
-4.199873 -5.2369056 1.6524673 162.5 0 0 0 85.274414
-3.918222 -5.0101814 1.8021919 162 0 0 0 85.080513
0.85002661 -5.0185728 1.9485571 35 0 0 0 71.79409
-11.925786 -4.9422722 1.7182238 47 0 0 0 93.278351
-10.682457 -4.8936243 1.7133124 142 0 0 0 92.69281
-9.1871376 -4.7653685 1.6402204 223.5 0 0 0 91.908035
-8.657176 -4.7641463 1.8117563 238 0 0 0 91.529015
-8.1199951 -4.7314224 1.9555055 268.5 0 0 0 91.146957
-7.3821907 -4.6735654 1.6056364 174 0 0 0 90.559822
-6.7422438 -4.6843882 1.7110105 301.5 0 0 0 89.877281
-4.7383795 -4.7328086 1.7299553 53 0 0 0 87.046837
-4.266572 -4.7772641 1.7359258 141.33333 0 0 0 86.124695
0.82411492 -4.7212248 1.7193794 119.6 0 0 0 71.719223
1.1425757 -4.5348125 1.7076459 152.5 0 0 0 70.526878
-14.451847 -4.0006623 1.621067 156 0 0 0 95.232948
-12.24074 -4.215507 1.7227188 166 0 0 0 94.271744
-10.076274 -4.175549 1.7263107 312 0 0 0 93.278351
-9.5027819 -4.2137065 1.9037814 238 0 0 0 92.886116
-9.3621597 -4.4291039 1.8970252 147 0 0 0 92.499504
-8.7658224 -4.4129972 1.7993188 346 0 0 0 92.099457
-6.9879994 -4.4255323 1.9267484 291 0 0 0 90.559822
-4.6371021 -4.3020072 1.6355329 335 0 0 0 87.61911
-4.2978878 -4.0847106 1.7932782 296 0 0 0 87.428497
-3.7858307 -4.2732162 1.7575102 161.5 0 0 0 86.061577
-1.6266749 -4.3693237 1.6488941 84 0 0 0 80.156265
0.36437544 -4.2636094 1.6072913 76.666664 0 0 0 73.103355
0.53158283 -4.4925966 1.5135865 101 0 0 0 72.579216
1.2555141 -4.4122767 1.647095 140.25 0 0 0 70.041107
8.2757778 -4.3153629 1.8214073 347.5 0 0 0 57.149902
9.8524857 -4.3867779 1.9660952 80 0 0 0 56.170479
-14.349057 -3.7840405 1.7862775 125.5 0 0 0 95.429382
-12.691092 -3.8531413 1.7636607 207 0 0 0 94.851425
-10.192921 -3.7916117 1.7212845 335 0 0 0 93.876724
-9.6248751 -3.7145939 1.8894504 319 0 0 0 93.676208
-9.4275236 -3.9066103 1.8694123 235 0 0 0 93.278351
-8.7375889 -3.6205969 1.9672022 409 0 0 0 93.278351
-4.675961 -3.6469016 1.7082027 174.60001 0 0 0 88.991745
-4.3995376 -3.7930596 1.6839988 210.75 0 0 0 88.203949
-3.7116618 -3.817044 1.7456223 316.20001 0 0 0 86.808861
-3.3780253 -3.7702808 1.8139374 158.5 0 0 0 86.15625
8.3558388 -3.9726205 1.6918365 274 0 0 0 56.558033
8.6895485 -3.8714671 1.7380755 102 0 0 0 56.170479
9.0925846 -3.7851605 1.6770201 288.5 0 0 0 55.77322
-10.245835 -3.2954512 1.8795379 233.33333 0 0 0 94.594643
-9.7415094 -3.4876609 1.8947732 192 0 0 0 94.077232
-9.0386868 -3.2359574 1.9961741 333 0 0 0 94.077232
-6.2690797 -3.1567061 1.9852115 230 0 0 0 92.099457
-4.8388104 -3.406539 1.821195 213 0 0 0 89.779243
-4.4433999 -3.2941446 1.7061374 271 0 0 0 89.386169
-3.3552315 -3.432642 1.8369838 136 0 0 0 86.846313
-10.404131 -2.8819575 1.9752208 274 0 0 0 95.232948
-9.1962233 -2.7918787 1.9980741 296 0 0 0 94.851425
-5.4739642 -2.9274921 1.9113269 91 0 0 0 91.716606
50.677238 -0.033289995 1.5953289 39 0 0 0 49.542809
18.601219 0.90649885 1.7538927 326.5 0 0 0 48.75872
23.100903 0.55681992 1.887351 18 0 0 0 49.151119
18.626076 1.3676071 1.7583587 320.5 0 0 0 48.374599
18.669727 1.8334609 1.7655759 256 0 0 0 47.985161
18.691917 2.3007998 1.5426801 270 0 0 0 47.59808
18.714165 2.7724495 1.5492359 269 0 0 0 47.200321
18.750078 3.2509553 1.5578116 239 0 0 0 46.811241
15.805679 3.9619024 1.7345507 138 0 0 0 45.643501
17.228161 3.8696878 1.8770354 106 0 0 0 46.03928
18.761038 3.7303805 1.5653261 226 0 0 0 46.426418
7.2991595 4.4833722 1.6339321 630 0 0 0 40.838112
7.8177948 4.4549332 1.7508826 600 0 0 0 41.361713
8.2526112 4.4353523 1.8220234 483 0 0 0 41.74958
8.6944942 4.3984404 1.6524814 479.5 0 0 0 42.141769
9.20154 4.3721542 1.7262678 433.5 0 0 0 42.528393
9.7610006 4.3451076 1.8090804 414 0 0 0 42.92144
10.342974 4.3006248 1.7560468 360 0 0 0 43.31469
10.997327 4.2564626 1.5543925 280 0 0 0 43.694599
11.02772 4.2685814 1.852105 286 0 0 0 43.694599
12.514111 4.1451268 1.7341363 5 0 0 0 44.480167
13.432517 4.0841284 1.8448696 52 0 0 0 44.862793
14.516491 4.0234699 1.7914734 92 0 0 0 45.251328
3.4252486 4.8235068 1.7427747 635.75 0 0 0 34.517719
3.7800605 4.6984777 1.7319511 850.40002 0 0 0 35.459778
4.2800627 4.6684251 1.7870955 900 0 0 0 36.475422
4.7056527 4.644958 1.7009268 890.83331 0 0 0 37.261494
5.1722484 4.6208725 1.7832485 850.5 0 0 0 38.042591
5.712019 4.5896263 1.7370573 724.59998 0 0 0 38.863232
6.2207146 4.5555725 1.7505634 703.79999 0 0 0 39.5588
6.7190924 4.5232658 1.7784864 694.5 0 0 0 40.18882
7.0646958 4.5052061 1.8387492 623.5 0 0 0 40.576061
3.4200919 5.2093053 1.7555388 446 0 0 0 33.929314
4.3794217 7.4041219 1.7719048 288 0 0 0 33.151852
4.7471619 8.4811792 1.75725 544.66669 0 0 0 32.759899
5.1725411 8.2574406 1.7632204 37 0 0 0 33.54594
-1.6303397 8.9925146 1.6421655 929 0 0 0 21.841021
-1.4020774 8.9829569 1.7455678 981 0 0 0 22.22974
-0.067076229 8.8922539 1.7103052 923 0 0 0 24.572849
0.15437558 8.9980192 1.6203102 662 0 0 0 24.96731
0.8201676 8.9883261 1.626038 29 0 0 0 26.1385
1.2390227 8.7968817 1.7111925 925.83331 0 0 0 26.917688
1.7929518 8.7623253 1.7235719 824 0 0 0 27.885021
2.2788243 8.880909 1.6544139 19.5 0 0 0 28.668427
2.7817757 8.8476639 1.7507108 452 0 0 0 29.508566
3.0539932 8.7053146 1.7799456 766.5 0 0 0 30.03668
3.850255 8.8190899 1.5000325 9 0 0 0 31.201241
4.3277211 8.608304 1.6938398 405.79999 0 0 0 32.064114
4.50211 8.5315714 1.9820329 698 0 0 0 32.374512
-9.0800571 9.4567938 1.6945157 353 0 0 0 12.47815
-7.6932173 9.2812376 1.7081426 454 0 0 0 13.64387
-7.1811352 9.3385439 1.6698462 439.25 0 0 0 14.238296
-5.8216558 9.3260803 1.8306562 300.5 0 0 0 15.79874
-4.6979136 9.1860142 1.7195863 799 0 0 0 17.157049
-4.2981358 9.2229729 1.6966707 625.5 0 0 0 17.741531
-3.0717926 9.0801258 1.8363948 754.5 0 0 0 19.49795
-2.8556852 9.1776352 1.8418676 454.5 0 0 0 19.895321
-1.6327053 9.0063925 1.8691013 893 0 0 0 21.841021
-1.190635 9.0932617 1.7609822 609 0 0 0 22.613911
-0.2891418 9.0327501 1.6263189 23 0 0 0 24.182671
0.15440258 9.0008898 1.8419147 646 0 0 0 24.96731
-16.466537 9.8301888 1.5378842 106 0 0 0 8.1903095
-14.82652 9.8615637 1.8595093 253 0 0 0 8.9737196
-13.217278 9.7505951 1.7165352 330 0 0 0 9.75173
-11.869486 9.6807375 1.7892561 281 0 0 0 10.52852
-10.614377 9.5514116 1.8438795 299 0 0 0 11.31164
-10.224118 9.6618242 1.8167455 260 0 0 0 11.69283
-8.7670135 9.5890551 1.8392036 77.5 0 0 0 12.8607
-7.0486641 9.9018679 1.7221782 26 0 0 0 14.8187
-19.171356 10.214843 1.7394942 122 0 0 0 7.4063401
-17.864201 10.084272 1.6437215 150 0 0 0 7.7940598
-16.015352 10.100186 1.9761246 33 0 0 0 8.5783195
-15.98414 10.079658 1.5154692 46 0 0 0 8.5783195
-33.820583 11.173858 1.9589509 12 0 0 0 4.6786399
4.5667672 11.988285 1.9874518 33 0 0 0 30.426849
-3.5251145 12.490484 1.8393216 39 0 0 0 20.28237
-7.2808523 12.729496 1.7128351 42 0 0 0 16.37781
-6.865274 12.71394 1.6880932 42 0 0 0 16.762609
-5.2931457 12.609902 1.7668157 56 0 0 0 18.326759
-4.7473011 12.581818 1.7382238 41.5 0 0 0 18.919445
0.73228252 12.936802 1.6802704 60 0 0 0 25.553799
-13.222325 13.156048 1.945297 14 0 0 0 12.07898
-11.376256 13.109976 1.811371 6 0 0 0 13.25029
-19.382175 13.608945 1.8927745 5 0 0 0 9.3646097
-15.972561 13.723033 1.6844702 7 0 0 0 10.92005
-0.43186572 15.041616 1.9453764 47 0 0 0 24.182671
-0.61582959 -8.1128445 2.0968661 5530 0 0 0 75.703743
-1.3914285 -7.9290857 2.274965 5 0 0 0 77.263824
-0.79045439 -7.8584514 2.2318997 5505 0 0 0 76.091934
43.515453 -7.5833664 2.4837985 7 0 0 0 52.268726
-19.875525 -6.0309973 2.2327647 45 0 0 0 94.851425
-18.623739 -6.153964 2.1106648 65 0 0 0 94.466248
-15.641533 -6.0374908 2.2215481 93 0 0 0 93.676208
-8.2315083 -6.2636232 2.1496725 320.5 0 0 0 89.189209
43.551682 -6.4922495 2.4751909 11 0 0 0 51.884113
-1.7329905 -5.675231 2.1927786 98.5 0 0 0 79.216621
-9.5557318 -5.1083593 2.2496276 260 0 0 0 91.716606
-7.6618648 -5.1200948 2.1432319 247 0 0 0 90.17141
-7.3794708 -5.4727669 2.3621242 63 0 0 0 89.386169
-2.1802626 -5.2371035 2.1671402 280 0 0 0 80.776192
43.534897 -5.4007344 2.4651475 11 0 0 0 51.486767
-9.2290506 -4.6463599 2.1465631 274 0 0 0 92.099457
-7.5496602 -4.5262008 2.0484583 347 0 0 0 90.952499
-6.5352912 -4.6021428 2.0588019 338 0 0 0 89.779243
-4.0151672 -4.767807 2.3010116 199.5 0 0 0 85.666718
7.9774666 -4.8028865 2.389864 33 0 0 0 58.12534
8.0860052 -4.6015115 2.1588056 115 0 0 0 57.734119
9.1301517 -4.6166892 2.1193151 90 0 0 0 56.953079
-9.2418728 -4.2372694 2.1126325 317 0 0 0 92.69281
-7.449635 -4.2215223 2.4154928 120 0 0 0 91.341423
-6.5196228 -4.3577819 2.4071655 125 0 0 0 90.17141
-4.5406885 -4.1140203 2.1878552 206 0 0 0 87.809265
-4.1944551 -4.2952061 2.1458893 91.75 0 0 0 86.843491
7.7904568 -4.0598493 2.2553527 138.5 0 0 0 57.149902
10.741838 -4.4674726 2.4047172 42 0 0 0 55.77322
-14.173156 -3.5542071 2.3004813 172 0 0 0 95.625824
-12.130999 -3.6830599 2.0006387 89 0 0 0 94.851425
-5.9117165 -3.9494736 2.0105917 91 0 0 0 90.17141
-4.6292195 -3.7987592 2.1375847 174.5 0 0 0 88.597809
-4.3041444 -3.7114315 2.1700525 358 0 0 0 88.205368
8.9747772 -3.9952602 2.277354 118 0 0 0 56.170479
9.5743866 -3.7094889 2.2530711 176 0 0 0 55.389286
38.100582 -3.7801611 2.1549499 21 0 0 0 51.106567
-9.1336451 -3.0194116 2.0000312 325 0 0 0 94.466248
-8.8480568 -3.334964 2.1193912 265.33334 0 0 0 93.809883
-6.395596 -3.4194558 2.0502677 79 0 0 0 91.716606
7.8659377 -3.2742181 2.402051 172 0 0 0 55.77322
8.2421026 -3.1165314 2.3355503 43.333332 0 0 0 55.262325
9.6069479 -3.1893203 2.09692 8 0 0 0 54.6106
-9.0066252 -2.7360172 2.1876459 442 0 0 0 94.851425
-8.8149462 -2.9157286 2.1583138 353 0 0 0 94.466248
8.2203655 -2.9554486 2.4618199 161 0 0 0 55.0084
9.2619801 -2.8181326 2.2453051 41.5 0 0 0 54.223145
-8.4882469 -2.1300383 2.467489 111 0 0 0 95.625824
-5.9972034 -2.3152378 2.1369636 52 0 0 0 93.676208
-8.458128 -1.6864283 2.4320743 107 0 0 0 96.398926
40.029289 -1.993615 2.2523999 15 0 0 0 50.31678
43.555283 -1.0975512 2.4446144 6 0 0 0 49.927032
18.591576 0.9101674 2.4381032 312 0 0 0 48.75872
22.830753 0.55100602 2.4212582 23 0 0 0 49.151119
18.618631 1.3712131 2.4447782 269 0 0 0 48.374599
18.65004 1.8357016 2.4534914 247 0 0 0 47.985161
18.679321 2.3017855 2.2314768 284 0 0 0 47.59808
18.716965 2.7754197 2.2430453 246.5 0 0 0 47.200321
18.749969 3.2535198 2.2553608 272 0 0 0 46.811241
15.818817 3.9686549 2.1379859 105 0 0 0 45.643501
17.281183 3.8853135 2.3192353 75 0 0 0 46.03928
18.759237 3.7306254 2.030664 267 0 0 0 46.426418
7.4325519 4.4857135 2.225544 529.33331 0 0 0 40.969139
7.8344302 4.4668221 2.1990366 450 0 0 0 41.361713
8.2598362 4.4417467 2.285399 454.5 0 0 0 41.74958
8.7115097 4.4091439 2.2582531 410.66666 0 0 0 42.141769
9.2207355 4.3829336 2.234091 400.5 0 0 0 42.528393
9.7602406 4.3465376 2.336585 339.5 0 0 0 42.92144
10.375547 4.3146896 2.1792235 314.5 0 0 0 43.31469
11.024454 4.2679286 2.290936 285 0 0 0 43.694599
12.605283 4.1756644 2.0760007 11 0 0 0 44.480167
13.410921 4.0780482 2.1897304 38 0 0 0 44.862793
14.52191 4.0270777 2.3517578 54 0 0 0 45.251328
3.4176488 4.8166342 2.1774831 489.25 0 0 0 34.517719
3.8216074 4.6990614 2.1774817 647.875 0 0 0 35.547131
4.2808657 4.6717649 2.2580495 645.33331 0 0 0 36.475418
4.6911745 4.6499124 2.2360487 673.14288 0 0 0 37.233879
5.1678243 4.6194491 2.2971425 614.33331 0 0 0 38.042591
5.6809158 4.5895791 2.2386582 634.33331 0 0 0 38.823277
6.2807183 4.5537601 2.2217631 601.20001 0 0 0 39.636013
6.7261939 4.5301995 2.281606 534.33331 0 0 0 40.18882
7.0706854 4.5104938 2.2546957 596.5 0 0 0 40.576061
3.4152298 5.2048507 2.2155402 346.66666 0 0 0 33.929314
3.9964187 6.4061761 2.1193914 76 0 0 0 33.54594
4.3745537 7.3989658 2.3000231 279.5 0 0 0 33.151852
4.7460856 8.4838829 2.3555441 428.5 0 0 0 32.759899
5.1757021 8.2654524 2.2444446 32 0 0 0 33.54594
-1.4061295 8.9999132 2.3057384 714 0 0 0 22.22974
-0.068707116 8.9052095 2.2585866 736 0 0 0 24.572851
0.70764577 8.9946651 2.1784396 25.5 0 0 0 25.943405
1.2640216 8.7888851 2.2274823 721.625 0 0 0 26.96685
1.7710692 8.7736149 2.2292941 682 0 0 0 27.846329
2.2415721 8.8950233 2.1803257 30.333334 0 0 0 28.605211
2.8622396 8.8555164 2.2513113 503.5 0 0 0 29.639561
3.0542436 8.7117767 2.2342091 624.5 0 0 0 30.03668
3.5905225 8.8177261 2.1874428 9 0 0 0 30.81065
4.2820945 8.628355 2.3334041 325.83334 0 0 0 31.98646
-9.0698757 9.4468155 2.1760247 323.5 0 0 0 12.47815
-7.7017093 9.2924976 2.3030646 363 0 0 0 13.64387
-7.1880579 9.3483944 2.2511926 387.5 0 0 0 14.238295
-6.7594481 9.4915304 2.3671055 21 0 0 0 14.8187
-6.3843608 9.4427204 2.0372171 7 0 0 0 15.20935
-5.7816758 9.3461418 2.3231666 377.33334 0 0 0 15.863173
-5.2313919 9.3647928 2.4426064 420.5 0 0 0 16.57021
-4.7000427 9.1889925 2.2255704 606 0 0 0 17.157049
-4.3000793 9.2261095 2.1957393 548.5 0 0 0 17.741531
-3.6438878 9.2539053 2.2677965 12 0 0 0 18.72241
-3.1760838 9.1353683 2.3650358 555 0 0 0 19.370794
-2.7790616 9.189271 2.3477337 317.33334 0 0 0 20.024336
-2.2510068 9.1717243 2.3880293 24.5 0 0 0 20.869335
-1.7649843 9.0876646 2.2290788 360.75 0 0 0 21.645716
-1.2635566 9.0621195 2.1673 594 0 0 0 22.485855
-0.73893476 9.0592566 2.1547301 17.666666 0 0 0 23.39888
-0.29059798 9.0255585 2.0672708 18 0 0 0 24.182671
0.26398221 9.0101757 2.175355 267 0 0 0 25.1633
-16.470306 9.8316164 2.2365501 125 0 0 0 8.1903095
-14.822981 9.8561592 2.2944 228 0 0 0 8.9737196
-13.222589 9.7516155 2.1189113 290 0 0 0 9.75173
-12.675109 9.8339691 2.2669868 8.5 0 0 0 10.14201
-11.86091 9.6728401 2.351681 260 0 0 0 10.52852
-11.362167 9.7365742 2.2995346 5 0 0 0 10.92005
-10.627478 9.5638456 2.1979709 279 0 0 0 11.31164
-10.205965 9.6450415 2.1591134 271 0 0 0 11.69283
-9.7184114 9.6430626 2.2741227 78.5 0 0 0 12.07898
-8.7629242 9.5852633 2.3179307 64 0 0 0 12.8607
-8.3716726 9.6178064 2.276175 6 0 0 0 13.25029
-7.0450578 9.8974085 2.1698961 38 0 0 0 14.8187
-20.485983 10.283662 2.3891714 7 0 0 0 7.02319
-19.188816 10.225021 2.2669003 118 0 0 0 7.4063401
-17.87768 10.092715 2.1413615 166 0 0 0 7.7940598
-15.895179 10.020784 2.4210489 27 0 0 0 8.5783195
-23.759924 10.510469 2.0776472 68 0 0 0 6.2395701
-80.210892 11.955995 2.4588747 17 0 0 0 1.94809
0.82046676 11.98211 2.4486399 33 0 0 0 25.74831
1.115741 11.967343 2.4508808 36 0 0 0 26.1385
2.902863 11.830099 2.4867101 33 0 0 0 28.478781
4.7940483 11.98751 2.2134953 34 0 0 0 30.682716
5.239059 11.947593 2.3449771 37 0 0 0 31.201241
5.5697632 11.895671 2.3614774 23 0 0 0 31.59819
-3.5257275 12.493261 2.3201611 38 0 0 0 20.28237
-3.1969025 12.491008 2.3050134 44 0 0 0 20.67189
-2.7045307 12.454256 2.2793431 36.5 0 0 0 21.258595
-1.2696114 12.219036 2.3484492 38 0 0 0 23.013929
-0.86382931 12.162532 2.3817599 40.333332 0 0 0 23.526846
-0.35984284 12.005953 2.4472258 45 0 0 0 24.182671
0.52635586 12.013119 2.4511425 27 0 0 0 25.359289
-7.2893682 12.742767 2.2562449 32 0 0 0 16.37781
-6.8679099 12.716997 2.2216587 41 0 0 0 16.762609
-5.2926922 12.609503 2.2727153 50.5 0 0 0 18.326759
-4.7492247 12.587356 2.236732 38.25 0 0 0 18.919445
-0.70234495 12.978692 2.3262823 27 0 0 0 23.78488
0.73075747 12.916348 2.3173976 96.5 0 0 0 25.553799
-13.235241 13.165093 2.4040496 9 0 0 0 12.07898
-11.380369 13.110771 2.2368636 12 0 0 0 13.25029
-19.373642 13.603822 2.4648569 6 0 0 0 9.3646097
-15.947961 13.702557 2.1906936 9 0 0 0 10.92005
-9.1012363 13.515477 2.1002975 28 0 0 0 15.20935
-18.802532 14.628245 2.4797294 9 0 0 0 10.14201
-0.80318117 15.065348 2.3228493 23 0 0 0 23.78488
-0.43265191 15.07279 2.3220017 56 0 0 0 24.182671
-6.3491888 -31.834307 2.6980484 32 0 0 0 77.656891
-4.7272921 -31.747723 2.6673555 21 0 0 0 76.876198
1.9424148 -26.632004 2.8679123 23 0 0 0 73.364288
-0.6152634 -8.1350269 2.8070104 5209 0 0 0 75.703743
-79.002022 -7.7762413 2.578182 24 0 0 0 97.959427
-0.79106128 -7.8793135 2.7249856 5592.5 0 0 0 76.091934
-10.011684 -6.003561 2.9931028 69 0 0 0 90.952499
-5.057766 -6.4723043 2.7237246 19 0 0 0 85.080513
-4.9831295 -6.3812618 2.883177 44 0 0 0 85.080513
-79.099968 -5.830008 2.5743999 15 0 0 0 98.349808
-10.240446 -5.6925445 2.810951 143.33333 0 0 0 91.466484
-20.632763 -5.1742272 2.8079121 35 0 0 0 95.625824
-10.031364 -5.2086172 2.7609773 133.5 0 0 0 91.908035
7.895617 -5.2056947 2.7399724 162.33333 0 0 0 58.774887
8.1684828 -5.1919188 2.9621353 28 0 0 0 58.512741
9.896884 -5.3086243 2.8744571 62 0 0 0 57.346722
10.214379 -5.3169813 2.8057275 28.5 0 0 0 57.149902
-16.683668 -4.6216855 2.7197793 41 0 0 0 95.232948
-10.17613 -4.6651731 2.5966578 227 0 0 0 92.69281
-9.730032 -4.7531843 2.7784834 213 0 0 0 92.299484
-7.6064339 -4.8186126 2.8715255 128.5 0 0 0 90.559822
7.1119313 -4.5214882 2.9999959 137 0 0 0 58.512741
10.015162 -4.7541704 2.5652661 42 0 0 0 56.558033
-10.691433 -4.1285267 2.9382393 226 0 0 0 93.676208
-10.179331 -4.2203732 2.5561807 161 0 0 0 93.278351
-9.8673267 -4.2352452 2.7551501 255 0 0 0 93.08223
-9.0668516 -4.0222445 2.7932172 41 0 0 0 92.886116
-8.5498362 -4.0483108 2.8976252 138 0 0 0 92.499504
-6.9889483 -4.4296856 2.9451456 141 0 0 0 90.559822
-6.4044757 -4.3396554 2.8027091 145 0 0 0 90.072426
7.3388858 -4.1773663 2.7984076 173 0 0 0 57.734119
9.154232 -4.2114925 2.7101784 112 0 0 0 56.364258
9.7794647 -4.2079549 2.8597322 112.5 0 0 0 55.971848
11.450942 -4.1107497 2.8113127 65 0 0 0 55.0084
-79.174965 -3.8848617 2.5714214 16 0 0 0 98.743912
-13.845447 -3.8353586 2.9710741 148 0 0 0 95.232948
-10.375855 -3.7168889 2.8266423 93 0 0 0 94.077232
-7.4188218 -3.9670572 2.7879419 175 0 0 0 91.716606
7.4264717 -3.8704176 2.8791394 27.5 0 0 0 57.149902
8.0805073 -3.8373306 2.7404599 187 0 0 0 56.558033
10.862161 -3.6009157 2.9280026 120 0 0 0 54.6106
-14.061142 -3.1615994 2.6256785 160 0 0 0 96.009132
-13.809448 -3.4629848 2.7679777 145 0 0 0 95.625824
-7.8340759 -3.2485189 2.6011627 271.33334 0 0 0 93.28022
7.4426732 -3.0951827 2.8715239 273 0 0 0 55.77322
7.8827581 -3.1678865 2.7091966 22.5 0 0 0 55.581253
9.8730888 -3.2741995 2.9240031 129 0 0 0 54.6106
-14.346524 -2.8579268 2.6643777 229 0 0 0 96.398926
-13.949817 -2.7788928 2.9412539 195 0 0 0 96.398926
-8.0397539 -2.6592412 2.8057742 97 0 0 0 94.466248
8.1154308 -2.8053257 2.7384841 159 0 0 0 54.809498
36.27084 -2.6937585 2.9542968 23 0 0 0 50.710918
-9.2858038 -2.212882 2.9233375 90 0 0 0 95.817474
-8.6890373 -2.4084177 2.5414102 97 0 0 0 95.232948
-8.0793982 -2.2424295 2.9836259 170 0 0 0 95.232948
7.8275108 -2.383189 2.9145474 175 0 0 0 54.2229
8.0916615 -2.1411431 2.8783367 131.5 0 0 0 53.638729
7.9134073 -1.6838284 2.6836429 50 0 0 0 52.85775
18.568233 0.90961653 2.8959739 261 0 0 0 48.75872
18.599075 1.3703655 2.9046025 218 0 0 0 48.374599
18.636181 1.8349313 2.9159579 225 0 0 0 47.985161
18.661674 2.3021586 2.9273016 265 0 0 0 47.59808
18.707651 2.7766073 2.9438567 197 0 0 0 47.200321
18.73671 3.2538168 2.9595962 219 0 0 0 46.811241
15.830338 3.9723368 2.7472091 95 0 0 0 45.643501
17.302832 3.8907418 2.7618525 98 0 0 0 46.03928
18.751389 3.7333908 2.7378635 166.5 0 0 0 46.426418
7.4471273 4.4961414 2.7687855 377 0 0 0 40.969139
7.8340297 4.4680247 2.7579489 365 0 0 0 41.361713
8.2649155 4.4460726 2.7523279 363.5 0 0 0 41.74958
8.7283554 4.4200916 2.8680487 318.5 0 0 0 42.141769
9.2105637 4.3798294 2.7352479 329.5 0 0 0 42.528393
9.7792892 4.3565598 2.7362404 272 0 0 0 42.92144
10.379768 4.3193369 2.7333784 265.5 0 0 0 43.31469
11.026866 4.271678 2.7277608 220 0 0 0 43.694599
11.779137 4.2299147 2.7307067 15.5 0 0 0 44.080978
12.878377 4.2667174 2.7915058 8 0 0 0 44.480167
13.467308 4.0958385 2.7217035 26.5 0 0 0 44.862793
14.54056 4.0327311 2.7291081 35 0 0 0 45.251328
4.8155856 4.6426435 2.5469763 526 0 0 0 37.454781
5.1711516 4.624711 2.6410308 518.5 0 0 0 38.042591
5.6849804 4.5962453 2.6919632 470 0 0 0 38.82328
6.2571869 4.5628605 2.7549989 458.66666 0 0 0 39.597404
6.7413287 4.542223 2.7899799 360 0 0 0 40.18882
7.0750327 4.5157714 2.7760537 427.33334 0 0 0 40.576061
3.9816751 6.3892236 2.8551579 29 0 0 0 33.54594
4.3710203 7.3953438 2.7237906 272.5 0 0 0 33.151852
4.7379022 8.4720955 2.8321981 367 0 0 0 32.759899
5.1693649 8.261054 2.9646804 26 0 0 0 33.54594
-1.4063975 8.9911737 2.7518802 572 0 0 0 22.22974
-0.069570452 8.9083595 2.8078499 549 0 0 0 24.572849
0.76220071 8.9885235 2.6789725 697.25 0 0 0 26.040955
1.2088779 8.8252201 2.7640915 592.71429 0 0 0 26.861502
1.8245537 8.8164434 2.7757947 538.40002 0 0 0 27.923712
2.2874219 8.9248781 2.6832545 51.75 0 0 0 28.668425
2.7452719 8.8693857 2.7049799 276.75 0 0 0 29.443066
3.1620703 8.7846003 2.7601557 381.66666 0 0 0 30.166739
3.7487192 8.8912849 2.8132372 14.25 0 0 0 31.005945
4.3279333 8.6176243 2.8373485 350.60001 0 0 0 32.064114
-9.0771847 9.4538307 2.8190644 231.5 0 0 0 12.47815
-7.7037029 9.2922945 2.7445602 330 0 0 0 13.64387
-7.19419 9.3539209 2.8280706 311.25 0 0 0 14.238296
-6.761869 9.4918814 2.6510229 20 0 0 0 14.8187
-6.415484 9.4866419 2.6055987 20 0 0 0 15.20935
-5.8687739 9.3145828 2.6850426 457 0 0 0 15.734306
-5.2329102 9.3682327 2.8380303 625.75 0 0 0 16.57021
-4.7066193 9.2008247 2.7341387 567 0 0 0 17.157049
-4.3023763 9.229599 2.6952472 463.25 0 0 0 17.741531
-3.7575104 9.2737818 2.7227917 673.59998 0 0 0 18.564152
-3.2277167 9.1610146 2.8124466 665.75 0 0 0 19.307215
-2.7883441 9.2187319 2.8293831 273.66666 0 0 0 20.024338
-2.2702222 9.2489948 2.7604351 24 0 0 0 20.869335
-1.7410752 9.0802097 2.749136 383 0 0 0 21.684776
-1.3005363 9.0542812 2.7105134 567.25 0 0 0 22.421825
-0.74092782 9.0833483 2.7585907 744.44446 0 0 0 23.39888
-0.29195222 9.056756 2.7436168 776 0 0 0 24.182671
0.26363242 9.0203838 2.7341325 664.83331 0 0 0 25.1633
0.5959841 9.0053768 2.8459296 720.5 0 0 0 25.74831
4.3558736 9.3392811 2.8756323 17 0 0 0 31.59819
-16.431232 9.8073301 2.9365277 132 0 0 0 8.1903095
