# .PCD v0.7 - Point Cloud Data file format
VERSION 0.7
FIELDS x y z intensity normal_x normal_y normal_z curvature
SIZE 4 4 4 4 4 4 4 4
TYPE F F F F F F F F
COUNT 1 1 1 1 1 1 1 1
WIDTH 940
HEIGHT 1
VIEWPOINT 0 0 0 1 0 0 0
POINTS 940
DATA ascii
15.13346 5.4952226 0.53141409 113 0 0 0 44.161221
15.791132 5.2961307 0.7529285 274.5 0 0 0 44.551567
-14.476402 5.844172 0.95399278 385 0 0 0 5.8495102
-13.814098 5.5751405 0.54962158 169 0 0 0 5.8495102
15.198381 5.5186276 0.93017298 132 0 0 0 44.161221
-14.876164 6.4337845 0.59447318 121 0 0 0 6.2464299
-13.83143 6.3858142 0.56056368 194 0 0 0 6.6317701
-16.671242 8.2056561 0.67522228 157 0 0 0 7.0227499
-15.921969 8.3257856 0.65359598 107 0 0 0 7.4187899
-15.057553 8.3475561 0.62729222 106 0 0 0 7.80582
-14.109271 8.2778559 0.99552161 226 0 0 0 8.1981802
-13.787201 8.3150988 0.78315961 147.5 0 0 0 8.3922157
-13.269341 8.2253895 0.57124758 145 0 0 0 8.5862503
-12.585448 8.2325563 0.55113155 216 0 0 0 8.9742699
-12.301755 8.4841118 0.911017 241 0 0 0 9.3737297
-11.989076 8.2665644 0.53435099 199 0 0 0 9.3737297
-11.429506 8.2987986 0.51889288 216 0 0 0 9.7566204
-10.760685 8.3593378 0.72174412 314 0 0 0 10.27621
-13.059683 8.5452394 0.950423 40 0 0 0 8.9742699
-11.804842 8.5737677 0.88979542 36 0 0 0 9.7566204
-10.175817 8.5927649 0.81393594 66 0 0 0 10.9313
-9.7291574 8.6305246 0.7951721 100 0 0 0 11.32376
-9.2184925 8.5873957 0.77093971 339 0 0 0 11.7162
-8.824667 8.6318502 0.75565135 82 0 0 0 12.10335
-8.4481354 8.6766272 0.7415393 91 0 0 0 12.49379
-7.7324281 8.612999 0.80480409 428.66666 0 0 0 13.143134
-7.3067203 8.6922989 0.83674812 157 0 0 0 13.66908
-6.7542205 8.6547832 0.80964524 370 0 0 0 14.249174
-6.2857571 8.6962729 0.79142076 470.5 0 0 0 14.84692
-5.8439403 8.74049 0.77583182 275.25 0 0 0 15.425005
-5.2298398 8.7119732 0.75021744 522 0 0 0 16.20841
-4.6758156 8.7317514 0.73135197 673.5 0 0 0 16.985111
-4.1797786 8.814435 0.72006857 348.5 0 0 0 17.765739
-3.7957573 8.8283272 0.70916045 329.5 0 0 0 18.355659
-3.2857125 8.8046341 0.69358373 609.66669 0 0 0 19.133705
-2.7069411 8.8777294 0.68444002 378 0 0 0 20.112125
-2.1896122 8.6788149 0.76967448 1067 0 0 0 20.891195
-1.7452418 8.6949968 0.76218599 935.83331 0 0 0 21.67202
-1.2539523 8.9233427 0.80094421 383.875 0 0 0 22.597206
-0.7185815 8.9239626 0.7363072 516.14288 0 0 0 23.541103
-0.23013644 8.9076748 0.76319033 559.5 0 0 0 24.407724
0.21011652 8.9848967 0.65860456 394.25 0 0 0 25.18998
0.21074016 9.005022 0.99020118 110 0 0 0 25.18998
0.54434466 9.0103722 0.77104217 259.66666 0 0 0 25.775061
18.191027 -33.978142 1.2741531 15 0 0 0 66.83287
0.0053327521 -31.607578 1.0575914 27 0 0 0 74.658882
7.9131107 -31.546043 1.0848544 82 0 0 0 70.746468
9.4912014 -31.246077 1.0884799 66 0 0 0 69.960243
-0.7540133 -7.5370169 1.3986684 73 0 0 0 76.227791
-18.745415 -6.7068853 1.1598926 75 0 0 0 94.210251
-14.803066 -6.5645189 1.3533282 243 0 0 0 93.030304
-12.002944 -6.0437398 1.4553826 192 0 0 0 92.250015
-11.980137 -6.0322585 1.1272435 141 0 0 0 92.250015
-1.2106142 -6.4360743 1.3744798 502 0 0 0 77.595322
-0.80067754 -6.3849678 1.3515658 455.66666 0 0 0 76.618294
-9.2861443 -5.567739 1.3128505 175 0 0 0 91.092163
-8.8925705 -5.6326637 1.2761571 359.5 0 0 0 90.702354
-6.8700681 -5.3618598 1.170446 21 0 0 0 89.123192
-6.2725315 -5.1473455 1.3925602 115 0 0 0 88.734428
-6.3419285 -4.9492087 1.4803337 204 0 0 0 89.123192
-3.7121317 -4.7495036 1.2655897 909 0 0 0 85.213348
-1.5601279 -4.5389066 1.3449761 319 0 0 0 79.894913
-1.1624445 -4.5883942 1.3125175 195 0 0 0 78.564308
-0.85920513 -4.5465765 1.2648383 87 0 0 0 77.595322
-1.6692359 -4.4637899 1.4762156 226.5 0 0 0 80.329887
-1.2216226 -4.4371824 1.0878543 216.60001 0 0 0 78.876389
-0.863325 -4.4150071 1.3403471 191.5 0 0 0 77.693787
6.316246 -3.2407103 1.431468 308 0 0 0 57.17667
6.6737962 -3.0817163 1.3003569 305 0 0 0 56.525654
42.297539 -3.0062602 1.3517377 23 0 0 0 50.797581
3.5316055 -2.9100494 1.2574114 5.5 0 0 0 60.571461
6.7441049 -2.7857161 1.3455666 295.66666 0 0 0 55.873676
42.152699 -1.9551256 1.344102 29 0 0 0 50.40868
-4.2165728 -1.0583972 1.0274705 108 0 0 0 95.761871
41.925934 -0.9116981 1.3347795 43 0 0 0 50.020561
36.485123 1.003392 1.1647782 18 0 0 0 49.233639
37.510246 1.9560643 1.196535 16 0 0 0 48.850327
15.881909 2.8217092 1.3326249 456 0 0 0 46.89719
17.098799 2.6038952 1.4262938 71 0 0 0 47.280514
23.014856 2.9182856 1.3211201 25 0 0 0 47.67123
15.871972 3.225491 1.3375434 399 0 0 0 46.494751
40.694527 3.12713 1.2956959 22 0 0 0 48.4632
15.845932 3.6291077 1.3419716 395 0 0 0 46.10598
15.832989 4.2486553 1.352535 350 0 0 0 45.528069
0.38569313 4.9198961 1.2258618 415.75 0 0 0 26.161699
0.69366777 4.9165316 1.2339174 547.875 0 0 0 27.148214
1.2053639 4.9387989 1.2628067 513.4375 0 0 0 28.707613
1.7281724 4.9602442 1.2755058 576.71429 0 0 0 30.212063
2.2446897 4.9797206 1.2006999 682.36365 0 0 0 31.599632
2.6779766 4.99438 1.1467348 738.5 0 0 0 32.682365
15.798524 4.8717337 1.3631351 327 0 0 0 44.938328
2.4191368 5.0019546 1.4440745 547 0 0 0 32.028271
2.7715116 5.0079508 1.3731768 681 0 0 0 32.88802
3.2598262 5.0262637 1.2594974 837.11108 0 0 0 33.980965
3.752598 5.0474162 1.2751005 914 0 0 0 34.983131
4.2065301 5.0666747 1.1934577 1046.5714 0 0 0 35.826969
4.7450604 5.0934472 1.2833192 969.28571 0 0 0 36.722408
5.1743217 5.1131835 1.338666 883 0 0 0 37.383415
5.6938615 5.1340561 1.2201432 819.16669 0 0 0 38.097225
6.2995138 5.1612368 1.2521456 694.40002 0 0 0 38.840389
6.8666744 5.184926 1.2573147 699.5 0 0 0 39.469952
7.2526169 5.1980524 1.3022044 610 0 0 0 39.855671
7.6722541 5.2142282 1.2373685 590 0 0 0 40.250641
8.1176033 5.2263122 1.1667048 552.5 0 0 0 40.63802
8.7105017 5.3059039 1.229924 12 0 0 0 41.024239
9.2149601 5.3038902 1.2803427 23.5 0 0 0 41.42564
9.8278379 5.3360023 1.3455839 7.5 0 0 0 41.809673
10.422296 5.3270931 1.2612373 250 0 0 0 42.198421
11.140282 5.349575 1.179126 69.5 0 0 0 42.59758
12.895844 5.4227562 1.1590195 162 0 0 0 43.382511
15.798537 5.3016114 1.3733995 304 0 0 0 44.551567
12.505835 5.6263437 1.4706869 14 0 0 0 42.988354
14.060143 5.5060067 1.2479033 100 0 0 0 43.773727
15.195419 5.5204988 1.3334123 129 0 0 0 44.161221
-18.932285 8.1973734 1.2494786 68 0 0 0 6.2464299
-17.833126 8.2440195 1.1909933 76 0 0 0 6.6317701
-16.660261 8.2006655 1.1270503 229 0 0 0 7.0227499
-16.042524 8.3895922 1.099156 31 0 0 0 7.4187899
-15.086643 8.3627644 1.2613182 51 0 0 0 7.80582
-14.119277 8.2809439 1.4014279 240 0 0 0 8.1981802
-13.633045 8.4499035 1.3734381 164 0 0 0 8.5862503
-12.304426 8.4833364 1.2810758 253 0 0 0 9.3737297
-10.654572 8.4147377 1.2744081 405 0 0 0 10.4092
-11.720311 8.509387 1.242053 80 0 0 0 9.7566204
-10.14338 8.5627174 1.1398236 320 0 0 0 10.9313
-9.7171631 8.6173763 1.115509 279 0 0 0 11.32376
-9.2307673 8.5968447 1.2363865 337 0 0 0 11.7162
-8.8233128 8.6281404 1.0607777 69 0 0 0 12.10335
-8.466507 8.6933002 1.043229 65 0 0 0 12.49379
-7.8315334 8.5806761 1.1863818 525.33331 0 0 0 13.011757
-6.5383835 8.5934038 1.3226986 529 0 0 0 14.4452
-6.2943506 8.7066574 1.3161061 443.5 0 0 0 14.84692
-5.8462958 8.7435122 1.1600838 598.5 0 0 0 15.425005
-5.176023 8.7014532 1.1990882 714.33331 0 0 0 16.27408
-4.6838746 8.7456913 1.2163035 695.75 0 0 0 16.985111
-4.1850305 8.8239727 1.1971354 364.5 0 0 0 17.765739
-3.8010201 8.8389187 1.1793532 334 0 0 0 18.355659
-3.3181596 8.7957993 1.2020468 642.85712 0 0 0 19.078279
-2.6544085 8.8996344 1.1950114 79.5 0 0 0 20.208643
-2.1903286 8.6775856 1.3173358 1016.5 0 0 0 20.891195
-1.7465688 8.6971521 1.3055055 957 0 0 0 21.67202
-1.2294391 8.9442396 1.3274515 84.5 0 0 0 22.645895
-0.67444408 8.9574738 1.320118 368 0 0 0 23.625389
-0.33963829 8.8475857 1.3011818 888.5 0 0 0 24.21265
-0.1227217 9.0143032 1.3239276 30 0 0 0 24.6028
0.21013114 9.0110817 1.3233902 25.5 0 0 0 25.18998
0.54480946 9.0300751 1.3275332 28.5 0 0 0 25.775061
31.045948 -51.683704 1.9698145 12 0 0 0 66.053314
-7.4041128 -32.995544 1.9570997 46 0 0 0 78.17292
6.4234009 -32.23822 1.9012975 99 0 0 0 71.534752
3.0851367 -31.251099 1.8188697 16 0 0 0 73.088242
12.735842 -30.704676 1.9196595 18 0 0 0 68.395004
-2.2940257 -8.263876 1.9986955 5587 0 0 0 78.963356
-21.534924 -7.709259 1.8964907 40 0 0 0 94.210251
-20.288769 -7.8301296 1.8050743 45 0 0 0 93.824478
-14.167172 -7.5752549 1.73329 134 0 0 0 91.867126
-0.58565235 -7.7932901 1.7293354 147.5 0 0 0 75.839241
-0.2045183 -7.8201089 1.6362948 513.5 0 0 0 75.052521
-21.932184 -7.249187 1.9146411 32 0 0 0 94.599983
-17.611176 -7.2982025 1.5868187 42 0 0 0 93.426476
-15.166668 -7.1762486 1.8083951 52 0 0 0 92.64035
-11.037148 -7.3789334 1.7650259 26 0 0 0 90.302094
-10.491461 -7.0138993 1.991326 235 0 0 0 90.302094
3.4254973 -7.2658591 1.877133 20 0 0 0 67.615799
-14.816149 -6.5703139 1.7478461 197 0 0 0 93.030304
-15.776028 -6.0883098 1.8217635 91 0 0 0 93.824478
-15.328172 -6.3519554 1.78833 46 0 0 0 93.426476
-11.399883 -6.2804966 1.7306452 158 0 0 0 91.674179
-10.341151 -6.2018819 1.9039359 247 0 0 0 91.092163
-6.1231461 -6.1215315 1.5912025 85 0 0 0 87.178078
-5.8517551 -6.1440215 1.7683804 130 0 0 0 86.785187
-12.177108 -5.7639604 1.7897564 107 0 0 0 92.64035
-11.737389 -5.912539 1.7468841 93 0 0 0 92.250015
-10.627219 -5.6841855 1.9027151 235 0 0 0 91.867126
-10.489961 -5.9462252 1.9037848 198 0 0 0 91.481232
-8.7314053 -5.5315809 1.6368726 289 0 0 0 90.702354
-6.6106563 -5.9910493 1.8574736 268 0 0 0 87.952171
-6.1722794 -5.7333565 1.5490644 61.5 0 0 0 87.762466
-5.9168572 -5.7261949 1.7831155 195.66667 0 0 0 87.441193
-15.097425 -5.4045119 1.7291824 162 0 0 0 94.210251
-12.218462 -5.2418776 1.7666342 192 0 0 0 93.228394
-10.772937 -5.4265347 1.9042522 198 0 0 0 92.250015
-8.7540073 -5.3958626 1.8829206 226.5 0 0 0 90.897263
-6.2135139 -5.1873174 1.7527775 268.33334 0 0 0 88.604393
-5.9866366 -5.426662 1.8826647 511 0 0 0 87.952171
-1.0221601 -5.0870442 1.9869936 81 0 0 0 77.792252
-11.549156 -4.7880087 1.9721389 229 0 0 0 93.426476
-6.6252828 -4.7902746 1.704664 300 0 0 0 89.719681
-6.3692293 -4.7279043 1.7509031 175 0 0 0 89.518555
-5.6906681 -4.552793 1.7884105 346 0 0 0 88.92881
-3.7055066 -4.7427635 1.7067002 536 0 0 0 85.213348
-1.5597707 -4.6215663 1.7280037 219.8 0 0 0 79.816879
-1.2617533 -4.7900047 1.7523203 123 0 0 0 78.720314
-0.90991133 -4.5174832 1.6555136 147 0 0 0 77.792252
-6.666575 -4.223165 1.7434086 352.33334 0 0 0 90.698875
-5.6648059 -4.2748866 1.7713681 336 0 0 0 89.391357
-5.3603182 -4.3993802 1.9617686 374 0 0 0 88.734428
-1.694573 -4.3195291 1.7038226 160.83333 0 0 0 80.59185
-0.80900067 -4.3755398 1.5989361 156.33333 0 0 0 77.529671
-7.7438302 -3.6664956 1.9936519 137 0 0 0 92.64035
-7.4847155 -3.7711806 1.9509132 169 0 0 0 92.250015
-6.8911033 -3.9068174 1.8457788 100 0 0 0 91.481232
-5.5795717 -3.9307826 1.9311775 394 0 0 0 89.913925
6.057899 -3.8343253 1.8568859 216 0 0 0 58.61536
-4.2009482 -3.1173365 1.872404 117 0 0 0 89.525444
5.893744 -3.336082 1.8400767 158 0 0 0 57.827793
6.124855 -3.3358476 1.6922402 194.66667 0 0 0 57.572491
6.7654762 -3.0883348 1.8330204 121.75 0 0 0 56.461033
7.0495939 -3.3270993 1.6318666 226 0 0 0 56.6549
-4.6666131 -2.5961883 1.9533682 264 0 0 0 91.609863
-4.3176599 -2.8111398 1.9077379 161.83333 0 0 0 90.502502
3.5336926 -2.9099791 1.6539122 5.6666665 0 0 0 60.571461
6.2888083 -2.596863 1.7632624 259 0 0 0 55.873676
6.7209563 -2.9722435 1.5407335 116 0 0 0 56.267166
-4.7079873 -2.3731673 1.9719111 171.66667 0 0 0 92.252502
6.9744802 -2.2909694 1.8999596 87 0 0 0 54.70649
35.215469 0.10204369 1.9890994 44 0 0 0 49.62252
34.835773 0.95863062 1.9678535 40 0 0 0 49.233639
34.211147 1.7849628 1.9342439 31 0 0 0 48.850327
15.885766 2.8224626 1.7256935 422 0 0 0 46.89719
17.382332 2.6469567 1.8771926 114 0 0 0 47.280514
22.685959 2.8809156 1.873064 30 0 0 0 47.67123
15.870803 3.2253118 1.731676 399 0 0 0 46.494751
15.855316 3.6312878 1.7386843 414 0 0 0 46.10598
15.828573 4.2474351 1.7511171 379 0 0 0 45.528069
0.38708261 4.9372301 1.7170621 269.5 0 0 0 26.161699
0.695126 4.927434 1.7263517 382.375 0 0 0 27.148214
1.207247 4.9474921 1.766767 413.75 0 0 0 28.707613
1.7562841 4.9709177 1.7456822 467.26666 0 0 0 30.281321
2.2472608 4.9880781 1.7476704 543.59998 0 0 0 31.596247
2.570015 4.993432 1.6681745 643.5 0 0 0 32.424648
15.799571 4.8720345 1.7656612 357 0 0 0 44.938328
47.533283 4.8301196 1.5088023 13 0 0 0 48.064758
2.344409 5.0059233 1.8478477 529 0 0 0 31.830885
2.8041282 5.0150805 1.7586869 593.625 0 0 0 32.955376
3.247612 5.0328321 1.7561699 720.36365 0 0 0 33.945335
3.7439785 5.0553164 1.785828 780.33331 0 0 0 34.955547
4.1660151 5.074719 1.6997086 816 0 0 0 35.743462
4.6775789 5.0947452 1.7630537 848.14288 0 0 0 36.609489
5.2024593 5.1204748 1.7486967 856.25 0 0 0 37.416534
5.6729059 5.141088 1.7473042 778.59998 0 0 0 38.057514
6.2768898 5.1602511 1.7587214 727.66669 0 0 0 38.814262
6.6869683 5.1788764 1.707149 603.25 0 0 0 39.272739
7.2609577 5.2035618 1.7464492 561 0 0 0 39.855671
7.6870575 5.224369 1.8154364 540.5 0 0 0 40.250641
8.1278543 5.2334948 1.6470101 443.5 0 0 0 40.63802
8.6848316 5.2910786 1.7300103 9 0 0 0 41.024239
9.2320738 5.3144212 1.8107364 26.5 0 0 0 41.42564
9.7503767 5.2950997 1.7466252 4 0 0 0 41.809673
10.407153 5.3214917 1.6929542 188 0 0 0 42.198421
11.158391 5.360373 1.7893206 7 0 0 0 42.59758
12.92733 5.4371152 1.6761491 185 0 0 0 43.382511
13.985449 5.4781876 1.7924275 160.5 0 0 0 43.773727
15.788936 5.2983608 1.777951 282 0 0 0 44.551567
12.449585 5.6036735 1.8008978 9 0 0 0 42.988354
15.210332 5.5258293 1.7285875 142 0 0 0 44.161221
-19.757952 7.983788 1.8181714 80 0 0 0 5.8495102
-21.326433 8.0179262 1.9421706 105 0 0 0 5.4688201
-19.447742 8.4178705 1.8078271 8 0 0 0 6.2464299
-16.657288 8.1960459 1.5866954 229 0 0 0 7.0227499
-15.189111 8.4188366 1.9051204 29 0 0 0 7.80582
-14.099607 8.2698126 1.7944847 205 0 0 0 8.1981802
-13.63708 8.4529104 1.7615061 167 0 0 0 8.5862503
-12.316109 8.4919615 1.6436412 251 0 0 0 9.3737297
-10.785047 8.3747597 1.7239701 387 0 0 0 10.27621
-10.557446 8.9143467 1.687837 31.5 0 0 0 10.9313
-9.2403536 8.603754 1.6983826 335 0 0 0 11.7162
-7.7873755 8.600359 1.7046478 428 0 0 0 13.077445
-6.5234427 8.5734577 1.849035 476 0 0 0 14.4452
-6.2935915 8.7055531 1.8436205 414 0 0 0 14.84692
-5.055954 8.6609859 1.7222564 754 0 0 0 16.40542
-4.6828389 8.7437496 1.7034434 423.5 0 0 0 16.985111
-4.1898308 8.8338566 1.5587244 10.5 0 0 0 17.765739
-3.6533928 8.7861824 1.7481687 403 0 0 0 18.550694
-3.2939925 8.8265953 1.7342659 553 0 0 0 19.132351
-2.7122045 8.8942375 1.7117251 11.5 0 0 0 20.112125
-2.1898594 8.6796885 1.7583617 912 0 0 0 20.891195
-1.7452115 8.6947899 1.7419778 951.25 0 0 0 21.67202
-1.2283963 8.9442291 1.7724953 75.666664 0 0 0 22.645895
-0.67401159 8.9644222 1.7643212 337 0 0 0 23.625389
-0.33857304 8.8440189 1.7371925 913.5 0 0 0 24.21265
-10.47704 9.2961578 1.709944 13 0 0 0 11.32376
0.17400281 9.0100412 1.7308869 27.666666 0 0 0 25.123199
0.54543847 9.0249443 1.7730173 28 0 0 0 25.775061
-9.9158669 11.829783 1.6897323 22 0 0 0 13.66908
-9.4658537 11.870606 1.6620065 15 0 0 0 14.05315
-8.133893 11.889992 1.9299232 17 0 0 0 15.23097
-7.7398453 11.930031 1.9050508 28 0 0 0 15.61904
-7.3667712 11.987642 1.8847604 24 0 0 0 16.0114
-12.493492 12.250793 1.9136386 12 0 0 0 12.10335
-11.750029 12.097763 1.8449658 8 0 0 0 12.49379
-72.414375 -14.398279 2.3939333 25 0 0 0 96.549011
-72.779228 -12.621466 2.3942943 19 0 0 0 96.939232
-33.385052 -11.028444 2.0209455 18 0 0 0 94.599983
-73.040138 -10.826468 2.3927341 20 0 0 0 97.325432
-73.315346 -9.0334511 2.3930693 13 0 0 0 97.71524
-2.3777132 -8.1782341 2.3000972 5480.5 0 0 0 79.155228
-10.570826 -7.4486127 2.0397794 264 0 0 0 89.913925
-10.077846 -7.4776258 2.2907829 249 0 0 0 89.525444
-9.9805689 -7.0324287 2.2295358 281 0 0 0 89.913925
-10.325768 -6.90306 2.2674561 39 0 0 0 90.302094
-3.4625387 -6.1046457 2.1584654 47 0 0 0 82.871025
-14.958448 -5.775732 2.1232457 87 0 0 0 93.824478
-9.8896198 -5.6057563 2.0777326 180 0 0 0 91.481232
-5.5110226 -5.5124898 2.3929017 41 0 0 0 87.178078
-4.1349268 -5.5710125 2.2184725 134 0 0 0 84.815186
-3.7607703 -5.8081694 2.2310505 137.2 0 0 0 83.802567
-14.936695 -5.3499002 2.1010945 116 0 0 0 94.210251
-11.622292 -5.3281803 2.016356 141 0 0 0 92.835327
-11.183529 -5.1252408 2.2455616 138 0 0 0 92.835327
-10.220048 -5.4663024 2.1175985 306 0 0 0 91.867126
-6.1016598 -5.2664371 2.341481 145 0 0 0 88.343636
-5.7046137 -5.4332271 2.4180436 53 0 0 0 87.572754
-5.3820019 -5.1236815 2.465941 268 0 0 0 87.572754
-3.6986725 -5.34021 2.3715007 123.33334 0 0 0 84.295135
-3.0835998 -5.4361572 2.3852088 211 0 0 0 82.871025
-11.883187 -4.5881329 2.0086017 266 0 0 0 93.824478
-10.875439 -4.5086288 2.1501124 225 0 0 0 93.426476
-6.675992 -4.5811443 2.0846164 285 0 0 0 90.108009
-6.2774215 -4.820641 2.3003359 241.33333 0 0 0 89.257271
-4.1552992 -4.6995344 2.2018392 174 0 0 0 86.197441
-3.8083847 -4.6829691 2.186955 185.2 0 0 0 85.529099
8.2704782 -4.946547 2.4811587 70 0 0 0 58.215527
-12.408507 -4.2728376 2.068351 239.5 0 0 0 94.405121
-11.168177 -4.154232 2.175818 194.5 0 0 0 94.017365
-10.763527 -4.1557364 2.3913045 129 0 0 0 93.824478
-6.8275847 -4.3263006 2.281291 239 0 0 0 90.702354
-6.480278 -4.3322935 2.2011983 341 0 0 0 90.302094
-5.7121506 -4.0272717 2.4917812 165 0 0 0 89.913925
-5.4012961 -4.2188106 2.444113 131 0 0 0 89.123192
-4.012773 -4.0126133 2.1675158 114 0 0 0 87.178078
-3.8907228 -4.2917237 2.2121062 131 0 0 0 86.397125
5.850729 -4.2287807 2.3172977 351 0 0 0 59.595917
8.0953035 -4.0631046 2.2240772 129.5 0 0 0 57.042591
-11.439266 -3.7829859 2.1994016 155 0 0 0 94.599983
-10.83429 -3.8803473 2.3851557 133 0 0 0 94.210251
-4.5592914 -3.7436266 2.1078608 64 0 0 0 88.734428
-4.1148367 -3.7299044 2.1222196 118 0 0 0 87.956421
5.9478912 -3.9733708 2.0309105 384 0 0 0 59.0061
6.0491433 -3.8286533 2.0326209 61 0 0 0 58.61536
-8.3189201 -3.4501967 2.0938447 270 0 0 0 93.426476
-4.3020177 -3.3598373 2.0862534 141.33333 0 0 0 89.127686
5.4307213 -3.3439879 2.4451425 139.5 0 0 0 58.415443
5.6149344 -3.3641701 2.1862533 193 0 0 0 58.215527
6.2475462 -3.1377196 2.158715 217 0 0 0 57.042591
6.801321 -3.2077508 2.2272282 96 0 0 0 56.6549
7.0281911 -3.1055484 2.1784568 94 0 0 0 56.267166
8.2701778 -3.1747599 2.0655758 218 0 0 0 55.49036
8.6114063 -3.063633 2.3547349 273 0 0 0 55.096359
-8.1647615 -2.9256856 2.2301741 219 0 0 0 94.210251
-4.518065 -2.7109587 2.0143976 205 0 0 0 91.092163
5.8941975 -2.605953 2.0725739 117 0 0 0 56.267166
7.3888531 -2.7679574 2.1704438 172 0 0 0 55.359024
7.5309644 -2.6788538 2.4613502 9 0 0 0 55.096359
41.128506 -2.9226425 2.32566 16 0 0 0 50.797581
-4.6783667 -2.3584435 2.0032406 250 0 0 0 92.250015
5.9460602 -2.1158798 2.4206009 153 0 0 0 55.096359
6.096899 -2.3426089 2.1002328 121.5 0 0 0 55.49036
6.9416337 -2.2800968 2.0734074 45 0 0 0 54.70649
7.7448688 -2.1257179 2.0741172 23 0 0 0 53.922249
7.2417173 -1.7922291 2.1164017 40.5 0 0 0 53.532841
7.6860681 -1.7064999 2.0339334 77 0 0 0 53.143433
6.0362267 -1.3389877 2.3728111 22.666666 0 0 0 53.143478
7.5341587 -1.4784535 2.1759355 91 0 0 0 52.74699
15.891059 2.8263373 2.1240544 351 0 0 0 46.89719
17.126715 2.6113744 2.2771258 57 0 0 0 47.280514
23.069679 2.9295964 2.469769 26 0 0 0 47.67123
15.868064 3.2277055 2.1304839 307 0 0 0 46.494751
41.083786 3.1572804 2.3172693 25 0 0 0 48.4632
15.845566 3.6320219 2.1383085 278 0 0 0 46.10598
15.835276 4.2520828 2.1559787 265 0 0 0 45.528069
1.822908 4.977869 2.0333173 383.66666 0 0 0 30.462172
2.1869957 4.9899449 2.0888562 453 0 0 0 31.438889
15.814695 4.8796854 2.1752183 261 0 0 0 44.938328
2.421365 5.0080528 2.1320293 459 0 0 0 32.028271
2.7430618 5.01651 2.1208405 467.33334 0 0 0 32.810791
3.2924111 5.0386453 2.1986258 523.42859 0 0 0 34.036953
3.7437708 5.0556469 2.252342 593.83331 0 0 0 34.955544
4.1518111 5.0767312 2.2302361 648.42859 0 0 0 35.715172
4.6270604 5.0962453 2.2909214 591.83331 0 0 0 36.524662
5.1424947 5.1246295 2.2345271 665.33331 0 0 0 37.317173
5.7386227 5.1497102 2.2169685 603.40002 0 0 0 38.136936
6.166811 5.1591802 2.2706232 548.66669 0 0 0 38.683632
6.7345085 5.1897497 2.2294559 492.60001 0 0 0 39.312183
7.2575803 5.2026711 2.1851475 537.5 0 0 0 39.855671
7.7020116 5.236022 2.2770109 418 0 0 0 40.250641
8.1445913 5.2450681 2.2482493 413.33334 0 0 0 40.63802
8.6733036 5.2847996 2.229538 11.5 0 0 0 41.024239
9.288805 5.3476 2.350457 55 0 0 0 41.42564
9.8158045 5.3300924 2.3107727 6 0 0 0 41.809673
10.406185 5.3207259 2.2720406 159 0 0 0 42.198421
11.208333 5.3840342 2.2609258 3 0 0 0 42.59758
12.120128 5.4559503 2.4138677 5 0 0 0 42.988354
12.933655 5.4409461 2.1978707 174 0 0 0 43.382511
13.987352 5.4802165 2.3502307 133 0 0 0 43.773727
15.788503 5.3012438 2.1883795 274 0 0 0 44.551567
12.46016 5.6082926 2.1413031 6 0 0 0 42.988354
15.194332 5.5229845 2.1252949 108 0 0 0 44.161221
-24.386116 7.8314576 2.1803017 24 0 0 0 4.6784
-22.824881 7.9505267 2.0588436 63 0 0 0 5.07409
-19.76771 7.9881344 2.3347869 80 0 0 0 5.8495102
-21.31357 8.0134497 2.491962 114 0 0 0 5.4688201
-19.422987 8.4075365 2.3175273 9 0 0 0 6.2464299
-17.822483 8.2361822 2.1515105 6 0 0 0 6.6317701
-16.67284 8.2025881 2.2649188 200.5 0 0 0 7.0227499
-16.134735 8.4323006 2.4418256 4 0 0 0 7.4187899
-15.141211 8.3891821 2.3226364 31 0 0 0 7.80582
-14.107874 8.2718706 2.1954648 172 0 0 0 8.1981802
-13.634236 8.4483557 2.153372 179 0 0 0 8.5862503
-12.301719 8.4796009 2.190973 223.5 0 0 0 9.3737297
-10.65104 8.4104767 2.2694647 387 0 0 0 10.4092
-11.844119 8.598362 2.326489 7 0 0 0 9.7566204
-10.557145 8.9134207 2.1967075 22 0 0 0 10.9313
-9.7090387 8.609169 2.2245502 17.5 0 0 0 11.32376
-9.2399559 8.6042976 2.1643977 294.5 0 0 0 11.7162
-7.7889986 8.6036987 2.2757227 407.5 0 0 0 13.077445
-7.3388205 8.7301636 2.3757772 14 0 0 0 13.66908
-6.545125 8.6034222 2.2527795 395 0 0 0 14.4452
-6.2933092 8.7063284 2.2387395 396 0 0 0 14.84692
-5.9976053 8.7364283 2.466527 15 0 0 0 15.23097
-5.052906 8.6557426 2.2119234 710.5 0 0 0 16.40542
-4.6845245 8.7470884 2.189996 380.25 0 0 0 16.985111
-3.714885 8.8316841 2.3104665 224.66667 0 0 0 18.485682
-3.2896814 8.8133259 2.3640242 463.25 0 0 0 19.132858
-2.827158 8.880518 2.3989239 28 0 0 0 19.91909
-2.1921487 8.6864796 2.1975539 804.25 0 0 0 20.891195
-1.7474509 8.7032566 2.1775753 786.5 0 0 0 21.67202
-1.2853646 8.9445105 2.1610003 82 0 0 0 22.549101
-0.63681334 8.9516869 2.2373071 420.33334 0 0 0 23.689787
-0.33914304 8.8513746 2.2814674 677 0 0 0 24.212652
0.09936215 8.9945869 2.3152542 15 0 0 0 24.989639
0.32075593 9.0010843 2.097321 24 0 0 0 25.39032
-16.13509 11.737279 2.1816957 5 0 0 0 9.7566204
-9.9171543 11.828579 2.2578084 17.5 0 0 0 13.66908
-9.4607906 11.861446 2.2195425 30.5 0 0 0 14.05315
-8.1413097 11.902049 2.287209 29 0 0 0 15.23097
-7.7457161 11.940329 2.2574296 22 0 0 0 15.61904
-7.3500834 11.961394 2.2267332 26 0 0 0 16.0114
-12.692767 12.444016 2.3789172 13 0 0 0 12.10335
-5.8483558 12.012358 2.4483635 30 0 0 0 17.566771
-5.3132591 12.013247 2.4072752 29 0 0 0 18.160185
0.4552722 12.035851 2.4984672 30 0 0 0 25.39032
-12.213488 12.574751 2.3459094 9 0 0 0 12.49379
-0.14257962 12.914997 2.3601427 42 0 0 0 24.6028
-4.8102679 14.050273 2.3490577 17 0 0 0 19.52507
-4.6555748 14.78209 2.258167 41 0 0 0 19.91909
12.618831 -30.406796 2.7213249 43 0 0 0 68.395004
-2.3383496 -8.1692543 2.6789148 5534.3335 0 0 0 79.09127
-7.8977857 -7.5228238 2.7978311 13 0 0 0 87.572754
-7.4965215 -7.1401706 2.9139843 25 0 0 0 87.572754
-6.7527046 -7.0941334 2.7585964 8 0 0 0 86.785187
-12.123526 -6.8726416 2.8822279 132 0 0 0 91.481232
-6.9755721 -6.9775724 2.7786069 26 0 0 0 87.178078
-12.201756 -6.2718787 2.724088 124.33334 0 0 0 92.122383
-3.705318 -6.0085382 2.6034255 57.5 0 0 0 83.451309
-12.061517 -5.7092094 2.7609251 117 0 0 0 92.64035
-3.8008339 -5.8403845 2.6560028 180.5 0 0 0 83.843674
-13.116621 -5.4379826 2.935451 91 0 0 0 93.426476
-12.045474 -5.3438616 2.7267084 179 0 0 0 93.030304
-9.1718731 -5.2008018 2.9663353 58 0 0 0 91.481232
-8.5208588 -5.1116295 2.5508394 179 0 0 0 91.092163
-5.6079822 -5.212656 2.6346207 179 0 0 0 87.762466
-5.4266691 -5.4279823 2.6401505 170.5 0 0 0 87.178078
-4.1145687 -5.4063225 2.5899937 118 0 0 0 85.014267
5.9961824 -5.169817 2.8290699 106 0 0 0 60.958527
8.0564394 -5.0900369 2.9262702 218 0 0 0 58.61536
-10.567644 -4.6902537 2.9625351 66 0 0 0 93.030304
-9.4851303 -4.7796388 2.9877923 123 0 0 0 92.250015
-5.6257291 -4.8566203 2.6480324 248 0 0 0 88.344315
-5.4513788 -4.9442382 2.6225345 232 0 0 0 87.952171
-4.675714 -4.9123187 2.5848734 77 0 0 0 86.785187
5.9305434 -4.6264634 2.6890697 105.66666 0 0 0 60.180241
6.3263645 -4.6867948 2.8139203 86 0 0 0 59.792561
8.0598574 -4.8208718 2.6529803 97 0 0 0 58.215527
8.5125742 -4.5351272 2.9612021 46 0 0 0 57.444839
5.858037 -4.1220708 2.7401147 36 0 0 0 59.399273
6.3261189 -4.2207584 2.9065275 72 0 0 0 59.0061
7.1779013 -4.2936144 2.5737381 116 0 0 0 58.215527
8.2793169 -4.2864447 2.6341028 61.5 0 0 0 57.243713
6.0549297 -3.6232209 2.5268576 51 0 0 0 58.215527
7.3853493 -3.707624 2.7485259 66 0 0 0 57.042591
-9.8839016 -3.0034482 2.9064233 143 0 0 0 95.001831
6.1970263 -3.4036365 2.7059288 68 0 0 0 57.636314
6.7538404 -3.2844608 2.5924239 159 0 0 0 56.848747
7.4674706 -3.0774405 2.8858914 31 0 0 0 55.87368
7.6368241 -3.1488113 2.5423131 94 0 0 0 55.87368
10.763349 -3.2385406 2.8849685 62 0 0 0 54.318119
11.227086 -3.3778925 2.7187576 35 0 0 0 54.318119
-9.9032526 -2.7457383 2.8915582 37 0 0 0 95.376816
7.7692676 -2.7646556 2.7425697 148 0 0 0 55.096359
8.7676983 -2.6386566 2.6975915 214 0 0 0 54.318119
9.008256 -2.9540534 2.9105465 49 0 0 0 54.70649
7.6398497 -2.4025385 2.7634733 204 0 0 0 54.512306
8.0854979 -2.2152669 2.9932814 43 0 0 0 53.922249
9.4854383 -2.1026602 2.9810016 278 0 0 0 53.143433
50.313828 -1.0942832 2.8267763 17 0 0 0 50.020561
35.372761 -0.76168609 2.8810084 35 0 0 0 50.020561
35.088505 0.10817924 2.8565505 38 0 0 0 49.62252
34.859795 0.96571064 2.8383074 43 0 0 0 49.233639
34.406227 1.8014255 2.8037271 57 0 0 0 48.850327
15.884449 2.8252769 2.7233291 354 0 0 0 46.89719
17.127571 2.6115978 2.7068105 55 0 0 0 47.280514
34.327492 2.6457829 2.8009133 29 0 0 0 48.4632
15.866537 3.2274842 2.732568 352 0 0 0 46.494751
15.853832 3.6339693 2.74438 292.5 0 0 0 46.10598
15.825553 4.2496748 2.7642543 309.75 0 0 0 45.528069
15.810965 4.8785086 2.7901275 284.5 0 0 0 44.938328
4.2717276 5.0765743 2.5360055 570 0 0 0 35.941479
4.7472978 5.0982203 2.6027176 546.66669 0 0 0 36.722591
5.1878648 5.1294503 2.724453 448.66666 0 0 0 37.383415
5.7055106 5.1464915 2.7417793 454.5 0 0 0 38.097225
6.1785736 5.1695318 2.7731707 377.5 0 0 0 38.683632
6.6607618 5.1867514 2.7573161 428.20001 0 0 0 39.233299
7.2751021 5.2152405 2.744704 400 0 0 0 39.855671
7.6914182 5.2294731 2.7352457 382 0 0 0 40.250641
8.136817 5.2413158 2.8443661 348.5 0 0 0 40.63802
8.7409039 5.3263769 2.7522275 11 0 0 0 41.024239
9.2298985 5.3146787 2.8617859 36 0 0 0 41.42564
9.9190931 5.3878961 2.6117702 7 0 0 0 41.809673
10.411642 5.325521 2.8483219 114.5 0 0 0 42.198421
11.241051 5.4006791 2.7279515 10.5 0 0 0 42.59758
12.92522 5.4372702 2.7172871 136.5 0 0 0 43.382511
13.979138 5.4769325 2.7212784 124 0 0 0 43.773727
15.790643 5.3019166 2.6016736 278 0 0 0 44.551567
15.209303 5.528306 2.729553 108.5 0 0 0 44.161221
-28.516422 7.6421061 2.5092471 76 0 0 0 3.9075301
-24.374388 7.8280182 2.7989695 11 0 0 0 4.6784
-22.820143 7.9492321 2.6432507 76 0 0 0 5.07409
-19.729961 7.9692283 2.8513839 109 0 0 0 5.8495102
-19.287922 8.3452892 2.8161547 8 0 0 0 6.2464299
-17.885376 8.2620344 2.6412323 89 0 0 0 6.6317701
-16.67959 8.2047901 2.9510176 167 0 0 0 7.0227499
-15.172781 8.4072399 2.7546892 39 0 0 0 7.80582
-14.127427 8.2838774 2.6017537 157 0 0 0 8.1981802
-13.631212 8.4472198 2.7453516 176 0 0 0 8.5862503
-12.294163 8.4751463 2.7411046 204 0 0 0 9.3737297
-10.790054 8.3793945 2.7316113 315 0 0 0 10.27621
-13.097356 8.5661182 2.8720698 8 0 0 0 8.9742699
-11.838885 8.5950785 2.6857498 28 0 0 0 9.7566204
-10.358846 8.7456045 2.6532691 20 0 0 0 10.9313
-9.7643633 8.6595297 2.716702 19 0 0 0 11.32376
-9.2375088 8.6017132 2.7815411 277 0 0 0 11.7162
-8.8426323 8.6461306 2.7255983 353.5 0 0 0 12.10335
-8.4182796 8.6423225 2.659523 246 0 0 0 12.49379
-7.7364469 8.6140165 2.7875907 362.66666 0 0 0 13.143134
-7.3192515 8.7045994 2.7847357 563 0 0 0 13.66908
-6.7635441 8.6644669 2.692379 426.75 0 0 0 14.249175
-6.3009291 8.7149553 2.634151 300 0 0 0 14.84692
-5.7335191 8.8068628 2.8332191 15.5 0 0 0 15.61904
-5.2507181 8.7450008 2.7504864 276 0 0 0 16.20841
-4.6812387 8.7408371 2.674037 614.5 0 0 0 16.985111
-4.1626129 8.8326588 2.7050204 518.79999 0 0 0 17.805536
-3.8055866 8.8495941 2.8351979 781 0 0 0 18.355659
-3.2900505 8.8148623 2.7702549 641.83331 0 0 0 19.133707
-2.7127481 8.8954973 2.7381008 801 0 0 0 20.112125
-2.1901026 8.6807547 2.7470951 653.5 0 0 0 20.891195
-1.7463845 8.7012262 2.7233839 657.66669 0 0 0 21.67202
-1.2743084 8.950346 2.6406474 338 0 0 0 22.567995
-0.61851537 8.9646368 2.7016876 464.75 0 0 0 23.721985
-0.26627019 8.8953371 2.7298031 562 0 0 0 24.342703
0.099864192 8.9952068 2.5384955 483 0 0 0 24.989639
-6.4466014 9.4000893 2.9297392 8 0 0 0 15.23097
-1.0122862 9.0034494 2.7789969 34 0 0 0 23.035391
-0.78878611 9.0028944 2.7720649 41 0 0 0 23.432199
-0.12187573 9.0542507 2.8891144 35.5 0 0 0 24.6028
0.25022653 9.0948372 2.7168236 167 0 0 0 25.25676
0.5477798 9.0651855 2.6744032 262.5 0 0 0 25.775061
-6.721889 10.62933 2.9227281 14 0 0 0 15.81522
-3.1555412 10.881437 2.9101431 26 0 0 0 20.305161
-8.826992 11.062401 2.9420302 8 0 0 0 14.05315
-5.5063863 11.298118 2.9195731 16 0 0 0 17.566771
-5.2191896 11.411311 2.9146185 13 0 0 0 17.96471
-1.509276 11.121213 2.881753 34 0 0 0 22.64357
-1.2337422 11.138755 2.8773897 44 0 0 0 23.035391
-0.13363357 11.193389 2.8732297 34 0 0 0 24.6028
0.4188582 11.224709 2.8824613 28 0 0 0 25.39032
0.6943081 11.201621 2.8798289 28 0 0 0 25.775061
-16.103722 11.7108 2.6650598 8 0 0 0 9.7566204
-9.9248199 11.839246 2.8310623 17 0 0 0 13.66908
-9.4700871 11.874698 2.7833726 13 0 0 0 14.05315
-8.1334887 11.891609 2.6403909 21 0 0 0 15.23097
-7.779449 11.78159 2.8178492 14.333333 0 0 0 15.489682
-7.3460617 11.956578 2.7436028 24 0 0 0 16.0114
-5.0757952 11.868144 2.6822019 24 0 0 0 18.355659
-4.0487142 11.791016 2.7430601 22.5 0 0 0 19.52507
-3.7491975 11.858479 2.736608 37 0 0 0 19.91909
-3.4216361 11.825201 2.5576563 31 0 0 0 20.305161
-12.687595 12.439822 2.8160858 16 0 0 0 12.10335
-5.8434634 12.003631 2.773895 30 0 0 0 17.566771
-5.4864974 12.008695 2.7431467 31 0 0 0 17.96471
-3.4775279 12.017159 2.9040675 33 0 0 0 20.305161
-1.0614129 12.44408 2.896579 23 0 0 0 23.432199
-0.13922387 12.262924 2.6958327 21 0 0 0 24.6028
0.16494399 12.428725 2.8815403 18 0 0 0 24.989639
0.76429439 12.23207 2.8410106 40 0 0 0 25.775061
-9.9378796 -9.0136547 3.4342499 60 0 0 0 87.952171
-3.9552462 -8.9232397 3.4706845 44 0 0 0 81.301773
-2.2857602 -8.2462664 3.0473442 5528 0 0 0 78.963356
-22.414141 -7.412817 3.1095634 15 0 0 0 94.599983
-8.2105284 -7.0889015 3.3179464 67 0 0 0 88.344315
-10.893901 -6.9051518 3.3018606 171 0 0 0 90.702354
-8.9663744 -6.6571908 3.4147086 12 0 0 0 89.525444
-7.9266624 -6.5088339 3.3921642 47 0 0 0 88.734428
-11.320309 -6.2363667 3.1491189 121 0 0 0 91.674179
6.5915632 -6.2701502 3.467613 25 0 0 0 61.74538
-11.212636 -5.9999337 3.2556694 89 0 0 0 91.867126
-9.626545 -5.7753472 3.1563649 46 0 0 0 91.092163
-8.4641905 -5.6620383 3.1162887 16 0 0 0 90.302094
-15.210374 -5.0302315 3.3074274 145 0 0 0 94.599983
-12.161937 -5.3980742 3.0783317 126 0 0 0 93.030304
-8.3231716 -5.2758131 3.1379509 79.5 0 0 0 90.702354
6.112606 -5.4018164 3.1141148 70 0 0 0 61.15538
6.8250957 -5.054162 3.2404311 123 0 0 0 59.792561
7.8247852 -5.3590159 3.147845 155 0 0 0 59.202686
8.1666775 -5.161181 3.2055104 41 0 0 0 58.61536
9.3146915 -5.2601347 3.4096918 62 0 0 0 57.827793
32.012787 -5.4681988 3.4433727 2439 0 0 0 52.356487
-15.90274 -4.8295369 3.0211513 91 0 0 0 95.001831
-15.485493 -4.7028127 3.340678 98 0 0 0 95.001831
-12.319729 -4.7591658 3.0554631 60 0 0 0 93.824478
-11.87992 -4.9275699 3.2918949 90 0 0 0 93.426476
-9.6626463 -4.5774813 3.2700541 69 0 0 0 92.64035
-8.411788 -4.7695613 3.1993914 229 0 0 0 91.481232
31.876484 -4.6407833 3.4147382 1321 0 0 0 51.972473
-12.763319 -4.2233562 3.4393277 107 0 0 0 94.599983
-12.43619 -4.4566088 3.0561974 136 0 0 0 94.210251
-11.38121 -4.3965397 3.1244085 79 0 0 0 93.824478
7.5947981 -4.2894278 3.1129239 40 0 0 0 57.827793
8.1632566 -4.0924854 3.4812624 84 0 0 0 57.042591
-16.41276 -3.6907053 3.4708865 12 0 0 0 96.151039
-11.692337 -3.5530274 3.1291223 55 0 0 0 95.001831
7.4692912 -3.9794264 3.0218256 107 0 0 0 57.444839
7.6193333 -3.58887 3.0075052 67 0 0 0 56.6549
-12.001535 -3.0123429 3.4750669 30 0 0 0 95.761871
7.3813953 -3.2571964 3.0812225 55 0 0 0 56.267166
8.2255898 -3.2748618 3.15415 87.5 0 0 0 55.682022
8.7806454 -3.3655806 3.3521824 21 0 0 0 55.49036
-10.64291 -2.9528131 3.376673 87 0 0 0 95.376816
7.8618164 -2.686794 3.0680714 73 0 0 0 54.901424
8.328867 -2.5041111 3.317378 31 0 0 0 54.318119
9.4244452 -2.5845397 3.2409534 11 0 0 0 53.922249
9.5289488 -2.611485 3.0310781 84 0 0 0 53.922249
7.7519364 -2.1240633 3.0694208 189 0 0 0 53.922249
9.316843 -2.0669465 3.1657817 65 0 0 0 53.143433
9.7395821 -2.4140553 3.3263655 44 0 0 0 53.540009
9.9155159 -1.6911181 3.3337817 62 0 0 0 52.356487
10.381635 -1.2471625 3.4632401 8 0 0 0 51.578201
10.87452 -1.168142 3.3490672 11.5 0 0 0 51.381248
10.902532 -0.76484567 3.3461237 43 0 0 0 50.797581
15.891867 2.8266985 3.3227053 329 0 0 0 46.89719
17.187519 2.6207883 3.1472952 46 0 0 0 47.280514
22.768684 2.8957062 3.0034051 20 0 0 0 47.67123
15.870206 3.2283142 3.3333008 315 0 0 0 46.494751
15.836484 3.6300731 3.3434873 294 0 0 0 46.10598
15.832254 4.251442 3.3728447 301.5 0 0 0 45.528069
15.807253 4.8773379 3.402437 251 0 0 0 44.938328
6.1819839 5.1738276 3.0722444 360 0 0 0 38.683632
6.7645264 5.1979961 3.1781957 349.33334 0 0 0 39.338474
7.267992 5.2128744 3.2939143 259 0 0 0 39.855671
7.6907916 5.2296395 3.1946125 274.5 0 0 0 40.250641
8.1380348 5.2427316 3.3234272 232.5 0 0 0 40.63802
8.7028332 5.302918 3.3710897 45 0 0 0 41.024239
9.2683477 5.338573 3.2705085 39 0 0 0 41.42564
9.7634649 5.305686 3.3960013 135 0 0 0 41.809673
10.443579 5.3415475 3.293294 94 0 0 0 42.198421
11.192411 5.3784046 3.3289304 4.5 0 0 0 42.59758
12.057247 5.4300017 3.3776181 85 0 0 0 42.988354
12.986682 5.4655194 3.2493808 128 0 0 0 43.382511
13.989853 5.4810295 3.093756 152 0 0 0 43.773727
15.798536 5.304491 3.2215905 236 0 0 0 44.551567
14.042076 5.5041409 3.4752171 120 0 0 0 43.773727
15.227317 5.5347285 3.3327539 112 0 0 0 44.161221
54.466782 5.5336061 3.0642107 9 0 0 0 48.064758
-28.517887 7.6427937 3.2244179 99 0 0 0 3.9075301
-24.323675 7.8073602 3.4191782 16 0 0 0 4.6784
-22.78319 7.9322391 3.2300222 73 0 0 0 5.07409
-19.751472 7.9783459 3.3795815 89 0 0 0 5.8495102
-27.175144 8.0008392 3.094604 6 0 0 0 4.29182
-21.305813 8.0066786 3.0485215 101 0 0 0 5.4688201
-19.004717 8.2226954 3.2855706 8 0 0 0 6.2464299
-16.669966 8.2004766 3.4072185 139 0 0 0 7.0227499
-16.155695 8.4442415 3.3433545 10 0 0 0 7.4187899
-15.166095 8.4039927 3.1807323 43 0 0 0 7.80582
-14.126867 8.2842655 3.2056196 153 0 0 0 8.1981802
-13.634633 8.4500999 3.3363645 137 0 0 0 8.5862503
-12.296059 8.475666 3.2887692 195 0 0 0 9.3737297
-10.642089 8.4020691 3.2621844 287 0 0 0 10.4092
-13.088023 8.5604935 3.2529962 14 0 0 0 8.9742699
-11.875591 8.6211414 3.23194 11.5 0 0 0 9.7566204
-10.169769 8.5828609 3.2564669 40 0 0 0 10.9313
-9.7541618 8.6482639 3.1901126 24.5 0 0 0 11.32376
-9.2355604 8.5992908 3.2426729 231 0 0 0 11.7162
-8.8279705 8.6314125 3.3251925 297.5 0 0 0 12.10335
-8.4348297 8.6592569 3.2561731 395.5 0 0 0 12.49379
-7.8448749 8.5939798 3.1826274 315 0 0 0 13.011757
-7.3039923 8.6861305 3.3365555 351 0 0 0 13.66908
-6.7696457 8.6729479 3.2356181 413 0 0 0 14.249174
-6.1678543 8.7535267 3.1496992 151.75 0 0 0 15.038946
-5.8099313 8.767107 3.3947887 182 0 0 0 15.489682
-5.2508173 8.7451267 3.2512414 305 0 0 0 16.20841
-4.6652474 8.7089949 3.2700748 446.33334 0 0 0 16.985109
-4.187345 8.7728348 3.2661393 499.79999 0 0 0 17.725946
-3.701128 8.8010626 3.2408111 480.66666 0 0 0 18.485682
-3.2489471 8.8360624 3.2570503 494.39999 0 0 0 19.2113
-2.7344167 8.7999296 3.3097148 435.71429 0 0 0 20.028259
-2.1914835 8.6805315 3.2954741 498.75 0 0 0 20.891195
-1.7468504 8.6963491 3.2653174 489.25 0 0 0 21.67202
-1.3187282 8.9424267 3.3053348 241.8 0 0 0 22.491024
-0.63796872 8.9595852 3.3435352 351 0 0 0 23.689787
-0.26761094 8.8999863 3.3150723 391 0 0 0 24.342699
-1.1248279 9.0114479 3.120846 30 0 0 0 22.839481
-0.78972065 9.0239363 3.1128135 27 0 0 0 23.432199
-0.12356646 9.0650654 3.2264056 29 0 0 0 24.6028
0.21255891 9.0718441 3.2286863 123.16666 0 0 0 25.18998
0.54829317 9.0740061 3.2345002 132.66667 0 0 0 25.775061
-4.0803542 -8.6276007 3.6276619 38 0 0 0 81.694176
-8.8504066 -6.911665 3.7110393 64 0 0 0 89.123192
-12.272995 -6.3736944 3.7082644 91.5 0 0 0 92.058571
-12.648461 -5.9898047 3.5794837 79 0 0 0 92.64035
-11.929085 -5.6490312 3.7052829 142 0 0 0 92.64035
8.2084932 -5.7669711 3.5733645 107 0 0 0 59.399273
8.5132904 -5.6726823 3.6431444 21 0 0 0 59.0061
-15.650963 -5.1789722 3.8057218 132 0 0 0 94.599983
-12.245546 -5.2556634 3.7407017 85.5 0 0 0 93.228394
8.5652008 -5.4076147 3.6077304 18 0 0 0 58.61536
-16.138657 -4.9042521 3.8929839 58 0 0 0 95.001831
-12.637678 -4.8820009 3.802125 54 0 0 0 93.824478
-12.194189 -4.0361757 3.7627106 115.5 0 0 0 94.599983
-11.934469 -4.2767777 3.5598426 125 0 0 0 94.210251
-9.7192459 -4.1747155 3.7561271 85 0 0 0 93.228394
9.3720064 -4.1319647 3.6473296 77 0 0 0 56.267166
-16.0744 -3.6175675 3.8031943 175 0 0 0 96.151039
-12.298144 -3.7394648 3.9247029 108 0 0 0 95.001831
8.979579 -3.6977603 3.6990087 41 0 0 0 55.87368
37.501923 -3.5865793 3.9842427 16 0 0 0 51.184299
-16.294714 -3.2490313 3.8349111 37 0 0 0 96.549011
10.567163 -3.4611111 3.9549398 28 0 0 0 54.70649
-10.302086 -2.5857961 3.5109596 62 0 0 0 95.761871
-10.484846 -2.3635418 3.8156161 18 0 0 0 96.151039
-9.7051458 -2.187793 3.777673 36 0 0 0 96.151039
11.362347 -2.2251759 3.5432072 80 0 0 0 52.74699
47.888721 -2.2120245 3.8904977 17 0 0 0 50.40868
-9.9189167 -1.9814728 3.8402984 11 0 0 0 96.549011
9.8554115 -1.8015368 3.6915214 60.5 0 0 0 52.551739
10.900251 -1.5831078 3.6458147 6 0 0 0 51.972473
9.8916006 -1.4330071 3.8041537 8 0 0 0 51.972473
10.084287 -1.2915689 3.7024307 38.666668 0 0 0 51.709625
10.298327 -0.72020417 3.927 18 0 0 0 50.797581
10.600615 -0.7453655 3.5184865 21 0 0 0 50.797581
37.654034 0.1161078 3.9779108 17 0 0 0 49.62252
34.997009 0.96981013 3.7005968 34 0 0 0 49.233639
15.881471 2.8277953 3.7162619 294 0 0 0 46.89719
17.284105 2.6355391 3.59569 39 0 0 0 47.280514
33.675014 2.5959179 3.569726 26 0 0 0 48.4632
15.874822 3.2321961 3.7316642 293 0 0 0 46.494751
15.861672 3.6387792 3.747942 236 0 0 0 46.10598
15.829058 4.253686 3.7742968 241 0 0 0 45.528069
15.793992 4.8762665 3.8051243 225 0 0 0 44.938328
7.7124591 5.2459254 3.5477061 278 0 0 0 40.250641
8.127984 5.2380438 3.6761723 235 0 0 0 40.63802
9.2601814 5.3336616 3.6641822 39 0 0 0 41.42564
10.424209 5.3326454 3.7213013 65.5 0 0 0 42.198421
12.944299 5.447629 3.7592652 126 0 0 0 43.382511
15.795863 5.3066044 3.8352473 236 0 0 0 44.551567
14.033558 5.5007377 3.8439417 99 0 0 0 43.773727
15.289128 5.5600553 3.7452226 104 0 0 0 44.161221
-28.526173 7.639997 3.9493878 30 0 0 0 3.9075301
-26.103842 7.6800165 3.6406119 44 0 0 0 4.29182
-22.625008 7.8773575 3.7986097 73 0 0 0 5.07409
-21.205278 7.9691491 3.5928183 68 0 0 0 5.4688201
-19.761356 7.9827509 3.9068563 93 0 0 0 5.8495102
-18.53578 8.0194063 3.7029753 101 0 0 0 6.2464299
-17.671701 8.1637659 3.5695341 80 0 0 0 6.6317701
-16.473206 8.1036701 3.8170233 117 0 0 0 7.0227499
-15.568327 8.1362057 3.6527703 151 0 0 0 7.4187899
-14.864777 8.2351723 3.7401366 129.5 0 0 0 7.80582
-14.023804 8.2209215 3.7771523 160 0 0 0 8.1981802
-13.302979 8.2406454 3.6364419 164 0 0 0 8.5862503
-12.686922 8.2941475 3.7073038 151 0 0 0 8.9742699
-12.035542 8.2941446 3.7544475 240 0 0 0 9.3737297
-11.463696 8.3196373 3.8137758 219 0 0 0 9.7566204
-10.916429 8.3360729 3.6984172 233 0 0 0 10.14322
-10.393541 8.345747 3.7541747 234 0 0 0 10.54219
-9.9284973 8.3772821 3.8178115 260 0 0 0 10.9313
-9.3259783 8.4000406 3.7397926 289.33334 0 0 0 11.454574
-8.6188946 8.4248829 3.8387184 314.5 0 0 0 12.10335
-8.2233715 8.4398861 3.7533131 294.5 0 0 0 12.49379
-7.8536892 8.4638424 3.6777947 315 0 0 0 12.88038
-7.2573972 8.4864941 3.7853034 312.33334 0 0 0 13.537557
-6.7993021 8.4985943 3.6017542 339 0 0 0 14.05315
-9.1540413 8.5233345 3.523294 201 0 0 0 11.7162
-7.5913382 8.5914021 3.51103 222 0 0 0 13.27451
-6.8142772 8.512145 3.8743062 288 0 0 0 14.05315
-6.2992115 8.5315599 3.7162471 324.60001 0 0 0 14.686232
-5.7216177 8.5499754 3.7823081 342.25 0 0 0 15.425005
-5.147234 8.5691261 3.6757479 403.25 0 0 0 16.20841
-4.7348261 8.581584 3.7237325 401 0 0 0 16.79253
-4.3430777 8.6012478 3.6615684 397 0 0 0 17.372231
-3.8360176 8.6201973 3.5860648 409 0 0 0 18.160185
-3.349443 8.6421032 3.5233111 412.5 0 0 0 18.938025
-77.231705 -9.5160112 4.4238462 28 0 0 0 97.71524
-8.8488197 -9.2995834 4.2387161 16 0 0 0 86.785187
-10.710455 -7.5498505 4.3253551 19 0 0 0 89.913925
-11.646344 -6.9905477 4.1463976 81 0 0 0 91.092163
-11.467076 -6.5056186 4.0253034 88 0 0 0 91.481232
-10.189423 -6.8144078 4.0479655 19 0 0 0 90.302094
-12.130839 -6.114727 4.3150291 75 0 0 0 92.250015
-11.650902 -6.2358384 4.197814 88 0 0 0 91.867126
-12.15784 -5.7573781 4.4388256 61 0 0 0 92.64035
-12.183307 -5.1730962 4.1485572 127.33334 0 0 0 93.294411
-11.917397 -5.2894807 4.3031917 62 0 0 0 93.030304
31.973801 -5.4553261 4.2375665 122 0 0 0 52.356487
-22.848553 -4.5515385 4.2208819 7 0 0 0 96.549011
-16.287474 -4.5158486 4.315546 95 0 0 0 95.376816
-12.631043 -4.6448002 4.2184129 88 0 0 0 94.081665
-12.309159 -4.7550583 4.354558 112 0 0 0 93.824478
10.396592 -4.8912148 4.3681703 34 0 0 0 56.6549
31.880148 -4.6351833 4.2080622 74 0 0 0 51.972473
38.112579 -4.5937996 4.0602841 11 0 0 0 51.578201
-16.171539 -3.2244747 4.2108369 42 0 0 0 96.549011
11.101437 -2.7463708 4.0655317 4 0 0 0 53.540009
37.98629 -2.6916718 4.0258636 12 0 0 0 50.797581
37.882812 -1.7489076 4.0081859 5 0 0 0 50.40868
34.20842 1.7976867 4.4640436 31 0 0 0 48.850327
15.892415 2.8298063 4.1158948 264 0 0 0 46.89719
17.315189 2.6434932 4.2462144 36.5 0 0 0 47.280514
15.871091 3.231498 4.1292338 240 0 0 0 46.494751
15.845288 3.6350789 4.1440277 237 0 0 0 46.10598
15.830023 4.2538891 4.1777568 245.5 0 0 0 45.528069
15.800709 4.8783102 4.2134776 260 0 0 0 44.938328
9.2804642 5.3471742 4.0669432 34 0 0 0 41.42564
9.8409672 5.3492947 4.2509432 93 0 0 0 41.809673
10.447687 5.3477621 4.3074045 58.5 0 0 0 42.198421
11.161418 5.3656416 4.2397966 5 0 0 0 42.59758
12.938322 5.4476433 4.2784886 103 0 0 0 43.382511
14.029216 5.4989614 4.2178164 117 0 0 0 43.773727
15.795401 5.3064075 4.2449827 184 0 0 0 44.551567
15.279801 5.5566149 4.1428843 100 0 0 0 44.161221
-26.194239 7.7070041 4.3268576 37 0 0 0 4.29182
-24.304239 7.8014469 4.0461431 48 0 0 0 4.6784
-22.570055 7.8585253 4.3790765 48 0 0 0 5.07409
-21.061903 7.9154592 4.1236682 81 0 0 0 5.4688201
-19.759563 7.9824181 4.4289742 84 0 0 0 5.8495102
-18.538715 8.0210905 4.1986728 97 0 0 0 6.2464299
-17.493683 8.0799599 4.2408247 91.5 0 0 0 6.6317701
-16.479868 8.1038408 4.265923 118 0 0 0 7.0227499
-15.586275 8.1426287 4.0852399 105 0 0 0 7.4187899
-14.733727 8.1611948 4.3250265 168 0 0 0 7.80582
-14.024404 8.2217474 4.174727 169 0 0 0 8.1981802
-13.293531 8.235487 4.2094688 160.5 0 0 0 8.5862503
-12.630236 8.2576056 4.2488961 180 0 0 0 8.9742699
-12.026861 8.2873478 4.2916975 207.5 0 0 0 9.3737297
-11.460306 8.3149033 4.3337579 193 0 0 0 9.7566204
-10.910332 8.3291845 4.2015529 219 0 0 0 10.14322
-10.406979 8.3559551 4.2496972 188 0 0 0 10.54219
-9.9205122 8.3728151 4.2936311 243 0 0 0 10.9313
-9.243784 8.3939867 4.2827802 228.25 0 0 0 11.51998
-8.6209526 8.4234238 4.2812486 250 0 0 0 12.10335
-8.2296009 8.443182 4.3320298 225 0 0 0 12.49379
-7.8478651 8.454361 4.2385941 250 0 0 0 12.88038
-7.3735466 8.4787903 4.1744561 258.66666 0 0 0 13.406034
-6.7985873 8.493022 4.1307759 268 0 0 0 14.05315
-6.4745874 8.5054493 4.0590949 291 0 0 0 14.4452
-80.560738 -13.970922 4.6479549 19 0 0 0 96.939232
-80.895958 -11.990886 4.6481404 24 0 0 0 97.325432
-11.520708 -8.5520935 4.7332864 26 0 0 0 89.525444
-11.962063 -7.1773019 4.6023879 46 0 0 0 91.092163
-12.302353 -5.8310781 4.8255143 148 0 0 0 92.64035
-12.133589 -4.6920757 4.7703013 75.5 0 0 0 93.824478
-12.56946 -4.1640468 4.6937962 144 0 0 0 94.599983
-12.310564 -4.2474499 4.7758503 106.5 0 0 0 94.405121
37.140839 -4.4696221 4.8784876 6 0 0 0 51.578201
36.940151 -3.5258701 4.8384771 12 0 0 0 51.184299
37.97607 -2.6838222 4.9617834 19 0 0 0 50.797581
34.822987 0.11417466 4.5391574 28 0 0 0 49.62252
35.02264 0.97696453 4.5657196 40 0 0 0 49.233639
15.882248 2.8295469 4.7136354 211.5 0 0 0 46.89719
17.299084 2.6411874 4.8938627 27 0 0 0 47.280514
23.206322 2.9515853 4.7962236 21 0 0 0 47.67123
15.866547 3.2321095 4.7307386 225.5 0 0 0 46.494751
15.859931 3.6399422 4.7531929 181 0 0 0 46.10598
15.826903 4.1842303 4.7141004 216.66667 0 0 0 45.593582
15.830951 4.8875856 4.6337767 170 0 0 0 44.938328
11.146496 5.3607082 4.6892557 4 0 0 0 42.59758
12.985241 5.4671478 4.8159618 102 0 0 0 43.382511
15.788127 5.3039308 4.6575289 198 0 0 0 44.551567
14.070134 5.5162201 4.7897434 80.5 0 0 0 43.773727
15.290201 5.5617943 4.7510366 74.5 0 0 0 44.161221
-28.449039 7.6195908 4.6656752 46 0 0 0 3.9075301
-26.094166 7.6778035 4.981823 15 0 0 0 4.29182
-24.295177 7.7988739 4.6743398 52 0 0 0 4.6784
-22.592115 7.8665915 4.9701033 21 0 0 0 5.07409
-21.021992 7.900785 4.6665874 76 0 0 0 5.4688201
-19.737064 7.9696956 4.9428482 57 0 0 0 5.8495102
-18.559208 8.0265703 4.6961126 90 0 0 0 6.2464299
-17.412956 8.0413055 4.9241047 46 0 0 0 6.6317701
-16.48896 8.1087666 4.7176895 119 0 0 0 7.0227499
-15.575262 8.1375198 4.7290382 92.5 0 0 0 7.4187899
-14.765496 8.1793509 4.7519755 123 0 0 0 7.80582
-14.021533 8.2205334 4.5759683 105 0 0 0 8.1981802
-13.925572 8.1611738 4.9395747 75 0 0 0 8.1981802
-13.318754 8.2487316 4.7944446 170 0 0 0 8.5862503
-12.612738 8.2452679 4.7967186 135 0 0 0 8.9742699
-12.013596 8.2804556 4.8250899 121 0 0 0 9.3737297
-11.420311 8.2864723 4.8379593 130.5 0 0 0 9.7566204
-10.915499 8.3339615 4.7095699 175 0 0 0 10.14322
-10.396877 8.3441439 4.7343731 202 0 0 0 10.54219
-9.9051437 8.3546772 4.7598848 165 0 0 0 10.9313
-9.2591209 8.4061203 4.747015 130.5 0 0 0 11.519979
-8.6238728 8.4269142 4.5768466 201 0 0 0 12.10335
-91.237625 -18.140867 5.2840929 29 0 0 0 96.549011
-12.491816 -5.5497031 5.17943 65 0 0 0 93.030304
-15.531295 -5.139348 5.3911338 74 0 0 0 94.599983
-12.701764 -5.2736931 5.2109904 32 0 0 0 93.426476
38.624817 -1.7760098 5.0375185 10 0 0 0 50.40868
47.491688 -1.0233836 5.008769 8 0 0 0 50.020561
34.760876 0.11433057 5.3921757 32 0 0 0 49.62252
34.355186 0.95878398 5.3308463 40 0 0 0 49.233639
35.419655 1.8613842 5.4991379 21 0 0 0 48.850327
15.889557 2.8295186 5.3145647 173 0 0 0 46.89719
17.282738 2.6418889 5.3201303 27 0 0 0 47.280514
23.256405 2.9622047 5.3811541 17 0 0 0 47.67123
15.876554 3.2327802 5.3346848 187 0 0 0 46.494751
15.865364 3.639787 5.3588252 145 0 0 0 46.10598
15.829403 4.3242893 5.2658548 159.66667 0 0 0 45.462559
15.807901 4.8819818 5.2398796 174 0 0 0 44.938328
12.067925 5.4392996 5.0152049 21 0 0 0 42.988354
13.012446 5.4810772 5.3464622 64 0 0 0 43.382511
15.797892 5.3086681 5.2776341 160 0 0 0 44.551567
14.056856 5.5151668 5.3437891 71 0 0 0 43.773727
15.324367 5.5725546 5.366426 50 0 0 0 44.161221
-28.616287 7.6647902 5.4244609 44 0 0 0 3.9075301
-24.898495 7.9934554 5.4315748 13 0 0 0 4.6784
-19.742886 7.9724469 5.465384 70 0 0 0 5.8495102
-21.768639 8.1784506 5.3989029 20 0 0 0 5.4688201
-19.032528 8.2325296 5.3230109 16 0 0 0 6.2464299
-16.799608 8.2626963 5.2698197 85 0 0 0 7.0227499
-15.144176 8.3872652 5.2973933 25 0 0 0 7.80582
-13.670161 8.4714537 5.3177547 61 0 0 0 8.5862503
-12.918461 8.4423437 5.4798861 26 0 0 0 8.9742699
