# .PCD v0.7 - Point Cloud Data file format
VERSION 0.7
FIELDS x y z intensity normal_x normal_y normal_z curvature
SIZE 4 4 4 4 4 4 4 4
TYPE F F F F F F F F
COUNT 1 1 1 1 1 1 1 1
WIDTH 928
HEIGHT 1
VIEWPOINT 0 0 0 1 0 0 0
POINTS 928
DATA ascii
-2.2449558 -4.3389182 0.23316383 96.666664 0 0 0 82.164696
-1.2792835 -4.1515417 0.38486627 52.5 0 0 0 79.291763
-0.62975919 -4.1101232 0.4111523 93.599998 0 0 0 76.94973
29.624714 -4.3879118 0.19388779 71 0 0 0 51.925873
-6.8882265 -3.8986292 0.19194975 192.5 0 0 0 91.427902
-6.1872454 -3.8086882 0.26574245 307.5 0 0 0 90.838936
-5.8312421 -3.821048 0.3149282 300.66666 0 0 0 90.384865
-5.1320086 -3.7992496 0.23981515 205 0 0 0 89.46817
-4.8201175 -3.7540939 0.23091996 238 0 0 0 89.070755
-4.1814022 -3.5990362 0.25829396 213.33333 0 0 0 88.286125
-3.851346 -3.5675871 0.20266914 180 0 0 0 87.705536
-3.1386776 -3.9055252 0.25419742 112.5 0 0 0 85.34967
-2.1451647 -3.5554595 0.47195786 123 0 0 0 83.200783
-1.8169779 -3.5775661 0.26075718 99 0 0 0 82.032005
-0.80321193 -3.9370384 0.1857053 38.75 0 0 0 77.732613
2.375061 -3.5342493 0.41288742 46.333332 0 0 0 65.081451
3.3693261 -3.5706542 0.43017471 161 0 0 0 62.472633
-4.7400417 -3.4194984 0.36507753 427 0 0 0 89.663765
-4.1958599 -3.365912 0.20793486 254.60001 0 0 0 88.833878
-3.694561 -3.2171497 0.34238487 344 0 0 0 88.190193
-3.2471473 -3.2509067 0.28218529 151.39999 0 0 0 87.083145
-2.7925453 -3.1568222 0.2994481 105 0 0 0 86.105377
-2.2154903 -3.4769194 0.46886086 77 0 0 0 83.589325
2.8619511 -3.0394325 0.26703355 32 0 0 0 62.472633
3.2009888 -3.3363237 0.2214694 58 0 0 0 62.342228
3.8320591 -3.2769797 0.14684197 92.333336 0 0 0 60.774998
4.386209 -3.2758317 0.33872652 82.5 0 0 0 59.732056
4.6548977 -3.300477 0.067795165 94 0 0 0 59.347019
5.187418 -3.304636 0.069943033 37 0 0 0 58.560982
5.730206 -3.0792761 0.071526468 455 0 0 0 57.390942
8.7037411 -3.3675413 0.086227037 334 0 0 0 55.44088
9.8330564 -3.2561021 0.091425724 45 0 0 0 54.654007
11.037825 -3.0607471 0.24035747 59 0 0 0 53.878448
2.9131613 -2.8734601 0.31335491 46.5 0 0 0 61.886181
3.1696086 -2.9012022 0.22594248 71.5 0 0 0 61.299141
3.6583879 -2.8807445 0.23602423 60 0 0 0 60.122772
4.1142626 -2.6263208 0.12389728 108.5 0 0 0 58.558701
4.6580129 -2.7714849 0.30135915 126.5 0 0 0 58.071651
5.9078627 -2.8078771 0.071467951 213 0 0 0 56.605335
12.248072 -2.7541671 0.25950512 324 0 0 0 53.089081
3.2809913 -2.3749206 0.35941532 43.666668 0 0 0 59.474972
3.7443953 -2.3443964 0.24487697 122.33334 0 0 0 58.428497
4.0289664 -2.0445142 0.28581211 130 0 0 0 56.993992
4.6649437 -2.0824904 0.19162728 206 0 0 0 56.216679
5.80058 -2.4149938 0.069796398 349 0 0 0 55.819752
16.461252 -2.0273294 0.12306359 50 0 0 0 51.528118
3.4605968 -1.9785635 0.35555166 51 0 0 0 57.776234
3.9135673 -1.9061462 0.24056809 187.33333 0 0 0 56.731518
4.1189055 -1.8634208 0.35275534 173.8 0 0 0 56.290733
4.6293263 -1.8509066 0.28604299 256.60001 0 0 0 55.592426
5.266645 -1.8651848 0.25883383 284 0 0 0 54.968678
5.5246482 -1.8353006 0.35611117 558 0 0 0 54.654007
18.150791 -1.783048 0.13156699 225 0 0 0 51.138767
-3.9257557 -1.1794128 0.31257129 191.88889 0 0 0 94.986916
18.344336 -1.3473322 0.13218707 179 0 0 0 50.753529
20.694752 -1.0089048 0.14418726 125 0 0 0 50.366833
-4.0152287 -0.7981928 0.16665736 166 0 0 0 96.485962
-3.9422481 -0.8287468 0.35046872 169.11111 0 0 0 96.318893
24.152887 -0.58282506 0.16198702 35 0 0 0 49.969791
27.88253 0.012541089 0.1812136 59 0 0 0 49.575722
34.31641 0.85835248 0.21458843 32 0 0 0 49.187767
32.94735 1.6353064 0.20736942 289 0 0 0 48.805927
-25.194931 2.4653997 0.20154944 240 0 0 0 1.17161
-17.845518 2.1858013 0.15403549 78 0 0 0 1.56288
-15.861229 2.3359902 0.14169745 342 0 0 0 1.95649
-16.564474 2.8545997 0.14731336 238 0 0 0 2.35273
11.100089 2.6550813 0.23851362 405 0 0 0 45.876854
13.045576 2.6106529 0.43831405 57 0 0 0 46.461781
13.529486 2.7094717 0.10787984 136 0 0 0 46.461781
15.827635 2.7640023 0.11960924 72 0 0 0 46.848766
38.914368 2.8905098 0.23852335 14 0 0 0 48.40575
11.071649 3.2328584 0.24085763 594.25 0 0 0 45.095154
20.171888 3.0099528 0.14205225 28 0 0 0 47.241261
-50.762119 3.7193601 0.3676061 3 0 0 0 0.79026997
11.052787 3.8279088 0.24407583 518.5 0 0 0 44.309994
11.035461 4.2844267 0.24677132 514 0 0 0 43.725849
-1.6321062 4.9015303 0.26357013 711.125 0 0 0 19.705051
-1.249143 4.928164 0.25985181 532.9375 0 0 0 20.873804
-0.75078541 4.9589338 0.25655258 466.75 0 0 0 22.430262
-0.27126858 4.9793453 0.24263848 550.06665 0 0 0 23.956432
0.07856036 4.9946275 0.25487936 563.75 0 0 0 25.07024
11.020278 4.7550278 0.25004867 485.75 0 0 0 43.144005
38.271343 4.742908 0.23653109 322 0 0 0 47.635719
45.841042 4.5386996 0.27534673 48 0 0 0 48.017113
-15.957213 5.2369938 0.15016578 162 0 0 0 4.6824498
-0.075396292 5.0045333 0.44072437 546 0 0 0 24.578831
0.28540042 5.0112715 0.25592437 508.91666 0 0 0 25.722565
0.73597592 5.0242171 0.25796032 438.9375 0 0 0 27.121506
1.2606866 5.0508757 0.26297164 463.75 0 0 0 28.681013
1.7429503 5.0668259 0.26915303 619.75 0 0 0 30.050795
2.1878355 5.0912728 0.27670228 650.58331 0 0 0 31.222345
2.649718 5.1144896 0.24249253 638.70001 0 0 0 32.350975
3.1895158 5.1419177 0.22272876 734.33331 0 0 0 33.559029
3.768939 5.1700382 0.23284984 926.55554 0 0 0 34.735641
4.3039303 5.1938262 0.24291389 1001 0 0 0 35.71246
4.7850299 5.2216496 0.2528334 952.33331 0 0 0 36.497353
5.3108559 5.2458081 0.26395854 920.5 0 0 0 37.277775
5.7369523 5.2602367 0.27329865 891.33331 0 0 0 37.870152
6.2277045 5.2938724 0.28479871 427.33334 0 0 0 38.450176
7.1194582 5.3301001 0.19637345 583.5 0 0 0 39.435799
7.5711904 5.380867 0.086863481 8 0 0 0 39.81678
8.0303955 5.410964 0.21035627 26 0 0 0 40.215118
8.599514 5.4897847 0.091444209 15 0 0 0 40.598553
10.999962 5.2345047 0.40603194 457 0 0 0 42.55769
11.007528 5.2405877 0.10111659 385 0 0 0 42.55769
-15.956421 5.6721091 0.15161407 172 0 0 0 5.0680299
10.433485 5.6138573 0.24783649 16.5 0 0 0 41.772472
10.875574 5.5094223 0.25392982 285.5 0 0 0 42.167568
-15.975464 6.1225486 0.15331057 219 0 0 0 5.4612498
10.979338 6.2591019 0.26219985 18.5 0 0 0 41.386433
11.318935 6.8260651 0.27274096 46.5 0 0 0 40.990421
-17.110102 7.0440383 0.16343863 81 0 0 0 5.8540401
-15.979974 7.0380931 0.15674993 262 0 0 0 6.23771
-15.191876 7.1375198 0.15254979 120 0 0 0 6.6277099
-14.30877 7.1523876 0.14752737 122 0 0 0 7.0220499
-13.548243 7.1891975 0.14336003 138 0 0 0 7.4176002
-12.86881 7.2350559 0.13973603 185 0 0 0 7.7997398
-12.230692 7.2731433 0.13637558 162 0 0 0 8.1954098
-11.651521 7.3180385 0.13365504 159 0 0 0 8.5792599
-11.080568 7.3408585 0.1305884 169 0 0 0 8.9726496
-10.529597 7.3500175 0.12761302 214 0 0 0 9.3664503
-10.023594 7.3653026 0.1249486 246 0 0 0 9.7511702
-9.5737877 7.3996902 0.12272176 279 0 0 0 10.14376
-9.1392651 7.4254537 0.12057101 289 0 0 0 10.53324
-8.7025309 7.4286132 0.11833111 362 0 0 0 10.91746
-8.3312712 7.4693227 0.11666072 526 0 0 0 11.316
11.28515 7.1888208 0.44361427 24 0 0 0 40.598553
-8.3096666 7.8258333 0.11842747 433 0 0 0 11.69868
10.958955 7.7655339 0.44571954 16 0 0 0 39.81678
-11.49653 8.4596825 0.49226663 293 0 0 0 9.7511702
-9.8953524 8.4595556 0.45264852 242 0 0 0 10.91746
-9.3511305 8.3957548 0.43833184 211 0 0 0 11.316
-8.7571869 8.4574165 0.42599106 331 0 0 0 11.891359
-8.2223749 8.4045992 0.21845883 453.33334 0 0 0 12.348493
-7.7833524 8.4895229 0.11951882 539 0 0 0 12.87063
-7.4201207 8.4995203 0.11789941 475 0 0 0 13.26485
10.764913 8.4536476 0.4541128 18 0 0 0 39.041634
-11.05583 8.5582237 0.48313951 235 0 0 0 10.14376
-10.547755 8.5833082 0.47109291 267 0 0 0 10.53324
-7.7941675 8.5044851 0.40578049 468 0 0 0 12.87063
-7.2028198 8.526309 0.30232379 489 0 0 0 13.52669
-6.7563782 8.5470428 0.25028294 538 0 0 0 14.04722
-6.2763257 8.5632362 0.24489461 578.75 0 0 0 14.635204
-5.6795583 8.5981979 0.23882844 699.25 0 0 0 15.41795
-5.250103 8.618803 0.23463227 727.5 0 0 0 15.99448
-4.8354802 8.6320801 0.23072602 814.25 0 0 0 16.579386
-4.3117104 8.6629868 0.22641042 868.25 0 0 0 17.357464
-3.8053503 8.6842213 0.2224527 929.5 0 0 0 18.145691
-3.3173983 8.7043028 0.21893631 880 0 0 0 18.925114
10.910799 8.5709324 0.1127006 16 0 0 0 39.041634
-74.988449 -13.021576 0.57311553 19 0 0 0 96.889763
-75.304878 -11.18014 0.5726006 23 0 0 0 97.274811
3.0610597 -10.173312 0.62832761 103 0 0 0 69.908005
4.1407452 -10.059398 0.64153731 25 0 0 0 68.343353
-79.402931 -9.8034725 0.59916478 17 0 0 0 97.664001
-2.9258068 -6.5672793 0.79232347 25 0 0 0 81.244873
1.3085428 -6.6925354 0.7513721 166.66667 0 0 0 71.477791
1.7917345 -6.5618396 0.58427376 422 0 0 0 70.292145
6.0361843 -5.773664 0.90933806 88 0 0 0 61.690941
-16.174574 -5.341578 0.58158481 175 0 0 0 94.55719
-14.777934 -5.2856574 0.53868937 225 0 0 0 94.163994
-12.242484 -5.0686355 0.78422564 64 0 0 0 93.374626
-7.1417494 -5.0257306 0.95687401 231 0 0 0 89.85936
-4.1584349 -5.0534792 0.56651795 53 0 0 0 85.548004
-10.98751 -4.8677683 0.71449572 401 0 0 0 92.977669
-8.7956266 -4.6996927 0.84653544 214 0 0 0 91.804756
-7.7117248 -4.8804126 0.99863064 89 0 0 0 90.646095
-7.3460913 -4.9049745 0.96755528 267 0 0 0 90.254257
-3.3659267 -4.5240674 0.90628868 482 0 0 0 84.763191
-9.3000765 -4.3956208 0.61657619 377 0 0 0 92.583809
-8.1829214 -4.115582 0.55281097 347 0 0 0 92.186592
-7.5919971 -4.0542622 0.52150559 412 0 0 0 91.804756
-7.350841 -4.2804308 0.62118679 379 0 0 0 91.229843
-6.4729271 -4.0954928 0.65799314 204 0 0 0 90.646095
-5.6668 -4.197773 0.72263545 401.33334 0 0 0 89.466095
-4.6240964 -4.1845732 0.84542012 150 0 0 0 87.893211
-3.3184457 -4.4550867 0.89357269 435.5 0 0 0 84.761673
-2.096858 -4.1379476 0.63674408 68 0 0 0 82.032005
29.610853 -4.3907814 0.94195467 194 0 0 0 51.925873
-7.0573339 -3.9954686 0.69476396 219 0 0 0 91.427902
-5.7046199 -3.8075736 0.59268212 223 0 0 0 90.254257
-4.7159905 -3.5796061 0.51617813 379.5 0 0 0 89.269463
-4.233119 -3.7311652 0.6302861 421 0 0 0 88.096909
-3.5000441 -3.8513927 0.83904767 43 0 0 0 86.33329
-3.3553073 -3.7499912 0.85470039 65.333336 0 0 0 86.202515
-2.2324882 -3.9156072 0.50939482 104 0 0 0 82.817909
-1.6454113 -3.8055925 0.62258756 63 0 0 0 81.053131
-3.8203092 -3.3222995 0.64285028 299 0 0 0 88.212036
-3.2215307 -3.2095513 0.6587531 167.14285 0 0 0 87.119949
-2.783175 -3.2954559 0.59475952 253.5 0 0 0 85.746475
-2.3914697 -3.3795738 0.60592395 111.33334 0 0 0 84.373451
1.9477795 -3.486469 0.55242074 27 0 0 0 66.39183
2.0426188 -3.4538326 0.55488044 27 0 0 0 65.993469
2.8349361 -3.4010935 0.60854208 114 0 0 0 63.454113
3.3352911 -3.2033641 0.67143708 49.333332 0 0 0 61.690502
3.8727422 -3.3669767 0.57266742 117 0 0 0 60.905167
4.1843791 -3.2893922 0.63634247 177.66667 0 0 0 60.120876
5.2376661 -3.1560638 0.60094035 103 0 0 0 58.16861
3.7683098 -2.5388634 0.51100832 59 0 0 0 58.947273
4.6573796 -2.8098555 0.60421753 45 0 0 0 58.170128
3.4099171 -2.0617552 0.74927646 71 0 0 0 58.170128
4.1973867 -2.1258025 0.75984383 108.5 0 0 0 56.995605
4.8169446 -2.0063999 0.70993912 43 0 0 0 55.819752
5.3809233 -2.0866301 0.63858122 434 0 0 0 55.44088
3.4110856 -1.9493227 0.73943478 143 0 0 0 57.776234
3.7386677 -1.9349605 0.65063953 228 0 0 0 57.126308
4.1873426 -1.891773 0.58405602 225.39999 0 0 0 56.290733
18.173285 -1.788274 0.58838761 210 0 0 0 51.138767
-3.8900433 -1.0981308 0.67791826 223.8 0 0 0 95.252708
19.373699 -1.4261312 0.62340587 101 0 0 0 50.753529
-4.0316429 -0.90624094 0.77583468 318 0 0 0 96.096947
-3.900712 -0.91006631 0.68632776 172.77777 0 0 0 95.973625
-15.861239 2.3387377 0.53920716 354 0 0 0 1.95649
-16.600527 2.8636625 0.97507459 205 0 0 0 2.35273
-15.881532 2.7391837 0.54232264 338 0 0 0 2.35273
13.7234 2.7455842 0.80261719 522 0 0 0 46.461781
15.906881 2.7749107 0.72228295 72.5 0 0 0 46.848766
13.709518 3.2742066 0.80833888 410 0 0 0 45.876854
20.141733 3.0018883 0.65117168 30 0 0 0 47.241261
13.659239 3.8002851 0.81305093 435 0 0 0 45.291889
13.667577 4.1678472 0.81928951 338 0 0 0 44.898418
-1.6334983 4.9032555 0.76831073 826 0 0 0 19.705051
-1.2494491 4.9265075 0.75664461 725.9375 0 0 0 20.873804
-0.75139558 4.9589763 0.74752373 563.5625 0 0 0 22.43026
-0.25975212 4.9841709 0.74440831 586.625 0 0 0 23.995331
0.12105154 4.996685 0.80710411 659 0 0 0 25.206886
13.637173 4.7165766 0.82733798 338 0 0 0 44.309994
0.28370172 5.0079112 0.72016454 635.63635 0 0 0 25.719751
0.73562378 5.0250316 0.75730681 551.9375 0 0 0 27.121506
1.260536 5.0533357 0.77577561 526.375 0 0 0 28.681013
1.7314247 5.0720639 0.77897525 606.36365 0 0 0 30.01515
2.1899383 5.0972729 0.75546408 644.66669 0 0 0 31.222347
2.681767 5.1180038 0.73316169 698.45453 0 0 0 32.425732
3.1930962 5.1488385 0.74685907 771.58331 0 0 0 33.559032
3.7707911 5.1735306 0.70767844 949.66669 0 0 0 34.735641
4.313364 5.2060323 0.7448836 897.16669 0 0 0 35.71246
4.7842231 5.2219763 0.77817267 936.33331 0 0 0 36.497353
5.289742 5.2518167 0.77949214 881.79999 0 0 0 37.238213
5.7649298 5.2863173 0.75854599 834 0 0 0 37.870152
6.2399397 5.3049746 0.7923075 391.25 0 0 0 38.450172
6.7680435 5.3341866 0.72491282 267.33334 0 0 0 39.041634
7.1160049 5.3273916 0.7460351 482 0 0 0 39.435799
7.7627807 5.3691864 0.67381543 222.5 0 0 0 40.015949
8.4764194 5.409339 0.58937216 286 0 0 0 40.598553
8.7311382 5.4188824 0.72745275 181.5 0 0 0 40.794487
9.0361891 5.457644 0.88028854 127 0 0 0 40.990421
9.609973 5.483573 0.92062199 177 0 0 0 41.386433
10.186432 5.4813986 0.81642234 91 0 0 0 41.772472
13.616261 5.279181 0.83710933 321 0 0 0 43.725849
-16.664988 5.9284358 0.59577799 328 0 0 0 5.0680299
9.6677999 5.5142856 0.64795339 86 0 0 0 41.386433
10.889565 5.5150414 0.70659423 240 0 0 0 42.167568
11.688027 5.5599341 0.74676198 188 0 0 0 42.55769
12.567904 5.6011691 0.79129207 161 0 0 0 42.943779
13.559759 5.6451979 0.84192812 246 0 0 0 43.344231
-20.90782 8.0265894 0.74621147 24 0 0 0 5.4612498
-19.940523 8.2188349 0.720523 24 0 0 0 5.8540401
-18.581093 8.193388 0.68096501 48 0 0 0 6.23771
-17.501228 8.2320518 0.65071851 173 0 0 0 6.6277099
-16.331118 8.1726179 0.6168381 124 0 0 0 7.0220499
-15.71101 8.3473263 0.60232699 73 0 0 0 7.4176002
-14.679617 8.2629776 0.7776286 167.5 0 0 0 7.7997398
-14.089914 8.3895311 0.75864279 85.5 0 0 0 8.1954098
-13.097874 8.2360611 0.71806973 231 0 0 0 8.5792599
-12.719967 8.438261 0.70916009 325 0 0 0 8.9726496
-12.158712 8.4993277 0.51001036 189 0 0 0 9.3664503
-11.501035 8.4629984 0.83986062 339 0 0 0 9.7511702
-9.9399242 8.4979868 0.77264804 399 0 0 0 10.91746
-12.216699 8.5401049 0.87500393 49 0 0 0 9.3664503
-11.040812 8.5464945 0.82221651 54 0 0 0 10.14376
-10.483162 8.5303249 0.79719269 86 0 0 0 10.53324
-9.6045084 8.6252842 0.7633636 51 0 0 0 11.316
-9.1994371 8.6752529 0.74861956 41 0 0 0 11.69868
-8.6198006 8.5328083 0.71958923 473 0 0 0 12.08404
-8.3620529 8.6919508 0.71596318 244 0 0 0 12.48072
-7.8135161 8.7358236 0.8418299 211.5 0 0 0 13.067739
-7.168993 8.6299915 0.80745494 579.5 0 0 0 13.65761
-6.7360721 8.73911 0.79499066 274.25 0 0 0 14.244579
-6.2826719 8.7995892 0.77984852 66 0 0 0 14.82847
-5.7884307 8.7638912 0.7587648 365 0 0 0 15.41795
-5.2412763 8.8472586 0.7437079 144 0 0 0 16.18679
-4.8229837 8.8673592 0.73064214 248 0 0 0 16.779671
-4.3120723 8.6643486 0.70202923 903.5 0 0 0 17.357464
-3.7345073 8.8202229 0.69533151 601.83331 0 0 0 18.341669
-3.2803731 8.9416933 0.69152135 392 0 0 0 19.1166
-0.86493957 -34.527321 1.1271998 37 0 0 0 74.986145
-3.3689067 -34.036644 1.1181115 26 0 0 0 76.160034
-10.037941 -33.043285 1.1326989 40 0 0 0 79.293747
-4.8735838 -32.745831 1.0842496 35 0 0 0 76.949165
-4.0237975 -32.489983 1.0721613 32 0 0 0 76.55957
-2.3956633 -32.244495 1.0584564 29 0 0 0 75.772598
-1.5673772 -31.547283 1.0343391 66 0 0 0 75.388687
4.6733317 -31.636707 1.0422531 182 0 0 0 72.255936
0.74770242 -31.208673 1.0211809 19 0 0 0 74.209038
-23.335163 -8.3474407 1.4364152 24 0 0 0 94.163994
-22.038406 -8.4989491 1.3706945 33 0 0 0 93.771637
-23.801895 -7.8612442 1.4523686 30 0 0 0 94.55719
-8.2465229 -6.1142507 1.3708346 36 0 0 0 89.46817
-1.8945715 -6.1963181 1.3545448 35 0 0 0 79.293747
4.9802737 -6.4132118 1.4879688 157 0 0 0 64.033951
-11.30526 -5.6898379 1.0652069 222 0 0 0 92.186592
-8.363657 -5.5874414 1.3439716 58 0 0 0 90.254257
2.4835815 -5.3002062 1.3700976 57 0 0 0 67.557091
-5.8245811 -4.7758832 1.2002596 698.33331 0 0 0 88.675964
-3.6304402 -4.5466003 1.2491727 570 0 0 0 85.310005
-3.2190619 -4.5494905 1.0337783 222 0 0 0 84.374176
-2.94593 -4.6358676 1.4218113 16 0 0 0 83.589325
-5.6744547 -4.4246621 1.3257564 95 0 0 0 89.070755
-3.7860429 -4.3802857 1.4973052 538 0 0 0 85.944954
-3.0899174 -4.448061 1.0936798 402.66666 0 0 0 84.24305
-2.9801931 -4.4450765 1.320492 494 0 0 0 83.985168
4.2570839 -3.0954995 1.4314346 396 0 0 0 59.538948
4.4350858 -2.8268571 1.3645873 338.5 0 0 0 58.558701
4.5849771 -2.8026762 1.2279263 340.25 0 0 0 58.267845
5.0741611 -2.8888304 1.367046 313.66666 0 0 0 57.776234
40.109291 -1.9627352 1.2494482 24 0 0 0 50.366833
39.795315 -0.96815544 1.2385 9 0 0 0 49.969791
33.118755 1.638147 1.0369798 110 0 0 0 48.805927
13.724932 2.7483606 1.3224223 482.5 0 0 0 46.461781
15.943856 2.7842019 1.3260012 63 0 0 0 46.848766
13.700751 3.2152214 1.272386 505.66666 0 0 0 45.941345
20.379602 3.037231 1.1636531 32 0 0 0 47.241261
46.074818 3.413223 1.4301941 22 0 0 0 48.40575
13.676166 3.8074887 1.1683335 508 0 0 0 45.291889
13.657433 4.1673031 1.175095 396 0 0 0 44.898418
-1.6363794 4.9106569 1.2753325 871 0 0 0 19.705051
-1.2507712 4.9294739 1.2550197 806.6875 0 0 0 20.873806
-0.75120217 4.9545455 1.2381718 672.0625 0 0 0 22.430262
-0.25985017 4.9775224 1.2327328 693.125 0 0 0 23.995331
0.087887309 4.994318 1.1947445 726.16669 0 0 0 25.10317
13.632517 4.7174258 1.1871309 435.5 0 0 0 44.309994
36.862473 4.5621858 1.1573515 62 0 0 0 47.635719
45.872311 4.5338345 1.4272292 49 0 0 0 48.017113
0.31938362 5.0101781 1.2668927 634.5 0 0 0 25.833267
0.7365132 5.0325713 1.25906 576.3125 0 0 0 27.121506
1.2464328 5.0516052 1.2747833 583.59998 0 0 0 28.641844
1.7603483 5.0787897 1.2365873 594 0 0 0 30.09
2.1895723 5.0972476 1.2348229 668.5 0 0 0 31.222345
2.6542995 5.1223373 1.2632064 692.36365 0 0 0 32.354092
3.1955957 5.1534939 1.271911 830.55554 0 0 0 33.559032
3.7546172 5.1788244 1.2126429 950.40002 0 0 0 34.697021
4.3106375 5.2033515 1.2456509 989.16669 0 0 0 35.71246
4.7666569 5.2293959 1.266964 933.79999 0 0 0 36.458191
5.3543553 5.2641702 1.2299404 916.79999 0 0 0 37.317345
5.7674689 5.289948 1.2418115 832.33331 0 0 0 37.870152
6.2020593 5.3011599 1.2513157 413.60001 0 0 0 38.410912
6.7436271 5.3172812 1.1451352 274 0 0 0 39.041634
7.1527719 5.356802 1.3006897 354 0 0 0 39.435799
7.5686512 5.3792462 1.120507 136 0 0 0 39.81678
8.1699791 5.4060121 1.1382445 223 0 0 0 40.34293
8.5267315 5.4448776 1.3414108 6 0 0 0 40.598553
9.003809 5.439044 1.2633399 149 0 0 0 40.990421
9.596488 5.4757648 1.1885229 46 0 0 0 41.386433
10.215036 5.4976068 1.2457349 21 0 0 0 41.772472
13.6094 5.2791457 1.2010214 385 0 0 0 43.725849
-46.099369 5.665648 1.4980596 31 0 0 0 1.56288
10.91753 5.5312872 1.1632249 280 0 0 0 42.167568
11.686601 5.5615377 1.2275362 258 0 0 0 42.55769
12.560299 5.6002116 1.3017212 191.5 0 0 0 42.943779
13.572102 5.6529565 1.2095851 216 0 0 0 43.344231
-21.972254 7.8255291 1.3435196 72 0 0 0 5.0680299
-20.674921 7.9367166 1.2779062 19 0 0 0 5.4612498
-19.347229 7.9731841 1.2098556 4 0 0 0 5.8540401
-18.723711 8.2564516 1.1844428 14 0 0 0 6.23771
-17.501461 8.2320662 1.1217782 174 0 0 0 6.6277099
-16.343077 8.178546 1.0622598 97 0 0 0 7.0220499
-15.735706 8.358633 1.2582293 66.5 0 0 0 7.4176002
-14.661805 8.2494259 1.3979049 186 0 0 0 7.7997398
-13.123182 8.2488108 1.2915838 239 0 0 0 8.5792599
-12.722506 8.4367018 1.2728701 343 0 0 0 8.9726496
-11.501442 8.4601917 1.1931138 352 0 0 0 9.7511702
-10.396669 8.4563732 1.2841424 69 0 0 0 10.53324
-9.9421272 8.4969015 1.2541157 424.5 0 0 0 10.91746
-12.709406 8.8835564 1.2928848 24 0 0 0 9.3664503
-9.6347952 8.6497059 1.0859338 158 0 0 0 11.316
-9.1759605 8.6499262 1.0586696 337 0 0 0 11.69868
-8.628746 8.5388317 1.1670637 477 0 0 0 12.08404
-8.3558607 8.6824989 1.1587454 177 0 0 0 12.48072
-7.1814594 8.6422787 1.35629 534.5 0 0 0 13.65761
-6.7432547 8.7452974 1.3340757 250.75 0 0 0 14.244579
-6.309135 8.8341303 1.3126907 7.5 0 0 0 14.82847
-5.7258353 8.7436399 1.2211894 499.33334 0 0 0 15.483296
-5.2327452 8.8298388 1.2426956 145 0 0 0 16.18679
-4.8194642 8.8575382 1.2217109 326.5 0 0 0 16.779671
-4.3151674 8.6672535 1.1745386 936.5 0 0 0 17.357464
-3.780843 8.8059711 1.1397949 677 0 0 0 18.263279
-3.2834191 8.9484034 1.0404247 671 0 0 0 19.1166
-3.7191575 9.4238911 1.3519192 27 0 0 0 18.733629
-10.052805 -33.094948 1.9807298 58 0 0 0 79.293747
-7.451745 -33.120026 1.9427514 51 0 0 0 78.120758
-5.626523 -32.33905 1.8789176 36 0 0 0 77.341606
-4.022871 -32.488945 1.8731979 46 0 0 0 76.55957
-3.2084944 -32.413406 1.8635025 17 0 0 0 76.160034
-1.5659609 -31.534483 1.8065509 72 0 0 0 75.388687
4.6737132 -31.633429 1.8247654 392 0 0 0 72.255936
0.74755567 -31.170279 1.782979 36 0 0 0 74.209038
1.5182186 -31.267607 1.7894701 54 0 0 0 73.813728
7.0030909 -31.2721 1.8266551 114 0 0 0 71.081245
-4.4410305 -8.2895527 1.9526529 5507 0 0 0 82.430061
-16.289028 -7.7047882 1.5021122 141 0 0 0 92.583809
-12.661051 -7.5907292 1.9572693 157 0 0 0 91.031776
-4.5222239 -7.9652462 1.9027313 5602 0 0 0 82.817909
-17.387085 -7.2032442 1.567382 60 0 0 0 93.374626
-16.767164 -7.4333348 1.5283418 52 0 0 0 92.977669
-13.110516 -7.216835 1.6164341 118 0 0 0 91.616333
-12.436045 -7.0470142 1.8963163 182 0 0 0 91.427902
-17.071974 -6.5867715 1.5248919 30 0 0 0 93.771637
-13.279107 -6.6839805 1.6059228 139 0 0 0 92.186592
3.765332 -6.6885433 1.597771 38 0 0 0 66.39183
4.177537 -6.6348681 1.631266 59 0 0 0 65.599632
-17.631645 -6.3103495 1.5597599 47 0 0 0 94.163994
-13.734509 -6.0914807 1.9918151 107 0 0 0 92.977669
-13.459476 -6.3659863 1.6083595 107 0 0 0 92.583809
-11.286412 -6.0344248 1.701437 130 0 0 0 91.804756
-14.338316 -5.9398799 1.6751397 124 0 0 0 93.374626
-13.509497 -5.9887161 1.5965859 112 0 0 0 92.977669
-8.8087301 -5.8852181 1.6754525 121 0 0 0 90.254257
-8.1618118 -5.7474976 1.6628237 126 0 0 0 89.860596
-7.9940624 -5.6287436 1.7901773 288 0 0 0 89.85936
-14.352879 -5.3355989 1.6533309 132 0 0 0 93.967819
-13.384383 -5.1664429 1.9035008 139 0 0 0 93.771637
-12.842625 -5.3227415 1.8454821 193 0 0 0 93.374626
-11.611266 -5.4939938 1.7076886 68 0 0 0 92.583809
-10.912724 -5.4947495 1.6258488 147 0 0 0 92.186592
-8.290123 -5.1070108 1.6616513 132.25 0 0 0 90.838936
-13.373311 -4.788681 1.8849864 116 0 0 0 94.163994
-8.7656298 -4.8250971 1.5846611 248.5 0 0 0 91.616333
-5.8065243 -4.8231626 1.8055799 374.5 0 0 0 88.579269
-3.6576266 -4.652463 1.6923614 298.77777 0 0 0 85.198257
-3.2984557 -4.6722989 1.7610134 33 0 0 0 84.371994
-2.889431 -4.5474358 1.6601609 278.33334 0 0 0 83.589325
-13.438449 -4.4432344 1.878352 138 0 0 0 94.55719
-8.6936932 -4.2442694 1.5333631 265.5 0 0 0 92.385201
-7.6685266 -4.3440161 1.7238536 229.5 0 0 0 91.427902
-3.8380573 -4.2277451 1.7583473 253.60001 0 0 0 86.334213
-2.8373199 -4.3240123 1.7698269 197.8 0 0 0 83.826828
-8.9360065 -3.9624834 1.7904743 304 0 0 0 92.977669
-6.8325276 -3.6534605 1.9947861 248 0 0 0 91.804756
3.9626935 -3.6728141 1.8912826 160 0 0 0 61.429737
4.0382752 -3.5054691 1.7846729 190 0 0 0 60.905167
-6.5429792 -3.0962384 1.8657948 262 0 0 0 92.583809
-6.1849055 -3.1143956 1.8698539 218 0 0 0 92.186592
3.8104935 -3.2250009 1.8523765 129 0 0 0 60.709915
4.1823626 -3.21576 1.6575769 192.39999 0 0 0 59.962639
4.8749371 -3.3622506 1.7538599 102 0 0 0 59.147148
5.729403 -3.0743992 1.8403808 129 0 0 0 57.390942
-6.760653 -2.7056329 1.8771045 293.5 0 0 0 93.573135
-6.3064327 -2.7960057 1.9075408 359.75 0 0 0 92.978439
-5.8764458 -2.6075599 1.9775387 376 0 0 0 92.977669
4.2889843 -2.5849285 1.6728536 195.33333 0 0 0 58.170124
4.8131018 -2.8960462 1.595805 260 0 0 0 58.16861
5.1360989 -2.8382907 1.8834496 185 0 0 0 57.583588
-6.7095962 -2.2570503 1.9293849 308 0 0 0 94.477417
-6.3591886 -2.4551692 1.9279486 178 0 0 0 93.771637
4.3115244 -2.4505615 1.9034472 90 0 0 0 57.780533
-6.770237 -1.8765641 1.9863392 207 0 0 0 95.329712
33.585712 0.0090571688 1.8733063 23 0 0 0 49.575722
51.482449 0.01190911 1.5906216 44 0 0 0 49.575722
33.107349 1.6377435 1.848891 21 0 0 0 48.805927
13.720206 2.7498906 1.8373226 461 0 0 0 46.461781
16.012478 2.7961302 1.7271806 69 0 0 0 46.848766
13.691975 3.3336189 1.7343693 536.66669 0 0 0 45.812363
20.45657 3.0523341 1.6837109 37 0 0 0 47.241261
13.676083 3.8086653 1.6889281 480.5 0 0 0 45.291889
13.657511 4.16852 1.6987081 500.5 0 0 0 44.898418
-1.639169 4.9161282 1.7837771 696.875 0 0 0 19.705051
-1.2536182 4.937232 1.7557002 646.5 0 0 0 20.873806
-0.75381917 4.9671974 1.7338755 536.5625 0 0 0 22.430262
-0.27346736 4.9877071 1.7297918 528.66669 0 0 0 23.956432
0.046164751 4.9993472 1.5436184 602 0 0 0 24.971451
13.63133 4.718225 1.7160294 423.75 0 0 0 44.30999
-0.075908214 5.005435 1.6686345 503 0 0 0 24.578831
0.24482588 5.0158734 1.7487354 478.13333 0 0 0 25.598686
0.73654133 5.0379634 1.7616583 436.0625 0 0 0 27.121504
1.2579583 5.0637994 1.7582049 424.26666 0 0 0 28.668055
1.7480663 5.0854115 1.7283908 490.75 0 0 0 30.050795
2.1786387 5.1048522 1.7644554 560.63635 0 0 0 31.186579
2.6899781 5.1317539 1.7601755 597.40002 0 0 0 32.429771
3.1784394 5.1553421 1.7481905 662.40002 0 0 0 33.519897
3.779012 5.1868191 1.7385731 769.90002 0 0 0 34.735725
4.318222 5.2134175 1.7489815 769.5 0 0 0 35.71246
4.8012223 5.2417207 1.7453542 793.33331 0 0 0 36.497353
5.3346195 5.2712841 1.7477856 788.5 0 0 0 37.277779
5.7655973 5.2886534 1.7248483 779.5 0 0 0 37.870152
6.229197 5.2980261 1.8008916 253.75 0 0 0 38.450172
7.1313229 5.3405018 1.7385793 252.5 0 0 0 39.435799
7.5904326 5.3951311 1.7005391 11 0 0 0 39.81678
8.060194 5.4328766 1.6525655 15 0 0 0 40.215118
8.7047405 5.4550667 1.7878122 7.3333335 0 0 0 40.729176
9.0022297 5.4389138 1.6538386 9 0 0 0 40.990421
13.60737 5.2795501 1.7361219 415 0 0 0 43.725849
10.354082 5.7410889 1.7096425 14.25 0 0 0 41.579453
10.921453 5.5353518 1.7659965 261 0 0 0 42.167568
11.726284 5.5826111 1.7097571 219 0 0 0 42.55769
12.579859 5.6113091 1.8107834 204 0 0 0 42.943779
13.575677 5.6556253 1.7492015 248 0 0 0 43.344231
-22.019976 7.8381553 1.9256992 70 0 0 0 5.0680299
-20.699915 7.9421072 1.828832 17 0 0 0 5.4612498
-18.738117 8.2588387 1.6926246 9 0 0 0 6.23771
-17.517431 8.2357988 1.6021948 167 0 0 0 6.6277099
-16.352865 8.1797819 1.7365608 107.5 0 0 0 7.0220499
-15.773582 8.3769808 1.9132559 32 0 0 0 7.4176002
-14.670623 8.2543402 1.8053681 213 0 0 0 7.7997398
-13.12666 8.2509575 1.6663512 243 0 0 0 8.5792599
-12.737937 8.4469547 1.6434993 299 0 0 0 8.9726496
-11.501272 8.4569359 1.8866106 335 0 0 0 9.7511702
-11.490148 8.4517984 1.5363679 355 0 0 0 9.7511702
-10.410787 8.4649324 1.7755363 67 0 0 0 10.53324
-12.744457 8.9081812 1.671972 18 0 0 0 9.3664503
-9.9607019 8.5099192 1.7345742 353 0 0 0 10.91746
-8.6388607 8.5460358 1.7613463 427.5 0 0 0 12.08404
-8.3821907 8.7071934 1.7519456 15.5 0 0 0 12.48072
-7.1682048 8.6247473 1.7665827 571 0 0 0 13.65761
-6.8920097 8.7165842 1.7509748 469 0 0 0 14.04722
-5.5959692 8.6993561 1.7601436 711 0 0 0 15.61399
-5.2604523 8.8757429 1.6292666 11 0 0 0 16.18679
-4.8417287 8.8976336 1.6003456 7 0 0 0 16.779671
-4.2908411 8.6701565 1.7200722 810.59998 0 0 0 17.39629
-3.8639321 8.7597075 1.7029806 699.79999 0 0 0 18.1057
-3.2830915 8.9439077 1.7426821 23 0 0 0 19.1166
-3.7122207 9.4065638 1.7231511 24 0 0 0 18.733629
-12.94738 11.64927 1.8717052 13 0 0 0 11.316
-12.450488 11.764681 1.8416781 28 0 0 0 11.69868
-10.824199 11.841787 1.7276499 21 0 0 0 12.87063
-10.364937 11.910592 1.7010031 14 0 0 0 13.26485
-15.891468 12.325198 1.6691189 7 0 0 0 10.14376
-4.4239163 12.125928 1.7142501 42 0 0 0 19.1166
3.6758602 -37.494446 2.1451309 48 0 0 0 73.032257
71.462364 -14.207286 2.2425158 8 0 0 0 52.70256
-4.5858564 -8.0815296 2.2706091 5069.5 0 0 0 82.817909
-4.4011126 -8.2187729 2.2777882 5480 0 0 0 82.430061
-14.165792 -6.282959 2.4364219 92 0 0 0 92.977669
-5.7718945 -6.2059431 2.285162 123 0 0 0 86.52977
-13.734829 -5.6927834 2.338928 129 0 0 0 93.374626
-7.9173813 -5.5769992 2.2479146 24 0 0 0 89.85936
-6.1950974 -5.6123843 2.1488163 201 0 0 0 87.893211
-5.7904329 -5.7873659 2.2059891 159.25 0 0 0 87.122536
-3.1418581 -5.5337019 2.4238892 204 0 0 0 82.817909
-13.745616 -5.3060241 2.3182149 163 0 0 0 93.771637
-10.611565 -5.3432183 2.1691267 133 0 0 0 92.186592
-8.2274637 -5.2101679 2.2121761 158.8 0 0 0 90.644859
-7.6126833 -5.0876846 2.3514588 101 0 0 0 90.254257
-6.0200796 -5.4536839 2.2902393 173 0 0 0 87.893211
-5.191936 -5.4501767 2.3089402 142 0 0 0 86.726242
-3.6538091 -5.1123528 2.2413414 161 0 0 0 84.469795
-3.1812818 -5.295907 2.2031693 161 0 0 0 83.200783
-12.913149 -4.6239276 2.1603115 49 0 0 0 94.163994
-11.493999 -4.7637177 2.2702296 176 0 0 0 93.374626
-8.5355091 -4.5629458 2.0106113 143 0 0 0 91.804756
-8.3149338 -4.8935661 2.3976948 201.33333 0 0 0 91.163818
-6.535284 -4.6024218 2.0565054 182 0 0 0 89.85936
-6.3856893 -4.7352271 2.0453837 27 0 0 0 89.46817
-5.7863116 -4.6876531 2.2386231 222.75 0 0 0 88.774658
-5.3751526 -4.7507563 2.3770013 133.5 0 0 0 88.091202
-3.7332649 -4.5432062 2.1703765 190 0 0 0 85.548004
-12.861029 -4.2523279 2.1339085 228 0 0 0 94.55719
-6.0422606 -4.2571454 2.0874646 258.66666 0 0 0 89.860596
-5.7813787 -4.3980832 2.4090657 170 0 0 0 89.269463
-4.7156267 -4.322639 2.2829857 125.5 0 0 0 87.80481
-3.8538761 -4.1831279 2.1245577 223.66667 0 0 0 86.465813
5.7993016 -4.0999436 2.3573699 24 0 0 0 59.347019
-13.103008 -3.9785619 2.1568489 206 0 0 0 94.944687
-7.199913 -3.6277394 2.4722311 206 0 0 0 92.186592
-6.6433401 -3.5538177 2.3121386 137 0 0 0 91.804756
-6.1688943 -3.6985958 2.0324469 243.33333 0 0 0 91.035255
-5.946043 -3.8710208 2.1789165 198.5 0 0 0 90.45018
-5.0396585 -3.7386563 2.2381642 170 0 0 0 89.46817
-4.8385549 -3.905194 2.2687571 182 0 0 0 88.807556
3.8573363 -3.8794484 2.0932357 215 0 0 0 62.081421
4.9311357 -3.7693014 2.1421638 139.5 0 0 0 59.923985
5.8246574 -3.904479 2.3248286 163.5 0 0 0 58.947273
6.274766 -3.7736609 2.429945 135.5 0 0 0 58.16861
-6.7319851 -3.1863558 2.4705355 88.333336 0 0 0 92.582695
-6.4338584 -3.4401281 2.0609374 214 0 0 0 91.804756
-5.6821375 -3.407891 2.19625 258 0 0 0 91.031776
-5.402482 -3.1965852 2.3554063 163.5 0 0 0 91.133423
4.3217449 -3.0590105 2.0281527 132 0 0 0 59.347019
4.8054991 -3.0558357 2.1085415 170.5 0 0 0 58.560982
6.161777 -3.1112595 2.2079928 20.5 0 0 0 56.993992
-6.902276 -2.6651049 2.4542391 165 0 0 0 93.771637
-6.139492 -2.7270746 2.065691 283.5 0 0 0 92.979218
-5.3362093 -2.7717302 2.2936597 175 0 0 0 91.995674
5.22995 -2.7224813 2.1824598 326.5 0 0 0 57.192467
39.427242 -2.9014606 2.1995573 18 0 0 0 50.753529
-7.3669543 -2.176326 2.4199674 152.66667 0 0 0 95.072205
-6.9978924 -2.3147397 2.4451776 139 0 0 0 94.55719
-6.169692 -2.2967176 2.024653 279 0 0 0 93.967819
-5.9857502 -2.1439002 2.1131887 311 0 0 0 94.163994
5.0826273 -2.1865652 2.1189203 76.5 0 0 0 56.018215
-6.5322537 -1.6404395 2.0708072 157 0 0 0 95.719376
-6.2552047 -1.789235 2.107954 275.33334 0 0 0 95.202919
-5.9993434 -1.824659 2.2380559 108 0 0 0 94.944687
39.391521 -1.9272687 2.193965 11 0 0 0 50.366833
-6.3896909 -1.4378766 2.176291 385 0 0 0 96.096947
39.228989 -0.95405746 2.1827779 19 0 0 0 49.969791
13.707227 2.7472851 2.1823537 498 0 0 0 46.461781
15.97368 2.7922602 2.1226981 75 0 0 0 46.848766
38.872292 2.8808699 2.1673312 27 0 0 0 48.40575
13.686022 3.2736573 2.196871 496.5 0 0 0 45.876854
20.437923 3.0495794 2.1849473 43 0 0 0 47.241261
13.675488 3.8096986 2.2159603 408 0 0 0 45.291889
39.15712 3.8714223 2.1876996 16 0 0 0 48.017113
13.642793 4.1652403 2.2265856 436 0 0 0 44.898418
13.627561 4.7179909 2.2510347 380 0 0 0 44.309994
1.3977466 5.0738602 2.0145731 389.5 0 0 0 29.072014
1.7519985 5.0991573 2.0641794 396.33334 0 0 0 30.050795
2.2321467 5.1120677 2.1007271 439 0 0 0 31.320717
2.6744549 5.135901 2.144752 433.33334 0 0 0 32.390129
3.2239101 5.1659212 2.1975219 530.125 0 0 0 33.607941
3.7819607 5.1915884 2.2429464 563.88892 0 0 0 34.735641
4.3204336 5.2172456 2.252738 647 0 0 0 35.71246
4.8285527 5.2458634 2.2278152 615.40002 0 0 0 36.536514
5.3016524 5.2657723 2.2584305 657.79999 0 0 0 37.238213
5.7661324 5.2901578 2.208317 637 0 0 0 37.870152
6.1457558 5.2946649 2.2360811 247.25 0 0 0 38.352032
6.793829 5.3575435 2.1155045 8.5 0 0 0 39.041634
7.1144528 5.3295431 2.1722813 207 0 0 0 39.435799
7.7008457 5.3777585 2.3324063 12.333333 0 0 0 39.949558
8.0423145 5.4215794 2.1274741 16 0 0 0 40.215118
8.5731659 5.4747515 2.2296753 8 0 0 0 40.598553
9.1038704 5.4995537 2.1983869 8 0 0 0 40.990421
13.595207 5.2760353 2.2759674 353 0 0 0 43.725849
44.222908 5.4713483 2.4727824 18 0 0 0 47.635719
9.1056156 5.5026011 2.4601018 6 0 0 0 40.990421
10.362527 5.7448335 2.2982051 14.25 0 0 0 41.579453
10.910643 5.5296698 2.2197733 222 0 0 0 42.167568
11.710481 5.5749011 2.1902709 199.5 0 0 0 42.55769
12.583887 5.6128798 2.3241169 179 0 0 0 42.943779
13.55991 5.650269 2.2925565 272 0 0 0 43.344231
-22.007336 7.8335218 2.4896019 73 0 0 0 5.0680299
11.012335 7.8075848 2.1118681 14 0 0 0 39.81678
-20.970154 8.0460863 2.395529 25 0 0 0 5.4612498
-18.650812 8.2200871 2.1775899 20 0 0 0 6.23771
-17.517889 8.235919 2.0700996 185 0 0 0 6.6277099
-16.340212 8.1697388 2.4027164 123 0 0 0 7.0220499
-15.76092 8.3666248 2.3480725 28 0 0 0 7.4176002
-14.683972 8.2584581 2.2188337 178 0 0 0 7.7997398
-13.134092 8.2523918 2.2370563 200 0 0 0 8.5792599
-12.739515 8.4447527 2.205348 311.5 0 0 0 8.9726496
-11.507127 8.4612455 2.2389276 267 0 0 0 9.7511702
-10.391174 8.4488554 2.1016304 100 0 0 0 10.53324
-12.696066 8.8708105 2.0442653 10 0 0 0 9.3664503
-12.182919 8.509882 2.3280823 10 0 0 0 9.3664503
-11.081343 8.5718832 2.196979 6 0 0 0 10.14376
-10.517947 8.5527525 2.4606252 242 0 0 0 10.53324
-9.8230553 8.5292253 2.2554188 222 0 0 0 11.050307
-8.6370621 8.5443001 2.2091393 417 0 0 0 12.08404
-8.373558 8.6982403 2.3437381 142 0 0 0 12.48072
-7.8264427 8.7463799 2.4231415 140 0 0 0 13.067739
-7.1674948 8.6240177 2.1794593 557.5 0 0 0 13.65761
-6.8032069 8.7487106 2.1997411 255 0 0 0 14.178794
-6.282166 8.7931767 2.3660402 184.5 0 0 0 14.82847
-5.7268195 8.7416763 2.3327277 487 0 0 0 15.483296
-5.2347269 8.8293076 2.3747938 25 0 0 0 16.18679
-4.344295 8.6691647 2.2929645 690.40002 0 0 0 17.31864
-3.7527955 8.8571119 2.2962613 374.14285 0 0 0 18.342237
-3.2862272 8.9488468 2.3262146 19 0 0 0 19.1166
11.0024 8.6436939 2.1879008 13 0 0 0 39.041634
-3.5607636 9.0151443 2.0097017 18 0 0 0 18.733629
-12.939075 11.637695 2.2962887 9 0 0 0 11.316
-12.447329 11.757608 2.260124 16 0 0 0 11.69868
-10.828144 11.842073 2.1208138 26 0 0 0 12.87063
-10.352443 11.892086 2.2788918 19 0 0 0 13.26485
-8.9237671 11.908433 2.3366399 20 0 0 0 14.44194
-8.2996035 11.962809 2.2874045 25 0 0 0 15.02519
-7.0967574 11.691904 2.4879785 22 0 0 0 15.99448
-6.7510295 11.761262 2.4673719 23 0 0 0 16.379101
-6.3778086 11.767842 2.4359415 29 0 0 0 16.779671
-15.808047 12.260139 2.1444364 12 0 0 0 10.14376
-4.4220514 12.121324 2.0318747 59 0 0 0 19.1166
-3.9339645 -31.819241 2.6332021 30 0 0 0 76.55957
-3.130168 -31.681499 2.6145082 51 0 0 0 76.160034
-1.553072 -31.399641 2.5814109 52 0 0 0 75.388687
-0.011073319 -31.321302 2.5710285 12 0 0 0 74.598709
0.7515704 -31.0804 2.5517604 16 0 0 0 74.209038
5.4266615 -31.346094 2.6068177 18 0 0 0 71.858971
85.720985 -14.863001 2.6694555 8 0 0 0 52.313461
-82.677765 -14.342167 2.7229326 9 0 0 0 96.889763
-82.992668 -12.306881 2.7218244 22 0 0 0 97.274811
-79.400673 -9.7892609 2.5962653 18 0 0 0 97.664001
-4.6122532 -8.1287403 2.6298623 5493 0 0 0 82.817909
-4.3994255 -8.2181072 2.7385478 5686.5 0 0 0 82.430061
-4.528749 -7.9846492 2.8088248 5510 0 0 0 82.817909
-13.90627 -7.4363503 2.8685486 109 0 0 0 91.804756
-14.087416 -6.6665025 2.8354974 69 0 0 0 92.583809
-6.1097651 -5.6755276 2.5551577 151.5 0 0 0 87.705536
-5.8583574 -5.7173643 2.6073756 208 0 0 0 87.320435
-15.649024 -5.1745272 2.9970133 82 0 0 0 94.55719
-14.863504 -5.3226495 2.8720822 111 0 0 0 94.163994
-14.06401 -5.4290681 2.7439468 158 0 0 0 93.771637
-13.122351 -5.4390125 2.9364347 81 0 0 0 93.374626
-10.572998 -5.1651263 2.7256188 147 0 0 0 92.385201
-6.7771616 -5.157939 2.6093316 161.5 0 0 0 89.269463
-5.2940259 -5.2936754 2.6644771 86 0 0 0 87.123024
-3.9744997 -5.352982 2.5384727 26 0 0 0 84.763191
-6.8146176 -4.8014059 2.5546336 151 0 0 0 89.85936
-5.1183262 -4.7549286 2.6591659 151.5 0 0 0 87.705536
-4.8057261 -4.8044338 2.587034 67 0 0 0 87.123024
6.0189643 -4.9552574 2.775032 61.5 0 0 0 60.51466
6.7384391 -4.756134 2.9336128 54 0 0 0 59.347019
-7.2386241 -4.1039438 2.5504735 127 0 0 0 91.427902
-6.6128082 -4.0748601 2.5744972 181 0 0 0 90.838936
-6.358366 -4.2514114 2.5971801 272 0 0 0 90.253235
-5.5687327 -4.1319904 2.6398404 170 0 0 0 89.46817
-5.2419143 -4.0919666 2.5325956 212 0 0 0 89.070755
5.8616323 -4.3600836 2.6925397 167 0 0 0 59.730881
-12.346052 -3.7487745 2.6702526 93 0 0 0 94.944687
-7.4089818 -3.9656522 2.9886677 232 0 0 0 91.804756
-6.6554708 -3.6641171 2.5189722 184.5 0 0 0 91.616333
-5.606576 -3.8489952 2.5898542 193 0 0 0 90.056808
6.1731877 -3.5058899 2.5311441 23 0 0 0 57.776234
7.943562 -3.7643394 2.9081368 97 0 0 0 56.600273
6.8610744 -3.2503555 2.8906157 21 0 0 0 56.600273
7.247623 -3.0054626 2.7933178 84 0 0 0 55.819752
7.7984543 -3.4635279 2.824286 16 0 0 0 56.216679
8.8242331 -3.406306 2.8916042 16 0 0 0 55.44088
9.0974102 -3.0059175 2.9284589 35 0 0 0 54.654007
6.7721381 -2.8092611 2.7038937 63.5 0 0 0 55.828781
7.0314465 -2.5179245 2.8447459 34 0 0 0 55.04734
9.1442909 -2.7735727 2.9207988 69 0 0 0 54.261089
36.464157 -2.6766937 2.9480722 20 0 0 0 50.753529
-6.7875271 -2.2477715 2.5477476 206 0 0 0 94.55719
-7.2854676 -1.7356634 2.6677542 163.5 0 0 0 95.908157
35.075958 0.01568461 2.8288491 16 0 0 0 49.575722
33.093548 0.82848924 2.6716995 26 0 0 0 49.187767
32.217655 1.5996792 2.6041353 28 0 0 0 48.805927
13.667387 2.3908463 2.5103481 276 0 0 0 46.848766
13.701117 2.7460418 2.7002993 391.5 0 0 0 46.461781
16.026213 2.8014007 2.5329204 81 0 0 0 46.848766
36.27113 2.6950619 2.9311624 25 0 0 0 48.40575
13.680859 3.2722254 2.7184672 400.75 0 0 0 45.876854
20.326818 3.0367081 2.6795185 28 0 0 0 47.241261
13.659654 3.8052177 2.7400737 399.5 0 0 0 45.291889
13.646862 4.1663637 2.7572255 348.5 0 0 0 44.898418
13.619073 4.7149725 2.7847724 312.25 0 0 0 44.309994
3.9837298 5.1967196 2.5011621 567 0 0 0 35.121021
4.3261828 5.2253981 2.5900664 478.5 0 0 0 35.71246
4.8020077 5.2453403 2.6258485 499 0 0 0 36.497353
5.359633 5.2724199 2.7175026 460.20001 0 0 0 37.317345
5.7724185 5.2970862 2.7918632 432 0 0 0 37.870152
6.3015871 5.3337302 2.7758477 94 0 0 0 38.489429
6.772315 5.3411074 2.7502151 58 0 0 0 39.041634
7.1313272 5.342247 2.7290595 114.66666 0 0 0 39.435799
7.6255808 5.4220877 2.7489662 138.5 0 0 0 39.81678
8.0248318 5.4113817 2.8406286 14 0 0 0 40.215118
8.5325527 5.4496994 2.7186759 84 0 0 0 40.598553
9.0840778 5.4895034 2.7156579 15 0 0 0 40.990421
9.5995464 5.4811187 2.5542667 9 0 0 0 41.386433
10.200882 5.4938326 2.675009 51 0 0 0 41.772472
13.60011 5.2777452 2.8184333 294.5 0 0 0 43.725849
-46.115627 5.6674819 2.6333351 31 0 0 0 1.56288
9.1415739 5.5238371 2.9985378 8 0 0 0 40.990421
9.6726952 5.5224471 2.8475142 9 0 0 0 41.386433
10.91422 5.5324392 2.672507 213.5 0 0 0 42.167568
11.720219 5.5804691 2.8325863 197.5 0 0 0 42.55769
12.601492 5.6204748 2.8385248 143 0 0 0 42.943779
13.571283 5.6548471 2.6591046 248 0 0 0 43.344231
-45.808266 6.7721791 2.625946 45 0 0 0 1.95649
-20.795448 7.9745317 2.9208827 17 0 0 0 5.4612498
10.988514 7.7902575 2.7735155 11 0 0 0 39.81678
-18.670063 8.2246304 2.678961 21 0 0 0 6.23771
-17.509083 8.2279491 2.5422904 174 0 0 0 6.6277099
-16.392788 8.1960707 2.8615913 84 0 0 0 7.0220499
-15.692928 8.3302565 2.7754006 30 0 0 0 7.4176002
-14.702446 8.2688303 2.6367562 135 0 0 0 7.7997398
-14.233027 8.4681931 2.7939348 11.5 0 0 0 8.1954098
-13.107885 8.2357368 2.8041997 230 0 0 0 8.5792599
-12.739375 8.4445896 2.769433 291 0 0 0 8.9726496
-11.507876 8.4617624 2.7653499 285.5 0 0 0 9.7511702
-9.9448538 8.4962845 2.6952264 408 0 0 0 10.91746
-12.262288 8.5656652 2.7112696 14 0 0 0 9.3664503
-11.087694 8.5768118 2.7145567 387 0 0 0 10.14376
-10.5819 8.6051626 2.8091023 378 0 0 0 10.53324
-9.6437588 8.6533718 2.8281469 379.5 0 0 0 11.316
-9.2138872 8.6816101 2.7643776 416 0 0 0 11.69868
-8.6647873 8.5705547 2.6623235 352.5 0 0 0 12.08404
-8.1995716 8.723259 2.7621305 15 0 0 0 12.675674
-7.7092624 8.8289204 2.8484402 16.5 0 0 0 13.26485
-7.1835041 8.6406097 2.7318094 413 0 0 0 13.65761
-6.7594833 8.7627411 2.6917772 434.25 0 0 0 14.24458
-6.2882667 8.8004036 2.7636776 692 0 0 0 14.82847
-5.7932692 8.7642899 2.8156404 563.25 0 0 0 15.41795
-5.2521205 8.858942 2.7613819 677 0 0 0 16.18679
-4.8339024 8.8803501 2.7117581 781.5 0 0 0 16.779671
-4.3196177 8.6705017 2.8381639 547.25 0 0 0 17.357464
-3.7515566 8.85254 2.8187287 317.66666 0 0 0 18.341669
10.98362 8.6285543 2.7027235 17 0 0 0 39.041634
-3.313602 9.0236111 2.8184428 25 0 0 0 19.1166
10.936805 9.0355339 2.5698376 22 0 0 0 38.646461
-11.169613 10.542737 2.7865918 8 0 0 0 11.69868
-5.8389215 10.757063 2.8278511 17 0 0 0 16.779671
-7.6624551 11.333376 2.823112 11 0 0 0 15.22191
-12.921749 11.622034 2.7214282 16 0 0 0 11.316
-12.466884 11.776242 2.6861851 21 0 0 0 11.69868
-10.843421 11.858996 2.5197117 22 0 0 0 12.87063
-10.107118 11.608194 2.794208 12 0 0 0 13.26485
-8.9015951 11.878736 2.6967602 22 0 0 0 14.44194
-8.2965727 11.958494 2.6453938 21.5 0 0 0 15.02519
-7.1045561 11.70515 2.8262765 12 0 0 0 15.99448
-6.7834001 11.818612 2.8131933 18 0 0 0 16.379101
-15.799653 12.249167 2.6326463 12 0 0 0 10.14376
-6.5316367 12.05557 2.830776 18 0 0 0 16.779671
-4.4172482 12.109118 2.6640143 11 0 0 0 19.1166
-6.1628108 -8.3042145 3.4164329 43 0 0 0 84.763191
-4.8033681 -8.4747305 3.4579175 426 0 0 0 82.817909
-13.217891 -6.6565452 3.0578268 61 0 0 0 92.186592
-12.836773 -6.8672853 3.3643725 98 0 0 0 91.804756
-13.425644 -6.3533106 3.0688634 97 0 0 0 92.583809
-13.467937 -5.9735231 3.0444272 103 0 0 0 92.977669
-14.109085 -5.2500868 3.1103942 78.5 0 0 0 93.967819
-7.9671388 -5.3293242 3.4044943 112 0 0 0 90.254257
-7.250186 -5.1108279 3.1525798 66 0 0 0 89.85936
-15.946139 -4.842165 3.0298772 86 0 0 0 94.944687
-14.377959 -4.754199 3.1284628 108 0 0 0 94.55719
7.4614944 -4.9936404 3.4100828 44 0 0 0 58.947273
-14.281686 -4.1469884 3.4367752 105 0 0 0 95.137199
8.3649359 -4.2142024 3.3260007 22 0 0 0 56.993992
8.5073481 -4.0264549 3.3420126 55 0 0 0 56.600273
-18.360994 -3.6581326 3.3995986 122 0 0 0 96.485962
-7.9527769 -3.7676978 3.1285932 235 0 0 0 92.583809
-7.4532776 -3.5309298 3.1355371 220 0 0 0 92.583809
8.9633989 -3.7173815 3.2058902 75 0 0 0 55.819752
9.471364 -3.6568065 3.3522701 36 0 0 0 55.44088
-8.2123117 -3.2901804 3.1455402 94.5 0 0 0 93.573135
-7.7970953 -3.1236289 3.193367 203 0 0 0 93.573135
-7.4381576 -3.3029737 3.0946414 209 0 0 0 92.977669
8.9821177 -3.4648092 3.4175179 27 0 0 0 55.44088
9.2368011 -3.2218812 3.3114226 68 0 0 0 54.916229
-13.127239 -2.9543912 3.1123126 5 0 0 0 96.096947
-12.516898 -2.8170469 3.2837794 140 0 0 0 96.096947
-12.006708 -2.7022433 3.4566317 28 0 0 0 96.096947
8.0888186 -2.6718876 3.2384415 6 0 0 0 54.654007
8.8295698 -2.9156973 3.3024316 31 0 0 0 54.654007
8.0306234 -2.4350691 3.1909125 56 0 0 0 54.261089
8.7916594 -1.297006 3.3768539 23 0 0 0 51.925873
33.083435 -0.7980231 3.4759288 18 0 0 0 49.969791
33.163372 0.015213598 3.4829719 26 0 0 0 49.575722
33.050537 1.641048 3.4750297 34 0 0 0 48.805927
32.652824 2.4270124 3.4386652 23 0 0 0 48.40575
13.71245 2.750771 3.2180314 344 0 0 0 46.461781
16.049557 2.8054581 3.342164 56 0 0 0 46.848766
13.677107 3.273838 3.2361701 394 0 0 0 45.876854
20.253475 3.0258074 3.1775062 26 0 0 0 47.241261
13.656019 3.8066931 3.2618639 324 0 0 0 45.291889
13.640249 4.1668491 3.2815225 352 0 0 0 44.898418
40.490074 4.0101957 3.2747607 16 0 0 0 48.017113
13.619694 4.717751 3.3163528 317.5 0 0 0 44.309994
6.0561557 5.2875142 3.0612619 132 0 0 0 38.253887
6.8712497 5.4209366 3.2218142 6 0 0 0 39.041634
7.1384754 5.3503275 3.2825303 54 0 0 0 39.435799
7.9987125 5.3965082 3.4277742 12 0 0 0 40.215118
8.0400171 5.4202523 3.2060595 5 0 0 0 40.215118
8.5761118 5.4780178 3.236227 8 0 0 0 40.598553
9.617713 5.4931536 3.3807325 4 0 0 0 41.386433
13.585817 5.2747746 3.352762 292 0 0 0 43.725849
6.6653953 5.5313077 3.2945886 4 0 0 0 38.646461
9.1685324 5.5420289 3.2716594 6 0 0 0 40.990421
9.6712255 5.5214453 3.1244075 8 0 0 0 41.386433
10.330797 5.5631313 3.1431592 10 0 0 0 41.772472
10.940576 5.5466118 3.2839952 178.5 0 0 0 42.167568
11.747641 5.5944881 3.3186805 186 0 0 0 42.55769
12.611176 5.6272707 3.179585 153 0 0 0 42.943779
13.558542 5.6507454 3.1990066 232.5 0 0 0 43.344231
-40.300621 6.9616199 3.3396192 23 0 0 0 2.35273
8.2310972 6.8145137 3.0005162 10 0 0 0 38.646461
-23.662052 7.7731934 3.2618756 63 0 0 0 4.6824498
-22.036842 7.8396282 3.0654845 61 0 0 0 5.0680299
-20.559021 7.8833985 3.4303668 85 0 0 0 5.4612498
-19.571804 8.0577364 3.2990563 80 0 0 0 5.8540401
-18.603308 8.1949902 3.1701295 21 0 0 0 6.23771
-17.505331 8.2260809 3.0180337 160 0 0 0 6.6277099
-17.193304 8.0786638 3.4324291 133 0 0 0 6.6277099
-16.392385 8.1957769 3.3128421 115 0 0 0 7.0220499
-15.802174 8.3884706 3.2351475 47 0 0 0 7.4176002
-14.644905 8.2361698 3.2450294 128.5 0 0 0 7.7997398
-14.024491 8.3432865 3.353219 127 0 0 0 8.1954098
-13.133186 8.2516804 3.1890371 192 0 0 0 8.5792599
-12.628263 8.3688221 3.2984824 224.5 0 0 0 8.9726496
-11.741111 8.4094105 3.3236675 191 0 0 0 9.5588102
-10.823548 8.3679037 3.4839256 299 0 0 0 10.14376
-10.339397 8.4034138 3.3938949 255 0 0 0 10.53324
-9.9482861 8.4962597 3.3333421 254 0 0 0 10.91746
-8.9929171 8.4701262 3.4546661 313 0 0 0 11.69868
-12.253429 8.5594006 3.0749836 14 0 0 0 9.3664503
-11.095236 8.5795832 3.2288992 279 0 0 0 10.14376
-10.59899 8.6161041 3.1455922 284 0 0 0 10.53324
-9.8099356 8.5861425 3.1622164 285 0 0 0 11.11673
-9.2047091 8.6714163 3.2237375 289 0 0 0 11.69868
-8.6406631 8.5450535 3.2487564 269 0 0 0 12.08404
-8.1991615 8.7229195 3.2018533 122.75 0 0 0 12.675674
-7.6919007 8.8089418 3.2733989 25 0 0 0 13.26485
-7.258986 8.585001 3.3313768 306.33334 0 0 0 13.52669
-6.733139 8.7259464 3.2225728 249 0 0 0 14.244579
-6.245604 8.7391062 3.2711611 450.66666 0 0 0 14.828471
-5.7595177 8.7125349 3.3113079 411.75 0 0 0 15.41795
-5.2279544 8.8152599 3.2519128 442 0 0 0 16.18679
-4.7918162 8.7986717 3.3001909 526.33331 0 0 0 16.779671
-4.3217549 8.673481 3.3145773 431.5 0 0 0 17.357464
-3.7860637 8.8093472 3.3047156 369.79999 0 0 0 18.263279
-3.2895923 8.9504013 3.3803875 309 0 0 0 19.1166
-3.5646036 9.0224047 3.2013221 28 0 0 0 18.733629
-3.3148229 9.0301628 3.1749673 37 0 0 0 19.1166
64.603432 -19.593248 3.737854 9 0 0 0 54.261089
-11.986822 -9.3591986 3.5121913 36 0 0 0 89.070755
-10.750641 -9.2769976 3.9816983 22 0 0 0 88.289185
-6.276475 -8.0439968 3.7455127 30 0 0 0 85.151344
-5.6677122 -8.481617 3.620034 50 0 0 0 83.985168
-13.538821 -7.6760254 3.594439 33 0 0 0 91.427902
-14.688933 -6.5185008 3.710835 100 0 0 0 92.977669
-14.20212 -5.686388 3.5343764 57.5 0 0 0 93.573135
7.2623243 -5.6776767 3.5001318 39 0 0 0 60.117088
-14.48354 -5.1895604 3.554085 74 0 0 0 94.163994
29.868166 -5.1697106 3.934983 2287 0 0 0 52.313461
-14.807951 -4.899363 3.6026938 57 0 0 0 94.55719
29.722782 -4.3953109 3.9004283 1456 0 0 0 51.925873
-14.545575 -3.6508701 3.8330829 106 0 0 0 95.719376
-18.307005 -3.1824844 3.8311901 10 0 0 0 96.889763
9.2071133 -2.5445275 3.6259825 33 0 0 0 53.878448
36.354874 -2.6683378 3.8255191 21 0 0 0 50.753529
-12.235361 -2.4399457 3.5037456 99 0 0 0 96.485962
-11.698513 -2.3350275 3.6445675 13 0 0 0 96.485962
9.4362946 -2.1136591 3.670258 13 0 0 0 53.089081
45.794178 -2.2322319 3.6867614 20 0 0 0 50.366833
-12.763719 -1.899765 3.6228712 30 0 0 0 97.274811
36.836304 -1.7951376 3.8695724 16 0 0 0 50.366833
35.961731 0.90012467 3.7745018 14 0 0 0 49.187767
13.703451 2.74895 3.7337894 311 0 0 0 46.461781
16.109715 2.8188283 3.7556052 55 0 0 0 46.848766
