# .PCD v0.7 - Point Cloud Data file format
VERSION 0.7
FIELDS x y z intensity normal_x normal_y normal_z curvature
SIZE 4 4 4 4 4 4 4 4
TYPE F F F F F F F F
COUNT 1 1 1 1 1 1 1 1
WIDTH 919
HEIGHT 1
VIEWPOINT 0 0 0 1 0 0 0
POINTS 919
DATA ascii
7.3963451 4.8478866 -0.56658614 493.5 0 0 0 40.381218
-3.5979695 5.0024867 -0.51173139 749 0 0 0 14.81561
-3.2929165 5.0079865 -0.60705376 513.25 0 0 0 15.500355
-2.7657452 5.0283275 -0.6165238 467 0 0 0 16.76202
-2.2372348 5.0392017 -0.66037822 528.875 0 0 0 18.129566
-1.7467755 5.0597639 -0.64163518 375.5 0 0 0 19.499006
-1.2808323 5.0804272 -0.62912458 267 0 0 0 20.862812
-0.7640925 5.0913672 -0.61957675 211.625 0 0 0 22.420321
-0.25929242 5.1145463 -0.61804646 310.75 0 0 0 23.980124
0.2461898 5.1371431 -0.62272602 242.375 0 0 0 25.548161
0.76185328 5.1563749 -0.63343829 254.75 0 0 0 27.105854
1.2180481 5.1315846 -0.64235866 308.83334 0 0 0 28.466501
1.7224438 5.1964078 -0.60234123 359.5 0 0 0 29.831924
2.2460487 5.2125454 -0.62720066 307.33334 0 0 0 31.197126
2.7355983 5.2340655 -0.58212835 347.5 0 0 0 32.367062
3.2879791 5.2087173 -0.62054306 363.28571 0 0 0 33.647194
3.7536073 5.2755384 -0.56340289 453.5 0 0 0 34.51181
4.1778436 5.2933512 -0.58889544 424 0 0 0 35.296249
4.6387744 5.3111601 -0.61803007 388 0 0 0 36.080284
5.1370907 5.3228683 -0.65061855 556 0 0 0 36.866211
5.7697105 5.2800989 -0.64129257 368.75 0 0 0 37.844242
6.3193645 5.3627663 -0.52827549 432.5 0 0 0 38.427723
6.8645291 5.4005823 -0.5589096 381 0 0 0 39.020927
7.324687 5.3339319 -0.58141029 364 0 0 0 39.595581
-1.8200549 -24.348288 -0.38274038 10 0 0 0 75.725029
-0.6184603 -24.187305 -0.37932768 10 0 0 0 74.946861
3.9848425 -23.123636 -0.3688758 18 0 0 0 71.814072
4.5460877 -22.994724 -0.36878657 163 0 0 0 71.427727
5.6999726 -22.869762 -0.37176281 9 0 0 0 70.644173
6.2820687 -22.80522 -0.37363267 13 0 0 0 70.255211
10.944617 -21.806906 -0.38975024 25 0 0 0 67.135033
11.567542 -21.702095 -0.39356473 64 0 0 0 66.737961
-21.483801 -19.459349 -0.46222588 6 0 0 0 87.833359
-2.498404 -11.027209 -0.43246409 28 0 0 0 78.075127
-5.3174419 -10.528788 -0.30866402 126 0 0 0 81.97583
-4.658926 -10.471601 -0.15902522 4 0 0 0 81.194115
-4.1220326 -10.380286 -0.33640131 83.666664 0 0 0 80.542
-3.282763 -10.298418 -0.27927166 397.5 0 0 0 79.437073
-2.8704567 -10.299253 -0.27683511 896.5 0 0 0 78.847771
9.6563463 -7.5671673 -0.48206297 20 0 0 0 60.0835
9.5716352 -7.128727 -0.46825933 27 0 0 0 59.696281
-6.1792235 -6.636807 -0.11862212 943.5 0 0 0 86.475677
-5.9404445 -6.8721538 -0.11876539 201 0 0 0 85.889008
-2.1499813 -6.6271987 -0.19415939 198.66667 0 0 0 79.500206
26.978666 -6.7707052 -0.47802606 15 0 0 0 53.45335
-6.7809935 -6.4455028 -0.12377161 257 0 0 0 87.452896
9.6516829 -6.4765434 -0.45571846 7 0 0 0 58.920818
10.281818 -6.1880984 -0.47256505 306 0 0 0 58.13958
10.777005 -6.1295791 -0.4899452 10 0 0 0 57.747929
0.19209246 -5.8746428 -0.49560609 292.5 0 0 0 73.969498
1.2470993 -5.6732178 -0.490091 154 0 0 0 71.0438
27.826773 -5.5460048 -0.49074179 25 0 0 0 52.670658
-7.6571507 -5.1087294 -0.34646225 317 0 0 0 90.19577
2.7453856 -5.3501873 -0.36139211 2682.5 0 0 0 66.936493
-9.5555382 -4.8063321 -0.1482504 343 0 0 0 92.123611
-6.7256894 -4.7288713 -0.40271151 635 0 0 0 89.803619
-6.1706471 -4.5681152 -0.47012821 574 0 0 0 89.4105
-8.0878592 -4.3174634 -0.34538519 279 0 0 0 91.740845
-7.1581707 -4.2841763 -0.31067321 603 0 0 0 90.976715
-6.8311896 -4.0883026 -0.48933998 378 0 0 0 90.976715
-6.0744095 -4.4967942 -0.27751911 411 0 0 0 89.4105
-5.2196093 -4.2742229 -0.32542533 275.5 0 0 0 88.620079
-4.8237224 -4.1509504 -0.38286528 513 0 0 0 88.229538
-4.4193311 -4.0602798 -0.30997065 550.33331 0 0 0 87.706543
-9.6386528 -3.7159152 -0.14243135 148 0 0 0 93.700783
-8.5371046 -3.5321107 -0.34884393 242 0 0 0 93.30278
-8.2142487 -3.8803105 -0.34214407 258 0 0 0 92.523643
-7.7090306 -3.8753924 -0.32295418 173 0 0 0 92.123611
-5.6919532 -3.6662657 -0.24302395 261.33334 0 0 0 90.454704
-5.3883705 -3.5936537 -0.39079362 363 0 0 0 90.19577
-4.6139817 -3.8242424 -0.17749497 232 0 0 0 88.523926
-4.1932573 -3.9808812 -0.20304917 323 0 0 0 87.452896
-3.7718444 -3.8707688 -0.34528121 408 0 0 0 86.830063
-3.2104466 -3.7696657 -0.26859394 261.16666 0 0 0 85.756104
-2.6859887 -3.7854311 -0.1922075 145.33333 0 0 0 84.321686
-2.1978533 -3.6896021 -0.29473093 103.75 0 0 0 83.053886
-1.7763925 -3.6618414 -0.35456347 79.25 0 0 0 81.685219
3.8293133 -3.6787035 -0.25217289 272 0 0 0 61.649979
4.2600212 -3.7028096 -0.24768244 224.44444 0 0 0 60.869576
4.8334126 -3.5829413 -0.21758702 352.14285 0 0 0 59.642944
5.2477865 -3.5310583 -0.23098899 437.5 0 0 0 58.920818
-8.3837576 -3.4703496 -0.12050205 247 0 0 0 93.30278
-7.5849552 -3.3580291 -0.30926681 259 0 0 0 92.910385
-7.2534451 -3.2126956 -0.10060884 161 0 0 0 92.910385
-6.9044714 -3.3667531 -0.28488913 346.5 0 0 0 92.323624
-5.9216838 -3.3500473 -0.13649178 197 0 0 0 91.361046
-4.1810675 -3.1333048 -0.083833009 88.5 0 0 0 89.311806
-3.6119399 -3.4276991 -0.413811 197 0 0 0 87.452896
-2.8755615 -3.4901588 -0.48303434 45 0 0 0 85.492271
-2.2135632 -3.411027 -0.16507143 27.333334 0 0 0 83.668335
5.4666691 -3.4852924 -0.23756178 372 0 0 0 58.527321
5.8396215 -3.4239874 -0.25016236 421.25 0 0 0 57.943756
6.1729636 -3.3202944 -0.26091918 511.33334 0 0 0 57.360378
6.710947 -3.2927477 -0.28128612 422.25 0 0 0 56.768959
7.284586 -3.1390769 -0.25218922 502.25 0 0 0 55.985046
7.9177723 -3.0690401 -0.11708842 493 0 0 0 55.402431
8.3582811 -3.005456 -0.23352638 298.5 0 0 0 55.021221
-5.2312312 -2.9595864 -0.06692265 121 0 0 0 91.365555
-4.5533152 -2.8786199 -0.055973999 527 0 0 0 90.584175
-2.7728796 -2.9005461 -0.26045552 51.666668 0 0 0 86.674042
8.823431 -2.9287837 -0.24704653 359.5 0 0 0 54.623169
9.3695145 -2.8552413 -0.26279435 362.5 0 0 0 54.235191
9.7167168 -2.7010584 -0.27161413 517.5 0 0 0 53.847607
10.455091 -2.6312129 -0.42558587 229 0 0 0 53.45335
10.947956 -2.468771 -0.30754116 266 0 0 0 53.066929
11.371364 -2.2724686 -0.46163559 60 0 0 0 52.670658
11.934201 -2.0804801 -0.48448306 233 0 0 0 52.279339
14.050806 -2.0907826 -0.2272549 530 0 0 0 51.894432
15.343839 -1.8981687 -0.25144649 439 0 0 0 51.496807
14.665089 -1.4488866 -0.23842427 305 0 0 0 51.11644
16.948328 -1.2539649 -0.28168941 141 0 0 0 50.720512
19.851633 -0.97839397 -0.3369396 165 0 0 0 50.326168
27.476622 -0.67775977 -0.48214677 67 0 0 0 49.936039
24.177225 -0.0015961571 -0.42037803 23 0 0 0 49.551479
25.581951 0.62732208 -0.44829887 15 0 0 0 49.159313
-19.907509 2.4579811 -0.25742427 70 0 0 0 1.56336
7.4514465 2.4786205 -0.30522013 852 0 0 0 44.483608
7.8982196 2.4115763 -0.2214254 208 0 0 0 44.86673
9.9266195 2.4978278 -0.4089494 123 0 0 0 45.648247
-19.513594 2.8946774 -0.25342286 218 0 0 0 1.94757
7.4403667 2.7856965 -0.21169147 957.25 0 0 0 43.890415
8.9918365 2.5023439 -0.25504434 563 0 0 0 45.25568
9.9318905 2.5011191 -0.15792342 274 0 0 0 45.648247
11.304932 2.5492141 -0.32574153 59 0 0 0 46.044369
13.278355 2.6513064 -0.22102837 49 0 0 0 46.431961
15.862627 2.7607934 -0.26997215 17 0 0 0 46.817139
-19.51622 3.3842027 -0.2556892 246 0 0 0 2.33675
7.4447398 3.2149677 -0.21703358 774 0 0 0 43.119907
-19.564322 3.8871439 -0.25889641 115 0 0 0 2.7321701
7.4507775 3.7326398 -0.24489751 556.79999 0 0 0 42.218903
7.4279923 4.2895803 -0.21146163 542.59998 0 0 0 41.282043
-12.138052 4.6587515 -0.31705081 212 0 0 0 5.4566798
-11.338915 4.6705332 -0.29738623 217.5 0 0 0 5.8493299
-10.684361 4.7071238 -0.28194779 238 0 0 0 6.2378998
-10.128992 4.759738 -0.40365678 286 0 0 0 6.6229701
-9.7759686 4.7358837 -0.2569766 299 0 0 0 6.8225551
-9.2377739 4.754981 -0.24473152 284.5 0 0 0 7.2137299
-8.7405663 4.7705421 -0.23369953 299 0 0 0 7.599165
-8.1994982 4.780005 -0.18418293 310 0 0 0 8.0571756
-7.674902 4.8145003 -0.21208207 368.5 0 0 0 8.5771198
-7.3086452 4.8351288 -0.20429307 370 0 0 0 8.9723501
-6.7573867 4.8545885 -0.25259849 446.79999 0 0 0 9.5953321
-6.1979432 4.9002204 -0.27694535 456.33334 0 0 0 10.333506
-5.6815143 4.9162793 -0.38291368 568.66669 0 0 0 11.04885
-5.1886191 4.9353609 -0.24875669 599.57141 0 0 0 11.802027
-4.6840086 4.9608111 -0.23590334 673.83331 0 0 0 12.66758
-4.2619596 4.9755025 -0.2258404 793.5 0 0 0 13.44503
-3.7775333 4.9902015 -0.21499626 900.66669 0 0 0 14.429051
-3.1538191 4.9971657 -0.16601868 835.5 0 0 0 15.794729
7.4195185 4.8638306 -0.24158701 451 0 0 0 40.381218
-5.8235164 5.0828848 -0.083864138 96 0 0 0 11.114124
-3.2716668 5.0075212 -0.30797815 748.85712 0 0 0 15.542409
-2.7613089 5.0257049 -0.26593426 664.66669 0 0 0 16.76202
-2.2370605 5.0441618 -0.25593618 579.875 0 0 0 18.129564
-1.7440313 5.0590072 -0.24827792 478 0 0 0 19.499006
-1.279462 5.0837393 -0.24384832 375 0 0 0 20.86281
-0.76301241 5.0976415 -0.24051583 362.625 0 0 0 22.420319
-0.25739712 5.1109519 -0.24007013 525.5 0 0 0 23.980127
0.24794613 5.1331768 -0.24260803 415.8125 0 0 0 25.548159
0.76479769 5.1628532 -0.24823071 341.6875 0 0 0 27.105848
1.2300103 5.1706882 -0.25461248 422.08334 0 0 0 28.466501
1.7233627 5.1922541 -0.26438129 514.1875 0 0 0 29.831928
2.2484541 5.212656 -0.27694604 503 0 0 0 31.197126
2.7326491 5.2261748 -0.21725616 524.11108 0 0 0 32.367062
3.2617369 5.2445908 -0.23008381 608.88892 0 0 0 33.535992
3.7462816 5.2655063 -0.24298538 709.33331 0 0 0 34.51181
4.1709671 5.2849021 -0.25528252 695.83331 0 0 0 35.296249
4.6362066 5.3084292 -0.26948953 685.33331 0 0 0 36.080288
5.1357665 5.3216386 -0.28498414 726.33331 0 0 0 36.866211
5.668241 5.3437381 -0.26356283 681.79999 0 0 0 37.609138
6.3253031 5.3683748 -0.22303337 654.25 0 0 0 38.427723
6.8368988 5.3798532 -0.23601112 605.5 0 0 0 39.020927
7.3179984 5.3295703 -0.24742678 417.5 0 0 0 39.595581
22.831549 -38.136551 0.34197855 17 0 0 0 65.951241
1.5338914 -31.648172 0.26436603 189 0 0 0 73.773232
2.3054173 -31.54159 0.26359326 140 0 0 0 73.384483
8.4169464 -30.501419 0.26021472 15 0 0 0 70.255211
33.69392 -25.011406 0.30893913 38 0 0 0 59.696281
-0.61380869 -24.182398 0.21149732 22 0 0 0 74.946861
10.978158 -21.862997 0.20688298 26 0 0 0 67.135033
22.245966 -20.190039 0.23557584 60 0 0 0 61.257088
51.950241 -20.050228 0.37614426 18 0 0 0 55.402431
50.42886 -15.305497 0.35192257 19 0 0 0 54.235191
-5.5345979 -10.328802 0.1222746 34 0 0 0 82.366798
-3.4802966 -10.479361 0.39273679 21 0 0 0 79.636009
11.44549 -7.6694546 0.12706517 38 0 0 0 58.920818
28.367476 -7.1128101 0.2106548 53 0 0 0 53.45335
-6.6907711 -6.6816945 0.1050948 1002 0 0 0 87.07077
-2.1526747 -6.6369433 0.25879234 135 0 0 0 79.500206
12.064003 -6.8552866 0.47328207 27 0 0 0 57.747929
-6.7633028 -6.4309373 0.10412415 69 0 0 0 87.452896
12.387843 -6.2545519 0.47244105 29 0 0 0 56.966568
27.927404 -5.5602651 0.20384964 43 0 0 0 52.670658
2.9821641 -5.3160648 0.23256095 451 0 0 0 66.342461
-11.322998 -4.0516748 0.12138958 148 0 0 0 94.101967
-7.9508758 -4.0005255 0.099844404 214 0 0 0 92.123611
-5.9215994 -4.3851614 0.27300075 97 0 0 0 89.4105
-5.4330187 -4.0243287 0.085210882 372 0 0 0 89.4105
-4.4667768 -4.0399284 0.15547709 166.5 0 0 0 87.833359
25.900331 -4.4983687 0.19017988 18 0 0 0 52.279339
-10.743184 -3.8420401 0.40143579 90 0 0 0 94.101967
-9.499012 -3.6620636 0.36217454 179 0 0 0 93.700783
-5.1357341 -3.612437 0.081674188 287 0 0 0 89.803619
-4.7658391 -3.8378794 0.33265936 332 0 0 0 88.754211
-4.3179946 -3.7176564 0.499798 162 0 0 0 88.229538
-3.9971054 -3.7956283 0.34806132 264 0 0 0 87.452896
-3.1897068 -3.6229036 0.31238008 73 0 0 0 86.019928
-2.9026632 -3.5233934 0.40778032 62 0 0 0 85.492271
3.8099608 -3.6580758 0.20455882 289 0 0 0 61.649979
4.2392192 -3.6834049 0.21625771 333.33334 0 0 0 60.869579
4.8302326 -3.559252 0.18995006 406.75 0 0 0 59.601791
5.2105703 -3.5049689 0.23650666 326 0 0 0 58.920818
-8.9721632 -3.4606795 0.10447077 105 0 0 0 93.700783
-7.6920633 -3.1847017 0.19799584 348 0 0 0 93.30278
-7.0353079 -3.1174905 0.091067426 275 0 0 0 92.910385
-6.7713456 -3.0979328 0.32131433 442 0 0 0 92.71701
-6.1871686 -3.3035648 0.43233129 259 0 0 0 91.740845
-5.3749156 -3.0422041 0.080616787 263 0 0 0 91.365555
-4.7794971 -3.1029654 0.14654796 229 0 0 0 90.389969
-4.3071418 -3.134114 0.33608589 187 0 0 0 89.541534
-3.732002 -3.2109377 0.1945916 100 0 0 0 88.229538
-3.1292329 -3.2751319 0.18216127 86 0 0 0 86.669586
-1.9831729 -3.4765227 0.45892027 69 0 0 0 82.762306
4.9252915 -3.4929872 0.37722728 456 0 0 0 59.313686
5.4508891 -3.4740665 0.24211636 131 0 0 0 58.527321
5.7253394 -3.4529333 0.24889639 30 0 0 0 58.13958
6.1314902 -3.2961397 0.25579593 449 0 0 0 57.360378
7.300571 -3.1086557 0.15426986 435.33334 0 0 0 55.918854
-6.3072801 -2.9803371 0.25972912 522 0 0 0 92.523643
-5.7741671 -2.9033656 0.32226741 626 0 0 0 92.123611
-5.3152223 -2.8922813 0.22757669 383.66666 0 0 0 91.615746
-4.715097 -2.859827 0.29576504 334.875 0 0 0 90.878113
-4.4384623 -2.9615669 0.074844129 383 0 0 0 90.19577
-3.5388715 -2.7558606 0.068951808 102 0 0 0 89.016548
-3.3313468 -2.7266829 0.32417089 62.857143 0 0 0 88.620613
8.2454329 -2.9622533 0.092278652 6 0 0 0 55.021221
8.5713806 -2.8432999 0.20664567 194.5 0 0 0 54.623169
9.7034025 -2.6950212 0.22498935 497.5 0 0 0 53.847607
-3.6068869 -2.4689713 0.33782423 160.5 0 0 0 89.999695
-3.2059658 -2.4960406 0.36637777 56 0 0 0 89.016548
10.953331 -2.4674006 0.24537182 262 0 0 0 53.066929
13.997088 -2.0799661 0.12023441 361 0 0 0 51.894432
13.357655 -1.9871993 0.45442945 48 0 0 0 51.894432
15.292102 -1.8887031 0.12674467 413 0 0 0 51.496807
16.754631 -1.6516787 0.13410877 320 0 0 0 51.11644
18.046352 -1.3315556 0.14040715 203 0 0 0 50.720512
19.871067 -0.97543085 0.14957105 77 0 0 0 50.326168
24.482243 -0.59896672 0.17385206 111 0 0 0 49.936039
29.239054 1.4420291 0.19660859 493 0 0 0 48.766579
-19.899315 2.4542997 0.2300466 56 0 0 0 1.56336
7.447865 2.4793053 0.17885034 989.5 0 0 0 44.483608
7.9143314 2.4181442 0.18628919 206 0 0 0 44.86673
8.7973633 2.4504356 0.20153774 164 0 0 0 45.25568
9.9233541 2.4992342 0.34935775 132 0 0 0 45.648247
-19.511412 2.8917503 0.22601646 110 0 0 0 1.94757
7.4300041 2.7833965 0.18022335 922 0 0 0 43.890415
9.9341192 2.5036509 0.093138643 127 0 0 0 45.648247
11.346285 2.5608838 0.24623695 202.5 0 0 0 46.044369
13.285259 2.6541758 0.28048816 113.5 0 0 0 46.431961
15.991923 2.7863371 0.12493566 84 0 0 0 46.817139
19.65929 2.9265046 0.14437266 35 0 0 0 47.206581
35.354683 2.6150215 0.22863145 14 0 0 0 48.38187
-19.534828 3.3848436 0.22592312 211 0 0 0 2.33675
7.4220219 3.2065609 0.18266311 924.25 0 0 0 43.119907
-19.542734 3.8802433 0.22576012 153 0 0 0 2.7321701
7.4079022 3.7595165 0.18637489 909.5 0 0 0 42.140743
7.3932781 4.3434105 0.1909239 862.5 0 0 0 41.16507
33.451233 4.1354513 0.2175938 15 0 0 0 47.604679
42.197918 4.1648216 0.26443276 63 0 0 0 47.992168
-5.1395121 4.9410315 0.27244216 909.83331 0 0 0 11.88404
-4.6792464 4.9559746 0.26135042 997.66669 0 0 0 12.66758
-4.2560868 4.9687195 0.25171211 1236.6666 0 0 0 13.44503
-3.7734451 4.9850082 0.24145328 1275.3334 0 0 0 14.42905
-3.32616 4.9960256 0.085119501 1151 0 0 0 15.40376
7.3764606 4.8376145 0.19509695 771.75 0 0 0 40.381218
-3.2226167 5.008996 0.27307525 1185.7142 0 0 0 15.654115
-2.7394333 5.0147643 0.24992228 951.79999 0 0 0 16.801167
-2.2319374 5.0328274 0.28212118 795.1875 0 0 0 18.129562
-1.741212 5.0510488 0.2739037 736.75 0 0 0 19.499006
-1.2767854 5.072814 0.26828706 600.25 0 0 0 20.862812
-0.76249427 5.093904 0.26399305 572.75 0 0 0 22.420317
-0.25721091 5.1081409 0.26163644 663.375 0 0 0 23.980124
0.24758294 5.1293535 0.26176319 605.875 0 0 0 25.548159
0.7636295 5.1566248 0.26444533 478.375 0 0 0 27.10585
1.2289051 5.1668363 0.26810521 505 0 0 0 28.466497
1.7193998 5.1816144 0.27404866 644.0625 0 0 0 29.831928
2.2435935 5.2027278 0.28225568 642 0 0 0 31.197123
2.7028599 5.2232342 0.16909806 14.666667 0 0 0 32.302425
3.302501 5.2680216 0.22757748 26.714285 0 0 0 33.591297
3.738687 5.2838812 0.23444311 20.799999 0 0 0 34.472332
4.2089405 5.2896781 0.18766667 19 0 0 0 35.360138
4.6022124 5.3380384 0.20709699 37.5 0 0 0 35.983498
5.142724 5.3314505 0.077991918 28.5 0 0 0 36.866211
5.7872291 5.4301739 0.27786911 94.666664 0 0 0 37.648563
6.1397476 5.3463421 0.3850289 19 0 0 0 38.234127
6.7423043 5.3965669 0.15648754 477.66666 0 0 0 38.887726
7.3013897 5.3195548 0.19878031 649.5 0 0 0 39.595581
6.7887783 5.6189198 0.30530789 80 0 0 0 38.621319
7.3847914 6.4225917 0.089517906 15 0 0 0 38.234127
-19.66139 7.0142546 0.22718935 17 0 0 0 5.0721202
-18.896376 7.2658238 0.22036891 50 0 0 0 5.4566798
-17.706234 7.3080573 0.20959918 63 0 0 0 5.8493299
-16.705107 7.3760142 0.20064059 93 0 0 0 6.2378998
-15.709033 7.3981953 0.19175358 81 0 0 0 6.6229701
-14.827732 7.4292655 0.1839643 105 0 0 0 7.02214
-14.037628 7.4661102 0.17706196 113 0 0 0 7.4053202
7.3765726 7.4351892 0.3552314 85 0 0 0 37.064499
-13.314103 7.5023994 0.17080468 134 0 0 0 7.7930098
-12.600943 7.5099316 0.16464855 148 0 0 0 8.1892595
-11.952921 7.7307496 0.15954632 290.5 0 0 0 8.7747345
7.3528643 7.7847586 0.36234847 288 0 0 0 36.667927
-11.936201 8.3554144 0.16081934 348 0 0 0 9.3631201
7.312355 8.1331139 0.36930496 211 0 0 0 36.273861
-11.613346 8.5590487 0.15871017 256 0 0 0 9.7501402
-11.066226 8.5790043 0.15437619 283 0 0 0 10.14031
-10.532785 8.5857162 0.31889853 337.5 0 0 0 10.5267
-10.069385 8.6242533 0.31117228 309.5 0 0 0 10.9183
-9.6012726 8.6369696 0.30337775 336.5 0 0 0 11.30995
7.3308773 9.2369347 0.39531231 35 0 0 0 35.296249
-78.584358 -13.644388 0.59510833 34 0 0 0 96.811005
-78.922844 -11.715985 0.59454256 25 0 0 0 97.206657
-79.200119 -9.7774506 0.59388995 25 0 0 0 97.599586
-83.292938 -8.2132578 0.6203649 29 0 0 0 97.982521
-5.9689417 -6.9053221 0.55321687 32 0 0 0 85.889008
-83.591713 -6.1758633 0.62045974 21 0 0 0 98.372643
-6.8337622 -4.5606403 0.50067943 87 0 0 0 90.19577
25.942049 -4.5096221 0.84852523 11 0 0 0 52.279339
-11.526886 -4.1223826 0.72736126 82 0 0 0 94.101967
-10.121269 -3.9020381 0.64865732 338 0 0 0 93.700783
-9.2046328 -3.8102922 0.59871668 349 0 0 0 93.30278
-7.1882572 -3.8401647 0.89654052 33 0 0 0 91.740845
-3.934587 -3.7374551 0.60910791 29 0 0 0 87.452896
-3.140275 -3.8129976 0.5578115 74 0 0 0 85.492271
-6.7310944 -3.2837691 0.64515352 515.5 0 0 0 92.323624
-5.1273932 -3.0701632 0.66675174 674 0 0 0 90.976715
-4.84271 -3.4060574 0.51770586 168 0 0 0 89.803619
-3.5011411 -3.0129297 0.52350563 41 0 0 0 88.229538
-1.8827417 -3.4974508 0.5529179 24 0 0 0 82.366798
-5.5792327 -2.9799349 0.55036169 820 0 0 0 91.740845
-5.1369009 -2.9073582 0.58806962 237 0 0 0 91.365555
-4.7013793 -2.9735358 0.62306297 324 0 0 0 90.584175
-4.4429731 -2.964608 0.59967381 390 0 0 0 90.19577
-3.6869035 -2.7029507 0.60712957 134.60001 0 0 0 89.488953
-3.1424634 -2.4473751 0.65158165 71 0 0 0 89.016548
29.485823 1.4495935 0.93575931 54 0 0 0 48.766579
10.071604 2.6703444 0.74086285 731.75 0 0 0 45.451965
11.333696 2.5583682 0.82150352 216 0 0 0 46.044369
13.273616 2.6509459 0.78144455 142 0 0 0 46.431961
15.903146 2.768436 0.72625399 95 0 0 0 46.817139
-20.265356 3.0083916 0.74202704 216 0 0 0 1.94757
10.045233 3.2009842 0.74874979 690.5 0 0 0 44.675171
-20.23937 3.5119364 0.74283367 228 0 0 0 2.33675
10.028254 3.749433 0.75933838 584 0 0 0 43.890415
-20.281151 4.0320601 0.74639946 205 0 0 0 2.7321701
10.007051 4.3149414 0.77191204 546.25 0 0 0 43.119904
-5.1340108 4.9358926 0.79327625 878.33331 0 0 0 11.88404
-4.6745124 4.9509869 0.75932854 969 0 0 0 12.66758
-4.2538371 4.9663315 0.72993851 1137 0 0 0 13.44503
-3.7547526 4.985538 0.72776449 1213.6 0 0 0 14.467708
-3.4119146 4.9958954 0.75057495 1210.25 0 0 0 15.20598
9.9964428 4.7550497 0.78314459 561 0 0 0 42.529678
-3.1582527 5.0050755 0.73479182 1134.875 0 0 0 15.79473
-2.7708549 5.017508 0.73107201 1002.2727 0 0 0 16.726433
-2.2307312 5.0303826 0.75170821 929 0 0 0 18.129564
-1.7384968 5.0431972 0.79471761 937.66669 0 0 0 19.499006
-1.275719 5.0695372 0.77944928 734.125 0 0 0 20.86281
-0.76187593 5.0904016 0.76794755 662.375 0 0 0 22.420319
-0.25711459 5.1041427 0.7626397 676 0 0 0 23.980127
0.24725649 5.1264973 0.76572847 645.1875 0 0 0 25.548159
0.76265299 5.1522074 0.77633452 560.6875 0 0 0 27.10585
1.2275344 5.1623988 0.79013228 607.58331 0 0 0 28.466501
1.7193794 5.1829038 0.74447799 622.33331 0 0 0 29.831926
2.24277 5.2020855 0.77060848 644.33331 0 0 0 31.197126
2.7370107 5.2367458 0.72940916 148.58333 0 0 0 32.367062
3.2487922 5.2528734 0.73939615 346.45456 0 0 0 33.50079
3.7470767 5.26896 0.71413732 331.16666 0 0 0 34.51181
4.172462 5.2891412 0.74237704 323.66666 0 0 0 35.296249
4.6859894 5.3092918 0.75254047 425.57144 0 0 0 36.164238
5.1395597 5.3283062 0.81005943 278.5 0 0 0 36.866211
5.6931877 5.3428268 0.75723761 209.75 0 0 0 37.648567
6.1805515 5.3831835 0.79268342 141.5 0 0 0 38.234127
6.7039518 5.3839636 0.76484919 401.60001 0 0 0 38.861084
7.219358 5.3978786 0.75588131 489 0 0 0 39.402447
7.6140795 5.4034672 0.66692066 419 0 0 0 39.788719
8.0653286 5.4278679 0.69250643 399.5 0 0 0 40.187408
8.5343847 5.4409895 0.71953779 386.5 0 0 0 40.575031
9.0631466 5.4668283 0.75035977 413.5 0 0 0 40.96862
9.8623714 5.3012042 0.79156607 450.16666 0 0 0 41.751354
6.7702217 5.603581 0.52035177 57 0 0 0 38.621319
7.4227061 7.4810896 0.61571884 37 0 0 0 37.064499
7.3508782 7.7824197 0.62485397 195 0 0 0 36.667927
-21.86331 8.4171972 0.83078116 32 0 0 0 5.4566798
-20.547752 8.4916925 0.78910637 21 0 0 0 5.8493299
-19.183847 8.4810333 0.74541098 42 0 0 0 6.2378998
-16.677315 8.3658628 0.66513282 134 0 0 0 7.02214
-13.475589 8.4927454 0.56949162 99 0 0 0 8.5771198
7.2163892 8.0269709 0.62976789 209 0 0 0 36.273861
-18.090002 8.5303755 0.71137708 120 0 0 0 6.6229701
-16.11434 8.5818005 0.65050787 92 0 0 0 7.4053202
-15.116292 8.5287285 0.61925787 142 0 0 0 7.7930098
-14.49775 8.652235 0.60234451 90 0 0 0 8.1892595
-13.629685 8.5916204 0.96790212 214 0 0 0 8.5771198
-13.061872 8.6855555 0.94230813 49 0 0 0 8.9723501
-12.80432 8.5120907 0.55007851 152 0 0 0 8.9723501
-12.222123 8.5618191 0.71638703 218.5 0 0 0 9.3631201
-11.720606 8.6435432 0.70036066 172 0 0 0 9.7501402
-11.21509 8.7001228 0.68362474 172.5 0 0 0 10.14031
-10.658603 8.6923208 0.82761776 317 0 0 0 10.5267
-10.277952 8.8075914 0.81428069 71 0 0 0 10.9183
-9.8655739 8.8799992 0.79845631 45 0 0 0 11.30995
7.3174582 9.4525557 0.69328463 31 0 0 0 35.104591
9.8277531 13.331173 0.53862274 11 0 0 0 34.709202
9.7420683 15.478956 0.5914039 13 0 0 0 33.539539
9.5933409 16.105761 0.60551196 13 0 0 0 33.145271
8.7866602 16.552103 0.60614479 12 0 0 0 32.36787
-0.025568847 -34.067684 1.1323395 155 0 0 0 74.552223
0.75255054 -31.699427 1.0562277 129 0 0 0 74.165771
1.5283557 -31.638916 1.0548701 165 0 0 0 73.773232
2.2993135 -31.527529 1.052465 189 0 0 0 73.384483
-2.328861 -31.24297 1.0450962 56 0 0 0 75.725029
-14.946153 -5.7657485 1.3395195 101 0 0 0 93.700783
-12.004026 -5.6766815 1.4388257 48 0 0 0 92.523643
-2.6818268 -5.6421928 1.3114604 14 0 0 0 81.589989
-15.213218 -5.444036 1.3506178 34 0 0 0 94.101967
-9.5269108 -4.7950706 1.2935505 508.5 0 0 0 92.123611
-7.2777462 -4.6071043 1.2638586 501 0 0 0 90.584175
-7.4632726 -4.4722953 1.3833518 487 0 0 0 90.976715
-6.7086625 -4.3630886 1.2253838 399.75 0 0 0 90.391006
36.445259 -2.693594 1.1558979 52 0 0 0 50.720512
36.303425 -1.7876177 1.1483651 41 0 0 0 50.326168
10.07189 2.6725283 1.2533343 748.75 0 0 0 45.451965
11.351352 2.5636072 1.2514119 201 0 0 0 46.044369
13.250484 2.6490467 1.282002 139 0 0 0 46.431961
15.900297 2.771178 1.3266703 73 0 0 0 46.817139
19.627642 2.9189484 1.1269431 28 0 0 0 47.206581
35.34037 2.6084418 1.1140751 10 0 0 0 48.38187
10.045114 3.2031674 1.2673088 802.25 0 0 0 44.675171
10.027859 3.7514615 1.2858931 720 0 0 0 43.890415
9.9974575 4.4591208 1.3132737 627.5 0 0 0 42.923111
10.012852 4.1733313 1.3019431 694 0 0 0 43.3167
33.219803 4.1015873 1.0528466 73 0 0 0 47.604679
42.210686 4.1594129 1.3242623 64 0 0 0 47.992168
-5.1038413 4.931263 1.2748878 920.40002 0 0 0 11.92265
-4.6691041 4.9459877 1.2563612 982.83331 0 0 0 12.66758
-4.2489467 4.9613051 1.2073741 1088.5 0 0 0 13.44503
-3.8065758 4.979804 1.250744 1128.7 0 0 0 14.351738
-3.3661623 4.9937263 1.2255176 1170.25 0 0 0 15.304871
9.9960403 4.7570677 1.3274417 661 0 0 0 42.529678
-3.5959651 5.0025616 1.2903222 1046 0 0 0 14.81561
-3.1400697 5.0040703 1.2672241 1079.2 0 0 0 15.833368
-2.7529449 5.0119405 1.2690276 1017 0 0 0 16.762018
-2.2292662 5.0281024 1.2220678 932.8125 0 0 0 18.129566
-1.7387877 5.044867 1.2514627 962.22223 0 0 0 19.499006
-1.2737861 5.0629454 1.2895799 875.25 0 0 0 20.86281
-0.76148772 5.0898328 1.2721643 664.25 0 0 0 22.420321
-0.25707427 5.109045 1.2653769 713.625 0 0 0 23.980127
0.24745311 5.1273251 1.2702253 647.625 0 0 0 25.548161
0.76104027 5.1415606 1.2862076 642.3125 0 0 0 27.10585
1.227929 5.1640201 1.2477185 630.66669 0 0 0 28.466499
1.718358 5.1801891 1.2153426 668.3125 0 0 0 29.831926
2.2428153 5.2027082 1.2600265 675 0 0 0 31.19713
2.7315102 5.2268753 1.2377559 203.11111 0 0 0 32.367062
3.2800732 5.2476306 1.2658713 270 0 0 0 33.574707
3.7496889 5.2728629 1.1941894 151.66667 0 0 0 34.51181
4.2236547 5.2846937 1.1206371 523.25 0 0 0 35.39595
4.7025509 5.3186035 1.260432 326.5 0 0 0 36.178802
5.269032 5.3309798 1.1906163 194 0 0 0 37.064499
5.7251925 5.373981 1.2459482 173.16667 0 0 0 37.648563
6.2543335 5.357142 1.1671747 371.66666 0 0 0 38.36319
6.8463192 5.3913708 1.2691792 503.5 0 0 0 39.020927
7.2202101 5.4009228 1.3117673 581.5 0 0 0 39.402447
7.6243987 5.4128933 1.2429953 582.33331 0 0 0 39.788719
8.0636406 5.4286747 1.1705251 497.5 0 0 0 40.187408
8.5446138 5.4494801 1.2185093 493.5 0 0 0 40.575031
9.054287 5.4636202 1.2696683 480.5 0 0 0 40.96862
9.8600416 5.3022771 1.3419563 543.66669 0 0 0 41.751354
6.7559533 5.5953937 1.3861645 32 0 0 0 38.621319
39.091694 5.8036299 1.2346712 48 0 0 0 47.206581
-16.643162 8.3498707 1.1175164 151 0 0 0 7.02214
-19.329885 8.5471764 1.2659761 11 0 0 0 6.2378998
-18.092855 8.5330029 1.1990051 130 0 0 0 6.6229701
-16.166388 8.6108932 1.0987368 107 0 0 0 7.4053202
-15.100788 8.5200195 1.2558613 177 0 0 0 7.7930098
-14.509464 8.66047 1.0143665 27 0 0 0 8.1892595
-13.619764 8.5832205 1.3659161 218 0 0 0 8.5771198
-12.267188 8.592165 1.271417 235 0 0 0 9.3631201
-11.958874 8.8190193 1.2608147 18 0 0 0 9.7501402
-11.305948 8.7697077 1.2146122 240 0 0 0 10.14031
-10.651339 8.6849937 1.3331257 386.5 0 0 0 10.5267
-10.269092 8.7985859 1.311457 163 0 0 0 10.9183
-9.8120251 8.8294964 1.1210319 194 0 0 0 11.30995
9.0883427 16.148672 1.0533327 9 0 0 0 32.753269
8.803441 16.582283 1.0670398 13 0 0 0 32.36787
-0.024938997 -32.342484 1.8684024 73 0 0 0 74.552223
2.2935114 -31.442593 1.8212868 46 0 0 0 73.384483
50.81348 -22.545855 1.7683014 14 0 0 0 56.183632
56.129772 -21.671854 1.9060796 25 0 0 0 55.402431
-17.67156 -7.3202109 1.5928099 22 0 0 0 93.30278
-16.264881 -7.2097015 1.9159213 116 0 0 0 92.910385
-16.319881 -6.7601814 1.9023741 83 0 0 0 93.30278
-16.266188 -6.2750864 1.8778895 104 0 0 0 93.700783
-11.759928 -5.5637164 1.7299086 215 0 0 0 92.523643
-12.067523 -5.0007987 1.7365927 113 0 0 0 93.30278
-23.467102 -4.6705151 1.9819142 14 0 0 0 96.423042
-9.4944592 -4.7797737 1.8138129 370.5 0 0 0 92.123611
-7.3620081 -4.6605072 1.6005906 207 0 0 0 90.584175
-6.7076735 -4.7221293 1.7071794 300 0 0 0 89.803619
26.080206 -4.5329676 1.5015154 7 0 0 0 52.279339
-9.485467 -4.4872398 1.6611394 29 0 0 0 92.523643
-7.5306053 -4.2654076 1.5899366 378 0 0 0 91.365555
-7.443265 -4.4603071 1.7010448 63 0 0 0 90.976715
-6.5368719 -4.3656535 1.6402115 500 0 0 0 90.19577
-6.4592133 -4.3153744 1.9057651 337 0 0 0 90.19577
32.729424 -3.2286785 1.8515022 11 0 0 0 51.11644
35.517609 -1.7481368 1.9956342 27 0 0 0 50.326168
29.574375 -0.72766101 1.6659563 22 0 0 0 49.936039
35.083973 0.86124712 1.9656969 17 0 0 0 49.159313
10.060199 2.670629 1.7678064 680 0 0 0 45.451965
11.328438 2.5607734 1.6794821 185.5 0 0 0 46.044369
13.260756 2.6537912 1.7807804 132 0 0 0 46.431961
15.95135 2.7802851 1.7248384 67 0 0 0 46.817139
19.651598 2.9263365 1.6237208 20 0 0 0 47.206581
10.043574 3.2038274 1.7896329 687.5 0 0 0 44.675171
10.021348 3.7502015 1.8153497 630.75 0 0 0 43.890415
9.9925213 4.4580727 1.8547904 614.5 0 0 0 42.923111
10.011691 4.1739969 1.8392413 603.5 0 0 0 43.3167
-5.1300206 4.9330668 1.7457085 752.5 0 0 0 11.88404
-4.6710801 4.9483523 1.7539363 789.5 0 0 0 12.66758
-4.2370749 4.9649568 1.7283781 893.28571 0 0 0 13.47314
-3.7682199 4.9794016 1.7640476 944.33331 0 0 0 14.42905
-3.3247881 4.9974327 1.6965146 985.33331 0 0 0 15.403759
9.9898453 4.7552562 1.7375829 557 0 0 0 42.529678
-3.1081231 5.0084152 1.7824793 882.20001 0 0 0 15.910645
-2.7533309 5.0135832 1.7585787 826.77777 0 0 0 16.76202
-2.2299914 5.0302877 1.760632 702.6875 0 0 0 18.129564
-1.7392384 5.0470276 1.7092611 761.33331 0 0 0 19.499006
-1.2626287 5.0708947 1.7897433 636.20001 0 0 0 20.901834
-0.76152003 5.0886631 1.7765632 538.6875 0 0 0 22.420322
-0.25722578 5.1069121 1.7669263 568.375 0 0 0 23.980125
0.24709722 5.1273036 1.7749674 511.3125 0 0 0 25.548157
0.74891388 5.1496787 1.7869782 425.06668 0 0 0 27.067156
1.2278497 5.1649084 1.7057209 503.5 0 0 0 28.466501
1.7187203 5.1821265 1.7542508 529.4375 0 0 0 29.831928
2.2433157 5.2039313 1.7498072 545 0 0 0 31.197126
2.6938961 5.2341275 1.7249842 11.25 0 0 0 32.270309
3.2937362 5.2578311 1.7587849 31.285715 0 0 0 33.591297
3.7094634 5.287302 1.6293695 12.25 0 0 0 34.413113
4.06985 5.2958751 1.8907446 8 0 0 0 35.104591
4.5294061 5.32406 1.803671 29.333334 0 0 0 35.886711
5.2773232 5.3400307 1.7487475 13.666667 0 0 0 37.064499
5.7160373 5.3927097 1.7888634 24.4 0 0 0 37.609138
6.1566086 5.3644977 1.6967379 7.3333335 0 0 0 38.234127
6.8465014 5.3913202 1.7012068 520.5 0 0 0 39.020927
7.2098007 5.393033 1.7560933 556.5 0 0 0 39.402447
7.6301041 5.417408 1.8236096 502.5 0 0 0 39.788719
8.060338 5.4273777 1.6514981 527.5 0 0 0 40.187408
8.5451298 5.4507713 1.7206843 428 0 0 0 40.575031
9.0674629 5.4725442 1.7960694 353.5 0 0 0 40.96862
9.8633585 5.3053918 1.7584254 471.33334 0 0 0 41.751354
6.7577753 5.5967188 1.7126234 43.5 0 0 0 38.621319
-49.750782 6.1588998 1.7594848 21 0 0 0 1.56336
7.3697567 7.8064075 1.9524655 14 0 0 0 36.667927
-16.655323 8.3536224 1.5800073 130 0 0 0 7.02214
7.3297362 8.1562595 1.9933592 13 0 0 0 36.273861
-19.537767 8.6367626 1.8088084 3 0 0 0 6.2378998
-18.084957 8.5267172 1.6940839 104 0 0 0 6.6229701
-16.317751 8.6895437 1.5667742 28 0 0 0 7.4053202
-15.103228 8.5214777 1.8900197 205 0 0 0 7.7930098
-13.61781 8.5831528 1.7548159 237 0 0 0 8.5771198
-12.266581 8.5928841 1.6332839 265 0 0 0 9.3631201
-11.971777 8.8287506 1.8031583 7.5 0 0 0 9.7501402
-10.658683 8.6896572 1.8365386 376 0 0 0 10.5267
-10.296502 8.8208828 1.8103956 6 0 0 0 10.9183
-13.328842 12.021257 1.9453686 13 0 0 0 11.30995
30.557461 -26.391514 2.2993207 11 0 0 0 60.867641
32.243195 -25.192852 2.327467 29 0 0 0 60.0835
33.635731 -24.974867 2.3808794 29 0 0 0 59.696281
-8.1631393 -8.1574583 2.3935792 5562 0 0 0 87.07077
-8.3903332 -7.9833174 2.401902 5466 0 0 0 87.452896
-9.7773876 -6.1909356 2.3993864 185 0 0 0 90.584175
-9.7252159 -5.5094142 2.3183825 17 0 0 0 91.365555
-12.120291 -5.0226755 2.3927181 107 0 0 0 93.30278
-11.351097 -5.3702288 2.2917502 108 0 0 0 92.523643
-6.911396 -5.2582254 2.1282475 97 0 0 0 89.213524
-12.083359 -4.663559 2.0422144 60 0 0 0 93.700783
-11.954679 -4.9540234 2.0405273 181 0 0 0 93.30278
-10.298764 -4.5666013 2.0593464 181 0 0 0 92.910385
-9.4651699 -4.765028 2.1995249 204 0 0 0 92.123611
-7.5167332 -4.5061746 2.4710135 275 0 0 0 90.976715
-6.5810452 -4.6340675 2.1722014 363.5 0 0 0 89.803619
-6.3724003 -4.7264595 2.4347744 132 0 0 0 89.4105
-9.8143616 -4.0668054 2.2047536 74 0 0 0 93.30278
-8.6891975 -4.2001004 2.3215773 139 0 0 0 92.390297
-7.5457468 -4.1544995 2.2171402 250.5 0 0 0 91.5532
-7.4726429 -4.4797096 2.1336975 486 0 0 0 90.976715
-6.0716186 -4.2765484 2.2809596 387 0 0 0 89.803619
-9.6604214 -3.7281814 2.149735 190 0 0 0 93.700783
-8.6985645 -3.7310715 2.1993225 223 0 0 0 93.106583
-7.6986804 -3.8769538 2.4307384 216 0 0 0 92.123611
-9.5014505 -3.4015844 2.0959215 56 0 0 0 94.101967
-9.1930494 -3.1254721 2.3345947 204 0 0 0 94.361351
35.680321 -2.6362736 2.0090406 22 0 0 0 50.720512
-10.133869 -1.5064266 2.1267648 297 0 0 0 97.206657
-9.9841661 -1.7354937 2.1040637 247 0 0 0 96.811005
29.389164 0.0052089393 2.3865421 41 0 0 0 49.551479
28.96838 0.71737969 2.3525052 41 0 0 0 49.159313
28.574402 1.4110717 2.3222351 21 0 0 0 48.766579
10.199385 2.3082304 2.2915361 484.5 0 0 0 46.044369
10.05246 2.6697814 2.2799683 617.25 0 0 0 45.451962
11.320586 2.5592401 2.1102614 232 0 0 0 46.044369
13.228624 2.6476808 2.2785668 145 0 0 0 46.431961
15.831592 2.7625885 2.1081915 70 0 0 0 46.817139
19.609102 2.9203463 2.1026034 35 0 0 0 47.206581
37.270309 2.7512839 2.0882804 16 0 0 0 48.38187
10.03458 3.2021165 2.3078945 657 0 0 0 44.675171
10.01477 3.7489898 2.3419647 558 0 0 0 43.890415
35.642094 3.5138667 2.0020785 23 0 0 0 47.992168
9.9910297 4.3114891 2.2485054 623 0 0 0 43.119904
-5.1808543 4.9225793 2.2759492 586.25 0 0 0 11.787515
-4.7475815 4.9372816 2.2460196 586 0 0 0 12.519957
-4.2449718 4.9570413 2.2397645 636.5 0 0 0 13.44503
-3.7671051 4.9782572 2.2205741 715.66669 0 0 0 14.42905
-3.3654108 4.9929647 2.1786628 735.25 0 0 0 15.304871
9.9829597 4.7520471 2.1470442 568.5 0 0 0 42.529678
-3.1294632 5.0047407 2.1486518 634.33331 0 0 0 15.859126
-2.7542536 5.0140343 2.1071632 621.33331 0 0 0 16.76202
-2.2306769 5.0310202 2.0960789 522.5 0 0 0 18.129566
-1.7427179 5.0561404 2.0382717 621.66669 0 0 0 19.499006
-1.469807 5.0535922 2.0065284 662 0 0 0 20.27747
0.95787919 5.1548829 2.0057285 400 0 0 0 27.686251
1.228453 5.1697497 2.0333006 395 0 0 0 28.466499
1.7209414 5.1905694 2.0928133 417.75 0 0 0 29.831924
2.2425268 5.2052426 2.0987444 427.33334 0 0 0 31.197128
2.6941042 5.2374377 2.2163434 11.5 0 0 0 32.270309
3.3744063 5.282608 2.240876 40 0 0 0 33.728687
4.1697893 5.2880011 2.1558161 12.5 0 0 0 35.296253
4.681612 5.3195915 2.3244913 22.833334 0 0 0 36.145966
5.2684126 5.3312511 2.30195 12.5 0 0 0 37.064499
5.7685556 5.3898458 2.2651362 17.4 0 0 0 37.687996
6.1390691 5.3508797 2.2948835 5.3333335 0 0 0 38.234127
6.8415627 5.3891587 2.2364619 427.66666 0 0 0 39.020927
7.2207775 5.4029779 2.2025971 445.5 0 0 0 39.402447
7.6133986 5.4074974 2.2789829 427.5 0 0 0 39.788719
8.0671387 5.4331479 2.2524402 408.66666 0 0 0 40.187408
8.5333548 5.4442739 2.2178984 406.5 0 0 0 40.575031
9.0515804 5.4640408 2.3146825 333.5 0 0 0 40.96862
9.8597326 5.3032656 2.173701 443.16666 0 0 0 41.751354
40.62278 5.0145068 2.281054 28 0 0 0 47.604679
6.7511806 5.5930076 2.2509677 36 0 0 0 38.621319
7.3723063 7.8100653 2.3496733 30 0 0 0 36.667927
-19.913488 8.2284107 2.3467932 4 0 0 0 5.8493299
-16.649403 8.3506546 2.2578177 146 0 0 0 7.02214
7.3539472 8.1826906 2.2708287 15 0 0 0 36.273861
-19.270142 8.5192709 2.2942867 3 0 0 0 6.2378998
-18.103537 8.5367842 2.1799769 135 0 0 0 6.6229701
-16.306721 8.6836853 2.2385736 23 0 0 0 7.4053202
-15.102216 8.518651 2.3141842 193 0 0 0 7.7930098
-13.57973 8.5568943 2.1426351 229 0 0 0 8.5771198
-12.278563 8.5998955 2.1858697 234 0 0 0 9.3631201
-11.807375 8.7068729 2.3197937 8 0 0 0 9.7501402
-11.38449 8.8314018 2.2781231 4 0 0 0 10.14031
-10.648118 8.6821365 2.1730072 380 0 0 0 10.5267
-10.296741 8.8228436 2.3108559 14.5 0 0 0 10.9183
-9.868824 8.8825884 2.4266005 10 0 0 0 11.30995
7.3399978 9.1749125 2.3265893 27 0 0 0 35.360138
-15.360052 11.938068 2.1089625 7 0 0 0 10.14031
-18.615438 12.39972 2.423624 6 0 0 0 8.9723501
-13.317784 12.008599 2.3828545 8 0 0 0 11.30995
-7.9904609 -31.837421 2.7144434 27 0 0 0 78.462875
1.5188128 -31.314413 2.5920978 54 0 0 0 73.773232
3.0363343 -31.033459 2.5776582 35 0 0 0 72.992958
40.070396 -24.042105 2.6454642 24 0 0 0 58.13958
41.529819 -23.550179 2.70034 12 0 0 0 57.747929
48.074184 -22.758499 2.9982305 14 0 0 0 56.57135
26.633867 -21.879568 2.8263872 20 0 0 0 60.484001
44.825657 -18.586016 2.7353814 9 0 0 0 55.786461
-86.273186 -14.96384 2.8356769 32 0 0 0 96.811005
-86.655594 -12.848408 2.8361859 17 0 0 0 97.206657
-82.983459 -10.229792 2.7078178 9 0 0 0 97.599586
-83.279793 -8.1972866 2.7093279 15 0 0 0 97.982521
-8.276515 -8.1392145 2.786423 5558 0 0 0 87.198143
-12.845942 -6.8678122 2.6534007 30 0 0 0 91.740845
-83.60704 -6.1623325 2.713418 24 0 0 0 98.372643
-9.528554 -6.0356088 2.6150632 126 0 0 0 90.584175
-9.7514963 -5.5265646 2.5987415 80 0 0 0 91.365555
-6.8561702 -5.7690086 2.637116 189.5 0 0 0 88.424805
-11.420844 -5.4032431 2.6161184 137 0 0 0 92.523643
-7.8510051 -5.2462459 2.6600649 126 0 0 0 90.19577
-5.8003731 -5.2562952 2.8837285 83.5 0 0 0 87.841217
-11.202183 -4.9673505 2.5382445 139 0 0 0 92.910385
-9.0356369 -4.8319044 2.6295142 148 0 0 0 91.740845
-8.5495701 -4.8449883 2.5231998 156 0 0 0 91.365555
-6.8574505 -4.8289475 2.7791641 180 0 0 0 89.803619
-6.1973696 -4.7144918 2.7718172 184 0 0 0 89.213524
-5.9916902 -4.9182553 2.7606533 5 0 0 0 88.620079
-10.458508 -4.0383782 2.5988536 142 0 0 0 93.700783
-9.3830404 -4.3030648 2.7790294 181.5 0 0 0 92.71701
-8.7244034 -4.3938236 2.5082281 176 0 0 0 92.123611
-7.1765676 -4.0664086 2.7336018 318 0 0 0 91.365555
-5.826314 -4.3225393 2.7627594 20 0 0 0 89.4105
-9.306654 -3.725276 2.5731769 195 0 0 0 93.501785
-7.6868372 -3.8726678 2.6385536 265 0 0 0 92.123611
-9.2177448 -3.3017976 2.5137653 207 0 0 0 94.101967
32.699135 -3.2191558 2.6685576 53 0 0 0 51.11644
-11.073663 -1.6480722 2.5947394 36 0 0 0 97.206657
-10.826638 -1.8838607 2.5475767 241 0 0 0 96.811005
32.662525 2.4182084 2.651468 29 0 0 0 48.38187
10.049028 2.6700249 2.7922482 477.25 0 0 0 45.451965
11.299534 2.5570428 2.9615474 141 0 0 0 46.044369
13.202193 2.6427031 2.7729223 134 0 0 0 46.431961
15.844573 2.7652149 2.7080142 67.5 0 0 0 46.817139
19.594488 2.921998 2.589015 26 0 0 0 47.206581
10.027925 3.2011616 2.825794 426 0 0 0 44.675171
10.014417 3.7030423 2.8206079 489.66666 0 0 0 43.954914
36.816174 3.6365578 2.9885116 24 0 0 0 47.992168
9.9940367 4.2662282 2.6906636 488.66666 0 0 0 43.185501
10.003439 4.4651284 2.5317984 407 0 0 0 42.923111
-5.241744 4.9206724 2.6411338 464 0 0 0 11.690989
-4.7748628 4.9347777 2.606961 432.66666 0 0 0 12.47075
-4.3460803 4.9533157 2.5021191 446 0 0 0 13.24827
9.9856586 4.7555304 2.6915793 483.5 0 0 0 42.529678
4.2842999 5.2970719 2.5997982 127 0 0 0 35.493069
4.7595854 5.3239217 2.6351781 18.5 0 0 0 36.273861
5.1405058 5.334712 2.7324438 125 0 0 0 36.866211
5.6530795 5.3763037 2.7309141 87.25 0 0 0 37.549992
6.277226 5.3796844 2.7366765 18.666666 0 0 0 38.36319
6.8394222 5.3882136 2.7744999 337 0 0 0 39.020927
7.211422 5.3964791 2.7575195 386.33334 0 0 0 39.402447
7.6283913 5.4189262 2.7470276 336 0 0 0 39.788719
8.053194 5.425386 2.8490207 318 0 0 0 40.187408
8.5439262 5.4519386 2.7204595 305.5 0 0 0 40.575031
9.0452013 5.461237 2.8340502 271 0 0 0 40.96862
9.8510475 5.3008447 2.7220433 373.5 0 0 0 41.751354
6.7063222 5.555829 2.8828764 16 0 0 0 38.621319
-49.836781 6.1716776 2.9896107 20 0 0 0 1.56336
-49.497429 7.3647757 2.9768441 27 0 0 0 1.94757
-43.338882 7.5363364 2.619117 33 0 0 0 2.33675
7.3594656 7.7975492 2.7408214 19 0 0 0 36.667927
-20.315826 8.3925228 2.9319768 7 0 0 0 5.8493299
-19.153074 8.4646254 2.7933593 8 0 0 0 6.2378998
-16.66744 8.3597841 2.9480133 143 0 0 0 7.02214
7.3285818 8.1571178 2.66716 19.5 0 0 0 36.273861
-18.120495 8.5422497 2.6725023 79 0 0 0 6.6229701
-16.068674 8.5563631 2.8777945 9 0 0 0 7.4053202
-15.101792 8.5196276 2.741323 164 0 0 0 7.7930098
-14.509371 8.6584215 2.6710615 187 0 0 0 8.1892595
-13.607092 8.5760241 2.7412767 196 0 0 0 8.5771198
-13.092011 8.7051153 2.8728528 278 0 0 0 8.9723501
-12.276028 8.599864 2.7393727 199 0 0 0 9.3631201
-11.790215 8.6953049 2.677341 15 0 0 0 9.7501402
-11.301012 8.7673655 2.6139259 216 0 0 0 10.14031
-10.647263 8.6831636 2.679435 316.5 0 0 0 10.5267
-10.291327 8.8199186 2.8088458 388 0 0 0 10.9183
-9.8330297 8.8512774 2.7418036 395 0 0 0 11.30995
7.3437214 9.1822176 2.807452 21.666666 0 0 0 35.360138
-15.372864 11.945371 2.587481 18 0 0 0 10.14031
-13.311318 12.004325 2.8237176 11 0 0 0 11.30995
25.921658 -51.564743 3.2895761 15 0 0 0 67.135033
32.282375 -25.213116 3.3501818 22 0 0 0 60.0835
33.563721 -24.911112 3.4166629 20 0 0 0 59.696281
50.438046 -22.377882 3.1069047 13 0 0 0 56.183632
55.621071 -21.47397 3.3493392 13 0 0 0 55.402431
58.224636 -20.850834 3.4703512 15 0 0 0 55.021221
-7.5405245 -8.7366199 3.2452016 5 0 0 0 85.889008
-17.704018 -7.8514881 3.0374205 102 0 0 0 92.910385
-9.5866747 -7.110805 3.3545389 28 0 0 0 89.4105
-16.886379 -6.5177717 3.2884164 74 0 0 0 93.700783
-9.2199869 -6.164185 3.3914156 47 0 0 0 90.19577
-8.1653166 -6.371798 3.4251516 81 0 0 0 89.016548
-6.780983 -6.2997465 3.1787858 154 0 0 0 87.643127
-7.1418762 -5.7182283 3.3648181 202 0 0 0 88.818314
26.101002 -5.8592553 3.494662 26 0 0 0 53.066929
-10.249154 -5.4812384 3.2668769 52 0 0 0 91.740845
-9.5667086 -5.1182251 3.3181384 32 0 0 0 91.740845
-8.7254658 -5.3793716 3.1368837 68.5 0 0 0 90.780441
-10.376175 -4.6031127 3.1911147 172 0 0 0 92.910385
-9.5911598 -4.5413733 3.2459683 144 0 0 0 92.523643
-7.6549263 -4.8517852 3.4441721 153 0 0 0 90.584175
-6.9257603 -4.8807306 3.1184874 109 0 0 0 89.803619
25.9755 -4.5035124 3.4425969 5 0 0 0 52.279339
-10.603233 -4.0942793 3.1951332 140 0 0 0 93.700783
-10.428722 -4.3236084 3.1738162 122 0 0 0 93.30278
-9.5060806 -4.2189498 3.1817577 123 0 0 0 92.910385
-10.892636 -3.7529278 3.238368 138 0 0 0 94.296509
-10.248182 -3.9591928 3.3592498 128 0 0 0 93.700783
-9.5851994 -3.9757302 3.1746724 120 0 0 0 93.30278
-8.0827961 -3.588691 3.3613644 159 0 0 0 92.910385
-7.7530403 -3.7499549 3.1332092 197.66667 0 0 0 92.390297
-22.091457 -3.2835951 3.4955683 10 0 0 0 97.206657
-10.388537 -3.4382935 3.3459339 158 0 0 0 94.491043
-9.2735815 -3.1995525 3.239006 159 0 0 0 94.296509
32.689072 -3.2174156 3.4663095 37 0 0 0 51.11644
-16.993017 -2.9536576 3.1339619 30 0 0 0 96.811005
-10.422966 -2.6175282 3.2863948 42 0 0 0 95.650314
-10.511738 -2.3673427 3.2949631 172 0 0 0 96.033485
33.008942 -2.4316785 3.4911499 34 0 0 0 50.720512
31.820671 -1.5591892 3.3607037 9 0 0 0 50.326168
29.579102 -0.72132301 3.1230025 51 0 0 0 49.936039
29.247532 0.0058061271 3.0863903 56 0 0 0 49.551479
29.052435 0.720043 3.0658348 82 0 0 0 49.159313
29.14201 1.4395847 3.076973 51 0 0 0 48.766579
28.543173 2.1144829 3.0183816 48 0 0 0 48.38187
10.050198 2.671535 3.3075843 428 0 0 0 45.451965
11.28954 2.5549481 3.2471673 161 0 0 0 46.044369
13.21467 2.6478796 3.2720325 100 0 0 0 46.431961
15.83087 2.763201 3.3009844 74 0 0 0 46.817139
19.583239 2.9206491 3.0782216 41 0 0 0 47.206581
10.0286 3.202544 3.3472962 449.5 0 0 0 44.675171
10.007892 3.7958708 3.1810844 440.66666 0 0 0 43.825916
9.991374 4.3148546 3.1888738 437 0 0 0 43.119907
9.9742546 4.7512646 3.2358646 415.5 0 0 0 42.529678
5.9341288 5.4389691 3.0635495 5 0 0 0 37.845711
6.1694913 5.3798094 3.1146719 11 0 0 0 38.234127
6.8284292 5.3823309 3.1988273 253 0 0 0 39.020927
7.2002597 5.3912549 3.3077064 266 0 0 0 39.402447
7.6136456 5.4093909 3.2033818 319 0 0 0 39.788719
8.0573454 5.4290714 3.3304818 265.5 0 0 0 40.187408
8.5238018 5.4401464 3.2148669 296.5 0 0 0 40.575031
9.0497551 5.4649906 3.3590832 261.5 0 0 0 40.96862
9.8473101 5.2999134 3.2750425 340.66666 0 0 0 41.751354
6.6559877 5.5182981 3.0749166 8 0 0 0 38.621319
4.7156577 6.4474139 3.0388601 6 0 0 0 34.709202
4.1348305 6.8176389 3.0329924 13 0 0 0 33.342407
4.55902 6.5671349 3.0411272 16 0 0 0 34.314419
5.2082872 6.7595983 3.0345478 9.333333 0 0 0 35.100571
4.1695642 7.4781098 3.0429504 9 0 0 0 32.753269
4.6941566 7.1247578 3.0339088 15 0 0 0 33.926979
5.4309244 7.4080281 3.0365341 12 0 0 0 34.709202
6.8764119 7.2919669 3.0613892 16 0 0 0 36.667927
7.0392752 7.1054978 3.0552311 12 0 0 0 37.064499
3.9867964 7.5837297 3.0448344 10 0 0 0 32.36787
4.7914286 7.8797092 3.048218 14 0 0 0 33.342407
5.2697091 7.5722961 3.0494051 8 0 0 0 34.314419
7.3509493 7.7883415 3.0041134 18 0 0 0 36.667927
-21.458195 8.2575016 3.0667768 7 0 0 0 5.4566798
-20.349636 8.4078856 3.4797752 71 0 0 0 5.8493299
-19.121237 8.451807 3.304204 8 0 0 0 6.2378998
-16.642735 8.348568 3.4027092 139 0 0 0 7.02214
4.4874601 8.0337658 3.0412867 10 0 0 0 32.753269
5.262207 8.4139462 3.030813 18 0 0 0 33.539539
5.8017769 8.1180573 3.0475669 10.5 0 0 0 34.51181
7.2525077 8.0727081 3.0433693 6 0 0 0 36.273861
-18.120459 8.5435257 3.1663544 64 0 0 0 6.6229701
-16.080559 8.5639668 3.3290341 18 0 0 0 7.4053202
-15.106312 8.5234079 3.169642 140 0 0 0 7.7930098
-14.506926 8.6581726 3.086982 194 0 0 0 8.1892595
-14.456357 8.6290321 3.4887786 132 0 0 0 8.1892595
-13.610666 8.5800724 3.3342841 205 0 0 0 8.5771198
-12.99454 8.6410904 3.2338583 145 0 0 0 8.9723501
-12.270023 8.5957794 3.2872193 171.5 0 0 0 9.3631201
-11.796457 8.7001009 3.2160399 23 0 0 0 9.7501402
-11.434604 8.871911 3.1750097 12 0 0 0 10.14031
-10.63515 8.6718454 3.178282 274 0 0 0 10.5267
-10.28204 8.8105297 3.3010974 239.5 0 0 0 10.9183
-9.8107376 8.8296947 3.2178996 387 0 0 0 11.30995
4.6498876 8.8229065 3.0453892 10 0 0 0 32.36787
6.4981589 8.8482704 3.0778608 9 0 0 0 34.709202
6.9272752 8.519083 3.0785494 7 0 0 0 35.487911
7.27384 9.40347 3.0336845 16 0 0 0 35.104591
5.2194009 9.5999193 3.0637646 13.5 0 0 0 32.56057
7.1244035 9.6934462 3.0692368 8 0 0 0 34.709202
6.1164856 10.313007 3.0592752 14 0 0 0 33.145271
35.034317 -24.691357 3.5013509 48 0 0 0 59.313686
36.580963 -24.458923 3.5924513 15 0 0 0 58.920818
42.100124 -23.862215 3.9419646 34 0 0 0 57.747929
61.240387 -20.248034 3.6150753 19 0 0 0 54.623169
40.039833 -18.947956 3.607228 6 0 0 0 56.57135
45.090019 -18.684973 3.9668667 8 0 0 0 55.786461
45.691971 -17.632471 3.9785581 8 0 0 0 55.402431
-16.182745 -8.6525202 3.7853243 17 0 0 0 91.740845
-9.489996 -8.1858158 3.5209548 26 0 0 0 88.229538
-6.2469602 -8.0029402 3.6072781 33 0 0 0 85.104675
-5.7622685 -8.1780844 3.5552258 33 0 0 0 84.314064
-5.3722386 -8.0350504 3.6723988 31 0 0 0 83.930191
-10.115775 -7.898169 3.9199562 11 0 0 0 89.016548
-6.6856346 -7.7502747 3.6363788 31 0 0 0 85.889008
-6.3335671 -7.7162075 3.547375 86 0 0 0 85.492271
-6.7631025 -7.4622045 3.824713 30 0 0 0 86.281761
-6.026547 -7.3415337 3.6090009 38 0 0 0 85.492271
-10.042175 -6.7117724 3.9892719 105 0 0 0 90.19577
-6.5659943 -6.7321773 3.5734541 95 0 0 0 86.870178
-10.126231 -6.2419782 3.9294283 71.5 0 0 0 90.780441
-9.2746534 -6.2031283 3.960659 81 0 0 0 90.19577
-8.6054602 -6.3871169 3.8053579 30 0 0 0 89.4105
-10.389983 -5.8910522 3.6497412 69 0 0 0 91.365555
-9.7467155 -5.5283809 3.9772396 60 0 0 0 91.365555
-9.4191046 -5.8105774 3.9289079 58 0 0 0 90.780441
-10.713627 -5.2326393 3.9382486 49 0 0 0 92.323624
-9.6009216 -5.1365538 3.7325835 138 0 0 0 91.740845
-10.851982 -4.8142805 3.9210682 93 0 0 0 92.910385
-10.089697 -3.7573385 3.6899257 36.5 0 0 0 93.901375
-9.9823618 -3.5757649 3.5052009 116 0 0 0 94.101967
-15.353698 -3.0613399 3.9998949 44 0 0 0 96.423042
-10.198491 -3.3734074 3.5505385 34 0 0 0 94.491043
-10.24837 -2.8425722 3.7717967 49.5 0 0 0 95.257607
-9.8007641 -2.9809861 3.8889349 16 0 0 0 94.876129
-15.819786 -1.9588951 3.6805999 24 0 0 0 97.599586
29.177908 0.011511808 3.797343 57 0 0 0 49.551479
29.090336 0.72666216 3.7860601 60 0 0 0 49.159313
28.538504 1.4154308 3.7175138 40 0 0 0 48.766579
27.94697 2.0758758 3.6461072 51 0 0 0 48.38187
10.043676 2.6729422 3.8176279 324.75 0 0 0 45.451962
11.293457 2.5570982 3.6773276 108.5 0 0 0 46.044369
13.18473 2.6421967 3.7646475 107 0 0 0 46.431961
15.827744 2.7657521 3.6943333 68 0 0 0 46.817139
19.519741 2.911531 3.5575583 26 0 0 0 47.206581
10.022132 3.1582782 3.8155572 330.33334 0 0 0 44.739025
10.010839 3.7508061 3.6617851 361.75 0 0 0 43.890415
9.9845848 4.3131113 3.7241812 341.25 0 0 0 43.119904
9.981554 4.7558565 3.7844763 343.5 0 0 0 42.529678
36.730156 4.5425591 3.8884327 19 0 0 0 47.604679
7.6113939 5.4096985 3.5468204 227 0 0 0 39.788719
8.0611782 5.433598 3.6905689 260 0 0 0 40.187408
8.5317993 5.4482746 3.7168508 203.5 0 0 0 40.575031
9.0469551 5.4665027 3.7492633 196 0 0 0 40.96862
9.8200941 5.2856393 3.7894635 262 0 0 0 41.75164
47.537956 5.8759975 3.8555925 39 0 0 0 47.604679
-21.219013 8.1664648 3.5936537 87 0 0 0 5.4566798
-19.878788 8.2138968 3.9304311 74 0 0 0 5.8493299
