# .PCD v0.7 - Point Cloud Data file format
VERSION 0.7
FIELDS x y z intensity normal_x normal_y normal_z curvature
SIZE 4 4 4 4 4 4 4 4
TYPE F F F F F F F F
COUNT 1 1 1 1 1 1 1 1
WIDTH 955
HEIGHT 1
VIEWPOINT 0 0 0 1 0 0 0
POINTS 955
DATA ascii
-5.9260812 -29.737993 1.0018727 139 0 0 0 77.718842
27.244125 -23.525724 1.1541988 49 0 0 0 60.897552
28.515005 -23.425646 1.1828852 39 0 0 0 60.509098
29.745764 -23.237028 1.2095798 30 0 0 0 60.127632
30.983238 -23.001194 1.2363032 32 0 0 0 59.73484
7.4142084 -22.502115 1.3596269 59 0 0 0 69.510735
32.44976 -22.875395 1.2715646 25 0 0 0 59.341049
33.754547 -22.575022 1.300351 30 0 0 0 58.955601
6.1260414 -22.203852 1.3237517 49 0 0 0 70.293526
35.279041 -22.360409 1.3371336 26 0 0 0 58.563969
37.217419 -22.326687 1.3886713 29 0 0 0 58.174301
40.726223 -21.786572 1.4770395 18 0 0 0 57.388161
37.907413 -21.493059 1.3948497 26 0 0 0 57.781288
-23.026485 -3.9930954 1.3473284 69 0 0 0 96.865051
-13.46869 -3.0264695 1.4898076 148 0 0 0 96.076385
21.018349 -3.1252859 1.2247195 73 0 0 0 51.928688
-14.662795 -2.5458393 1.2414454 76 0 0 0 96.865051
-14.114366 -2.8093522 1.2019153 174 0 0 0 96.474327
20.919689 -2.5867307 1.2155577 112 0 0 0 51.532768
20.826134 -2.0567045 1.207583 154 0 0 0 51.137966
21.929234 -1.6219928 1.2674427 42 0 0 0 50.746727
24.257517 -1.1949753 1.3965398 42 0 0 0 50.363113
15.231347 0.75267345 1.2721893 159 0 0 0 48.80323
17.896748 1.7701315 1.4941576 114 0 0 0 48.018101
-5.227159 2.5720611 1.2506276 538.25 0 0 0 7.0225
-4.8289456 2.5923681 1.2434752 465.25 0 0 0 7.6087899
-4.2475095 2.6141362 1.2544558 329.69232 0 0 0 8.5804005
-3.7133858 2.6284261 1.2146996 201.3 0 0 0 9.6388674
-3.2340214 2.6438706 1.2634368 143.85001 0 0 0 10.788811
-2.8808424 2.6576588 1.2638664 154.71428 0 0 0 11.759439
2.4952791 2.8319674 1.4206314 231.5 0 0 0 36.294941
2.7532582 2.8517303 1.2499518 286.76471 0 0 0 36.990608
3.2507894 2.8699982 1.233812 356.64285 0 0 0 38.231228
3.7376721 2.8851311 1.265028 480.55554 0 0 0 39.253769
4.1571612 2.8957419 1.2640558 669.375 0 0 0 40.016865
14.617967 2.54756 1.2399805 96 0 0 0 46.855942
-35.772629 4.4068799 1.0187306 15 0 0 0 1.56071
20.734152 4.6673112 1.2301531 282 0 0 0 46.063671
-35.665012 5.2821498 1.0208784 91 0 0 0 1.9549299
-11.612309 5.4386911 1.1755557 160 0 0 0 6.6342602
23.664576 5.9404731 1.4070457 216 0 0 0 45.675179
-35.661964 6.1767678 1.0266924 32 0 0 0 2.34746
24.447393 6.7798781 1.46181 63 0 0 0 45.292591
-0.010910631 -52.709015 1.7077976 17 0 0 0 74.597191
-1.1545087 -46.566162 1.5142955 46 0 0 0 74.989922
-44.849979 -38.683079 1.928996 5 0 0 0 88.271072
-45.345127 -37.209156 1.910282 10 0 0 0 88.658577
-48.12809 -35.689621 1.9493773 9 0 0 0 89.451035
-45.807014 -35.743645 1.8919938 10 0 0 0 89.059357
-35.648338 -35.643551 1.648157 6 0 0 0 87.111168
-11.320617 -31.615921 1.9300773 27 0 0 0 80.062737
-10.480258 -31.698225 1.9186718 18 0 0 0 79.672394
-9.5656338 -31.504272 1.8922575 26 0 0 0 79.287292
-6.3723788 -31.984756 1.8729261 25 0 0 0 77.718842
-8.6778402 -31.324215 1.8681341 27 0 0 0 78.899162
-7.7702832 -30.982252 1.835996 43 0 0 0 78.500931
-6.9657254 -30.975361 1.8246732 33 0 0 0 78.106712
-4.5176392 -30.380894 1.7649329 57 0 0 0 76.935875
-20.029814 -27.000404 1.934198 9 0 0 0 84.754677
6.1044712 -27.258818 1.5991727 27 0 0 0 71.079163
6.7819924 -27.143896 1.6010544 31 0 0 0 70.69043
8.1516094 -26.932213 1.6088493 20 0 0 0 69.908226
9.5426292 -26.723429 1.6209525 36 0 0 0 69.119881
10.229201 -26.569145 1.6256447 19 0 0 0 68.733185
-20.379564 -26.107964 1.9060214 12 0 0 0 85.142799
-18.356001 -26.056147 1.8355501 8 0 0 0 84.355553
10.942213 -26.465439 1.6344639 33 0 0 0 68.336151
11.660337 -26.351748 1.6438497 21 0 0 0 67.954979
12.368749 -26.19607 1.6518385 27 0 0 0 67.55864
13.108849 -26.085594 1.6638428 20 0 0 0 67.163025
13.845283 -25.943859 1.6751822 21 0 0 0 66.770317
14.609201 -25.828463 1.6895347 14 0 0 0 66.385475
15.339264 -25.630236 1.6999341 14 0 0 0 65.990959
16.132469 -25.512825 1.7170151 91 0 0 0 65.596863
19.02998 -25.691984 1.8150265 37 0 0 0 64.43132
16.94183 -25.390829 1.7353811 61 0 0 0 65.210594
17.770348 -25.266319 1.7552489 38 0 0 0 64.820221
19.42012 -24.916698 1.7933228 68 0 0 0 64.032791
20.291294 -24.756046 1.8161459 86 0 0 0 63.642578
21.220276 -24.630169 1.8435843 92 0 0 0 63.256561
22.157799 -24.476315 1.871245 73 0 0 0 62.86499
23.143045 -24.335863 1.9023482 85 0 0 0 62.467033
8.6805077 -22.543505 1.9859872 6 0 0 0 68.733185
6.096983 -22.082485 1.8869624 23 0 0 0 70.293526
7.9298725 -22.205097 1.939718 15 0 0 0 69.119881
6.5212607 -21.546125 1.8543825 11 0 0 0 69.908226
7.1019883 -21.543749 1.8678973 28 0 0 0 69.510735
48.882271 -20.262737 1.6905136 20 0 0 0 55.829647
23.776409 -19.537395 1.7459441 31 0 0 0 60.509098
53.517635 -19.162531 1.8153279 15 0 0 0 55.048233
28.904633 -18.324417 1.9402452 18 0 0 0 58.563969
-13.162906 -3.9978611 1.8235222 149 0 0 0 94.932076
-13.526781 -3.3904483 1.5048412 142 0 0 0 95.691162
17.313303 -3.4500868 1.8928659 16 0 0 0 52.70649
19.841305 -3.4476862 1.6644362 106 0 0 0 52.309593
20.21912 -3.0031166 1.6892344 43 0 0 0 51.928688
-13.868196 -2.7615461 1.6981466 170.5 0 0 0 96.474327
-13.986987 -2.4309628 1.8796923 30 0 0 0 96.865051
20.090277 -2.4808609 1.6735997 60 0 0 0 51.532768
19.938074 -1.9657093 1.6572813 114 0 0 0 51.137966
20.695463 -1.5273285 1.715699 60 0 0 0 50.746727
13.947272 -1.0306175 1.5089643 257 0 0 0 50.746727
20.571848 -1.0102414 1.7035682 79 0 0 0 50.363113
13.914221 -0.68178296 1.8469889 230 0 0 0 50.363113
14.210184 -0.69871575 1.5347348 205 0 0 0 50.363113
23.24341 -0.5686084 1.9187119 15 0 0 0 49.969761
32.450695 -0.79885852 1.8548585 30 0 0 0 49.969761
13.893474 -0.3381207 1.8429817 166 0 0 0 49.969761
13.779572 0.17417355 1.8283868 191.5 0 0 0 49.383133
18.383236 0.0024264716 1.9726679 87 0 0 0 49.575218
18.518255 0.4582803 1.9878218 49 0 0 0 49.191048
14.300858 0.70934409 1.8985 97 0 0 0 48.80323
15.236883 0.75295907 1.6441098 127 0 0 0 48.80323
20.749065 0.51338834 1.7175978 47 0 0 0 49.191048
13.234148 1.3125179 1.7666204 93 0 0 0 48.018101
13.606087 1.0115005 1.8111259 132 0 0 0 48.416008
14.055829 1.04234 1.5221446 77 0 0 0 48.416008
19.773289 1.4649961 1.6431515 88 0 0 0 48.416008
17.92485 1.7729293 1.9349192 87 0 0 0 48.018101
19.395483 2.4012725 1.6207628 93 0 0 0 47.628639
27.086975 2.0008812 1.559822 88 0 0 0 48.416008
-5.1873055 2.5502698 1.7301706 404.33334 0 0 0 7.0225005
-4.7859659 2.5663018 1.7562517 359.875 0 0 0 7.6087894
-4.2902374 2.607379 1.7215847 222.44444 0 0 0 8.4935827
-3.7830839 2.6033299 1.6194559 177.33333 0 0 0 9.4302225
-3.354917 2.6246181 1.5644366 168.5 0 0 0 10.440022
2.7691383 2.8377724 1.539904 320.33334 0 0 0 37.083374
3.2618964 2.8504751 1.6015375 316 0 0 0 38.315243
3.7682803 2.8611507 1.72765 397.375 0 0 0 39.38052
4.1623487 2.8757436 1.7242314 487.16666 0 0 0 40.080891
14.642279 2.5531559 1.7873838 115 0 0 0 46.855942
19.541142 2.9091506 1.6382838 115 0 0 0 47.243271
26.877714 3.3205411 1.5562055 167 0 0 0 47.628639
26.751032 3.9750133 1.5544668 128 0 0 0 47.243271
17.690132 4.9133558 1.5261153 100 0 0 0 45.292591
26.709789 4.6428766 1.5584798 44 0 0 0 46.855942
-11.59441 5.426774 1.7974913 10 0 0 0 6.6342602
26.54904 5.290679 1.5565951 138 0 0 0 46.457642
18.422033 5.6079202 1.5989872 25 0 0 0 44.891579
54.263695 29.035202 1.9880683 9 0 0 0 41.776447
53.542805 30.36446 1.9886591 9 0 0 0 41.382278
-2.0281579 -41.058289 2.3474042 32 0 0 0 75.377968
-2.792978 -37.711586 2.1628542 8 0 0 0 75.771324
-6.0462656 -34.786339 2.0242522 22 0 0 0 77.335594
-13.475801 -32.515182 2.0219173 14 0 0 0 80.848808
-21.008371 -31.433153 2.1707919 8 0 0 0 83.975693
-27.548244 -28.930428 2.2913039 13 0 0 0 86.721054
-27.935453 -27.931408 2.2660005 16 0 0 0 87.111168
6.1343141 -27.367062 2.3035409 211 0 0 0 71.079163
10.98023 -26.542929 2.3543587 181 0 0 0 68.336151
12.584763 -26.639576 2.4128678 5 0 0 0 67.55864
14.165734 -26.531139 2.4613044 7 0 0 0 66.770317
15.522199 -25.924314 2.4715681 124 0 0 0 65.990959
27.653221 -23.878227 2.0656872 31 0 0 0 60.897552
30.116634 -23.52614 2.1601002 42 0 0 0 60.127632
31.430931 -23.332924 2.2122943 45 0 0 0 59.73484
32.810593 -23.129255 2.26842 35 0 0 0 59.341049
34.143101 -22.834398 2.3208532 14 0 0 0 58.955601
6.195488 -22.436497 2.481921 17 0 0 0 70.293526
37.501743 -22.496912 2.4700491 5 0 0 0 58.174301
6.9533601 -21.093258 2.3689272 37 0 0 0 69.510735
7.61093 -21.313662 2.412859 16 0 0 0 69.119881
8.2608652 -21.455786 2.4501972 33 0 0 0 68.733185
-23.813673 -7.8700557 2.0702963 5655 0 0 0 94.533913
-24.091766 -7.3110504 2.0776784 5 0 0 0 94.932076
-25.160286 -5.6521549 2.1258898 17 0 0 0 96.076385
-15.430845 -4.2755036 2.1165342 62 0 0 0 95.311119
-13.051733 -3.9640012 2.4833326 33 0 0 0 94.932076
-12.831701 -3.7256725 2.1027551 56 0 0 0 95.121597
-13.531086 -3.0428421 2.1806507 132 0 0 0 96.076385
-12.326571 -3.0919142 2.3157237 70 0 0 0 95.691162
17.179962 -3.4204693 2.3100505 144 0 0 0 52.70649
19.844883 -3.448312 2.1547825 57 0 0 0 52.309593
-13.675908 -2.7244332 2.1921513 117 0 0 0 96.474327
-13.469476 -2.683275 2.4994547 57 0 0 0 96.474327
-12.555839 -2.823606 2.3444562 53 0 0 0 96.076385
15.497874 -0.75905633 2.4376292 159 0 0 0 50.363113
22.275627 -0.54499966 2.3825278 57 0 0 0 49.969761
14.497588 -0.35274714 2.2811801 194 0 0 0 49.969761
13.055441 0.32561082 2.3830016 323 0 0 0 49.191048
13.629503 0.17272323 2.3155203 170.5 0 0 0 49.383133
14.886721 0.004485961 2.3410008 81 0 0 0 49.575218
12.741138 0.63221568 2.3289962 218 0 0 0 48.80323
13.113846 0.97504556 2.2359295 206 0 0 0 48.416008
13.617794 0.67556858 2.1480191 211 0 0 0 48.80323
12.849797 1.2745585 2.1967626 281.5 0 0 0 48.018101
13.069404 1.6223668 2.0768991 135 0 0 0 47.628639
-5.1773062 2.3886595 2.1170919 140 0 0 0 6.6342602
16.236498 2.0140648 2.1645942 86 0 0 0 47.628639
19.863197 2.4590712 2.1460786 51 0 0 0 47.628639
-5.1649885 2.536634 2.0686188 291.5 0 0 0 7.0225
-4.881537 2.5429749 2.0456781 264 0 0 0 7.4081798
14.641713 2.5544298 2.3392127 52 0 0 0 46.855942
22.787769 3.3913341 2.4648414 88 0 0 0 47.243271
-12.909824 5.2956781 2.4676337 13 0 0 0 5.8564701
-11.653776 5.454071 2.2791171 10 0 0 0 6.6342602
26.519566 5.2897105 2.229255 120 0 0 0 46.457642
-12.842908 5.6379046 2.4816639 7 0 0 0 6.2413402
9.2965088 5.9301653 2.2933705 198 0 0 0 40.593727
9.8292379 5.9322276 2.1023569 111 0 0 0 40.991779
25.979553 5.8500066 2.1961596 26 0 0 0 46.063671
9.5869522 6.1141324 2.0828323 145 0 0 0 40.593727
53.45126 32.072662 2.0149703 8 0 0 0 40.991779
-1.133835 -45.748615 2.6083274 10 0 0 0 74.989922
-11.330732 -31.662649 2.7697051 26 0 0 0 80.062737
-10.477481 -31.709541 2.7503724 25 0 0 0 79.672394
-9.5588303 -31.502901 2.7114005 18 0 0 0 79.287292
-8.6755762 -31.338734 2.6781647 35 0 0 0 78.899162
-7.7904859 -31.087549 2.639642 35 0 0 0 78.500931
-6.9781985 -31.058109 2.6216016 27 0 0 0 78.106712
-6.1456618 -30.87467 2.592525 22 0 0 0 77.718842
-5.3425298 -30.762562 2.5711277 39 0 0 0 77.335594
-4.5182776 -30.424679 2.5328665 43 0 0 0 76.935875
-18.272026 -27.348541 2.7116239 14 0 0 0 83.975693
6.1441426 -27.408581 2.9891362 209 0 0 0 71.079163
-20.619091 -26.424614 2.76265 6 0 0 0 85.142799
-19.471418 -26.257339 2.6952622 16 0 0 0 84.754677
-84.410751 -25.595192 2.8346243 158 0 0 0 94.932076
16.401287 -25.926468 2.508374 81 0 0 0 65.596863
17.235411 -25.819628 2.5373075 87 0 0 0 65.210594
18.004578 -25.588676 2.5565214 90 0 0 0 64.820221
18.969343 -25.600317 2.6023247 55 0 0 0 64.43132
19.493176 -25.000732 2.5889466 28 0 0 0 64.032791
20.362831 -24.833838 2.6217513 44 0 0 0 63.642578
21.265207 -24.673054 2.658174 33 0 0 0 63.256561
22.255491 -24.575001 2.7046292 22 0 0 0 62.86499
-10.856153 -24.486444 2.8640494 25 0 0 0 81.237907
23.194412 -24.380859 2.7441833 10 0 0 0 62.467033
7.0194702 -23.185022 2.5811477 19 0 0 0 69.908226
39.113937 -22.176294 2.5393133 9 0 0 0 57.781288
6.616816 -21.844454 2.9951415 22 0 0 0 69.908226
10.906291 -21.700617 2.584645 382 0 0 0 67.163025
40.897018 -21.87772 2.6190271 9 0 0 0 57.388161
8.0880547 -20.996416 2.9518514 10 0 0 0 68.733185
23.87385 -20.611362 2.5736959 13 0 0 0 60.897552
29.76005 -19.898607 2.9191396 18 0 0 0 58.955601
24.172083 -18.880983 2.5047398 15 0 0 0 60.127632
30.151955 -18.085094 2.8687868 14 0 0 0 58.174301
28.277952 -17.920586 2.7327485 7 0 0 0 58.563969
30.599045 -17.346289 2.870523 12 0 0 0 57.781288
-20.983725 -5.2622423 2.846894 43 0 0 0 95.691162
-25.739594 -4.4678068 2.7868087 22 0 0 0 96.865051
-16.560442 -4.1533189 2.676621 15 0 0 0 95.691162
18.173338 -4.0846286 2.9152522 73 0 0 0 53.09288
-13.918734 -3.8566139 2.6272588 24 0 0 0 95.311119
-11.629297 -3.5321679 2.515363 103 0 0 0 94.932076
-9.9017677 -3.5491278 2.9582844 35 0 0 0 94.13868
-12.102415 -3.0356712 2.5811181 38 0 0 0 95.691162
-11.846181 -3.2826016 2.5435462 28 0 0 0 95.311119
-11.203041 -3.2537155 2.7013092 37.5 0 0 0 95.121597
-10.686545 -3.2479422 2.8616998 57 0 0 0 94.932076
19.805571 -3.4379377 2.645649 17 0 0 0 52.309593
-16.367167 -2.8443131 2.6045592 32 0 0 0 96.865051
-12.213989 -2.7467253 2.589484 29 0 0 0 96.076385
-11.88372 -2.674628 2.8185349 41 0 0 0 96.076385
-11.381513 -2.5616248 2.9872181 38 0 0 0 96.076385
16.809143 -2.9190655 2.6742108 139 0 0 0 52.309593
26.546444 -2.6155429 2.8430438 71 0 0 0 51.137966
-16.381016 -2.0240984 2.9960165 50 0 0 0 97.641403
-15.887679 -2.3606229 2.9167056 9 0 0 0 97.256081
-13.553182 -2.3554935 2.5032494 112 0 0 0 96.865051
-12.123567 -2.4152679 2.5572517 100 0 0 0 96.474327
16.014757 -1.5771071 2.9249992 129 0 0 0 51.137966
13.932164 -1.3726869 2.8951502 135 0 0 0 51.137966
14.144782 -1.0426773 2.9329653 242 0 0 0 50.746727
15.559179 -1.1465371 2.8374155 183 0 0 0 50.746727
13.859209 -0.67909902 2.8706763 197 0 0 0 50.363113
14.574343 -0.71399331 2.6567914 194 0 0 0 50.363113
13.770217 -0.33512858 2.8503351 233 0 0 0 49.969761
15.11235 -0.36763123 2.751297 114 0 0 0 49.969761
12.40832 0.30951464 2.57319 281 0 0 0 49.191048
13.691398 0.0040969918 2.8337789 186 0 0 0 49.575218
12.438494 0.61725575 2.5819702 290 0 0 0 48.80323
12.528463 0.9316864 2.6045341 304 0 0 0 48.416008
13.627439 1.3514467 2.8355861 198 0 0 0 48.018101
13.844358 1.7182662 2.8881385 91 0 0 0 47.628639
14.188994 1.7608696 2.6062453 163 0 0 0 47.628639
14.237443 2.1242239 2.9790688 197 0 0 0 47.243271
16.890135 2.5185897 2.6814344 110 0 0 0 47.243271
21.374411 3.1853049 2.8468428 74 0 0 0 47.243271
-11.436429 5.3479648 2.8500853 54 0 0 0 6.6342602
25.198877 5.0268502 2.7452929 70 0 0 0 46.457642
-55.810425 8.2762403 2.9577544 21 0 0 0 1.9549299
-48.456627 8.4001884 2.5844681 18 0 0 0 2.34746
-0.0096287103 -56.143917 3.1909792 8 0 0 0 74.597191
-2.0178378 -41.006763 3.3664324 15 0 0 0 75.377968
-45.307758 -37.17852 3.3433018 11 0 0 0 88.658577
-48.18927 -35.734962 3.4202771 6 0 0 0 89.451035
-45.903214 -35.81871 3.3210449 15 0 0 0 89.059357
-18.227276 -34.103897 3.1814625 11 0 0 0 82.415154
-51.143093 -32.381229 3.4486346 10 0 0 0 90.633827
-26.459454 -32.246971 3.429687 5 0 0 0 85.537071
-9.4666519 -31.199986 3.4773719 13 0 0 0 79.287292
-8.5818233 -31.000982 3.430752 20 0 0 0 78.899162
-7.7359552 -30.871157 3.3942993 8 0 0 0 78.500931
-6.8999348 -30.710897 3.3569887 20 0 0 0 78.106712
-5.3164153 -30.614178 3.3133912 23 0 0 0 77.335594
-43.234306 -30.445053 3.0182567 5 0 0 0 89.849823
-4.526834 -30.485302 3.286207 47 0 0 0 76.935875
6.9724321 -27.878988 3.0568025 17 0 0 0 70.69043
-11.128593 -26.86241 3.1059206 18 0 0 0 80.848808
10.991474 -26.568916 3.0550168 182 0 0 0 68.336151
-18.500809 -26.272064 3.4302144 14 0 0 0 84.355553
-10.137263 -26.273605 3.0089967 18 0 0 0 80.459457
16.548098 -26.157417 3.282366 86 0 0 0 65.596863
15.559463 -25.985683 3.2131248 130 0 0 0 65.990959
17.351456 -25.99251 3.3133152 63 0 0 0 65.210594
18.016226 -25.604584 3.3187118 134 0 0 0 64.820221
18.955723 -25.581377 3.3739722 72 0 0 0 64.43132
19.893726 -25.513092 3.4273496 18 0 0 0 64.032791
20.714653 -25.261732 3.4600883 10 0 0 0 63.642578
6.5520806 -23.705561 3.2251999 9 0 0 0 70.293526
7.4386063 -22.54586 3.1136148 45 0 0 0 69.510735
7.8268418 -21.903259 3.0507209 22 0 0 0 69.119881
50.151287 -20.788252 3.0631154 21 0 0 0 55.829647
54.721371 -19.593145 3.2789142 5 0 0 0 55.048233
22.906481 -18.816481 3.1419628 12 0 0 0 60.509098
23.659491 -18.480984 3.1820278 12 0 0 0 60.127632
10.612783 -6.0255561 3.2740457 773 0 0 0 57.781288
-24.870821 -5.5914907 3.3479044 24 0 0 0 96.076385
10.580812 -5.6684685 3.2210879 1409.5 0 0 0 57.388161
10.538942 -5.3171449 3.3157291 1369 0 0 0 56.99662
10.468715 -4.963016 3.2554774 209 0 0 0 56.59705
18.580067 -4.6584086 3.4712956 36 0 0 0 53.48542
-12.749397 -4.2190523 3.4340425 35 0 0 0 94.533913
16.219048 -4.0679026 3.4474041 104 0 0 0 53.48542
18.668013 -4.1955299 3.4678993 55 0 0 0 53.09288
19.872778 -3.9551373 3.1682904 111 0 0 0 52.70649
-13.182159 -3.3087196 3.1409707 61 0 0 0 95.691162
-11.838261 -3.2825029 3.2985871 42 0 0 0 95.311119
-9.68993 -3.3404369 3.1355972 70.5 0 0 0 94.336296
17.215164 -3.4274659 3.1851075 160 0 0 0 52.70649
25.713108 -3.1689372 3.399672 44 0 0 0 51.532768
-12.977908 -2.5875924 3.3837349 116 0 0 0 96.474327
-10.141943 -2.6813242 3.2083311 39 0 0 0 95.501144
-15.116806 -2.2460833 3.1528461 15 0 0 0 97.256081
-13.248455 -2.304832 3.1076636 52 0 0 0 96.865051
-9.9211941 -2.2330537 3.3623576 55 0 0 0 96.076385
16.649609 -2.4712694 3.0566945 173 0 0 0 51.928688
-15.919663 -1.9670548 3.307245 42 0 0 0 97.641403
-13.169504 -1.9592104 3.0771043 55 0 0 0 97.256081
-12.975127 -1.6056165 3.3429725 45 0 0 0 97.641403
-11.171335 -1.8032737 3.3184338 34 0 0 0 97.060562
-10.45533 -1.556474 3.3621919 52 0 0 0 97.256081
-10.561202 -1.0461782 3.2446527 52 0 0 0 98.034523
-10.764676 -0.7998274 3.2994404 86 0 0 0 98.427811
14.973517 -0.36164361 3.463259 174 0 0 0 49.969761
13.554851 0.34043625 3.4737272 257 0 0 0 49.191048
14.962658 0.007145796 3.4601698 113 0 0 0 49.575218
13.248751 0.82263929 3.402401 173 0 0 0 48.609619
14.913869 0.7423321 3.453949 109 0 0 0 48.80323
13.205648 1.3121284 3.4017007 170 0 0 0 48.018101
13.998091 1.0430748 3.2496905 143 0 0 0 48.416008
12.981934 1.9398878 3.0423849 216 0 0 0 47.243271
13.162443 1.6362929 3.2365804 184 0 0 0 47.628639
12.977858 2.2675633 3.0536709 175 0 0 0 46.855942
21.141256 4.2229881 3.375258 80 0 0 0 46.457642
-12.90464 5.2897177 3.3136983 115.5 0 0 0 5.8564701
-12.121602 5.3144879 3.3077555 6 0 0 0 6.2413402
9.3927574 5.363915 3.3189974 302 0 0 0 41.382278
10.79314 6.6959171 3.2601266 100.5 0 0 0 40.792755
-64.8936 8.0075302 3.4199133 19 0 0 0 1.56071
-19.812658 -31.291603 3.9484186 25 0 0 0 83.58213
-11.267135 -31.485771 3.566458 12 0 0 0 80.062737
-10.357305 -31.346573 3.5209267 9 0 0 0 79.672394
6.9791131 -27.883007 3.7640793 5 0 0 0 70.69043
6.1612487 -27.460047 3.6867292 191 0 0 0 71.079163
11.007384 -26.593033 3.765708 130 0 0 0 68.336151
11.895576 -26.853687 3.8415976 7 0 0 0 67.954979
12.607343 -26.67325 3.8582165 9 0 0 0 67.55864
13.370961 -26.580223 3.8902617 10 0 0 0 67.163025
-19.585052 -26.410864 3.5092523 5 0 0 0 84.754677
-10.159844 -26.346647 3.7111762 23 0 0 0 80.459457
14.132408 -26.456007 3.9208963 43 0 0 0 66.770317
14.922676 -26.357721 3.9586031 127 0 0 0 66.385475
15.589479 -26.02467 3.9643226 157 0 0 0 65.990959
21.781422 -25.270615 3.5323443 6 0 0 0 63.256561
-12.537541 -24.917046 3.6672201 14 0 0 0 82.021034
-13.610122 -24.034689 3.6319702 29 0 0 0 82.799614
-11.467216 -24.253302 3.5281742 16 0 0 0 81.625694
27.013924 -23.318069 3.7744391 25 0 0 0 60.897552
6.2865882 -22.746828 3.6799889 29 0 0 0 70.293526
7.7635188 -21.725504 3.5970724 49 0 0 0 69.119881
22.49239 -20.39669 3.9633403 13 0 0 0 61.298969
29.362894 -19.633217 3.7391238 4 0 0 0 58.955601
22.721365 -18.657793 3.8397505 5 0 0 0 60.509098
30.890118 -18.527143 3.8135655 11 0 0 0 58.174301
28.084648 -17.798109 3.5224409 11 0 0 0 58.563969
10.614264 -6.0238843 3.7264886 328 0 0 0 57.781288
-10.969489 -5.8733072 3.79966 25 0 0 0 91.792931
10.561852 -5.657093 3.8079014 486 0 0 0 57.388161
10.494599 -5.2925315 3.5912237 428 0 0 0 56.99662
10.501019 -5.2980289 3.8851838 485 0 0 0 56.99662
18.094532 -5.0127563 3.8655896 66 0 0 0 53.881432
10.41899 -4.9372826 3.5240216 78 0 0 0 56.59705
10.525817 -4.9899354 3.8487046 23 0 0 0 56.59705
15.980869 -4.851644 3.8518391 21 0 0 0 54.265289
15.98832 -4.4277039 3.8269575 80 0 0 0 53.881432
16.007364 -4.0119843 3.8074207 64 0 0 0 53.48542
18.458939 -4.1486597 3.8957474 48 0 0 0 53.09288
-12.829739 -3.8988397 3.76178 42 0 0 0 94.932076
18.814081 -3.7449379 3.9499614 26 0 0 0 52.70649
26.92605 -3.9920986 3.5694513 7 0 0 0 51.928688
-17.707424 -3.0769463 3.701906 14 0 0 0 96.865051
-16.150185 -3.2197578 3.7981281 17 0 0 0 96.474327
-11.655019 -3.2315993 3.9927299 57 0 0 0 95.311119
-11.188802 -3.4003489 3.8616471 52 0 0 0 94.932076
-10.360794 -3.1527717 3.8441389 37 0 0 0 94.932076
-9.3160419 -3.0868742 3.7270598 7 0 0 0 94.533913
15.539161 -3.0918732 3.6579394 34 0 0 0 52.70649
18.311716 -3.1792698 3.8286448 43 0 0 0 52.309593
25.172327 -3.1024299 3.9574916 57 0 0 0 51.532768
-14.502267 -2.5227513 3.7598255 34 0 0 0 96.865051
-12.786265 -2.7145712 3.8277478 45.5 0 0 0 96.27536
-11.672386 -2.9297838 3.9729125 32 0 0 0 95.691162
18.046316 -2.6779797 3.7594225 55 0 0 0 51.928688
26.620308 -2.618118 3.5094719 60 0 0 0 51.137966
-16.771742 -2.0751777 3.8960459 28 0 0 0 97.641403
-10.212332 -2.0400591 3.6976483 11 0 0 0 96.474327
-9.7758169 -2.2038984 3.5594471 28 0 0 0 96.076385
16.358643 -2.219039 3.811029 75.5 0 0 0 51.730728
17.343538 -2.1394763 3.6031094 121 0 0 0 51.532768
-15.767539 -1.5588986 3.6547301 21 0 0 0 98.034523
-14.075433 -1.7416186 3.9757922 11 0 0 0 97.641403
-12.808722 -1.587196 3.9385657 39 0 0 0 97.641403
-10.475919 -1.8226249 3.5140631 23 0 0 0 96.865051
-15.693728 -1.1632144 3.6299102 15 0 0 0 98.427811
-13.759807 -1.0198355 3.8684065 76 0 0 0 98.427811
-11.091209 -1.0966344 3.6813633 102 0 0 0 98.034523
-10.853496 -1.0769268 3.870697 51 0 0 0 98.034523
15.130377 -1.112394 3.506597 26 0 0 0 50.746727
15.590276 -1.1460874 3.9965818 93 0 0 0 50.746727
-12.02987 -0.5948891 3.9753759 13 0 0 0 98.810883
-11.722911 -0.86886287 3.8807738 41 0 0 0 98.427811
-11.102064 -0.82672977 3.9501045 90 0 0 0 98.427811
14.061857 -0.68652195 3.6040061 202 0 0 0 50.363113
15.143767 -0.7391237 3.5048587 136 0 0 0 50.363113
13.698793 -0.33099645 3.5093403 234 0 0 0 49.969761
14.178921 -0.34253624 3.9840765 106 0 0 0 49.969761
13.049681 0.0084684668 3.9914322 171 0 0 0 49.575218
13.827174 0.17820518 3.7154942 161.5 0 0 0 49.383133
14.035995 0.0066840774 3.943624 163 0 0 0 49.575218
15.134765 0.38002229 3.500937 80 0 0 0 49.191048
13.081017 0.81353891 3.6864619 134 0 0 0 48.609619
13.038016 1.2955484 3.6855333 145 0 0 0 48.018101
12.290802 1.6817851 3.6438391 143 0 0 0 47.435955
12.627802 1.8872193 3.5932059 201 0 0 0 47.243271
15.890478 1.5779508 3.6913824 61 0 0 0 48.018101
12.464689 2.1805797 3.8739398 248 0 0 0 46.855942
8.3248434 4.8959289 3.6840734 179 0 0 0 41.187027
8.9427137 4.8222952 3.7482994 192.5 0 0 0 41.776447
9.4189253 4.7814736 3.7646494 181 0 0 0 42.170422
20.930674 4.7194676 3.8917618 93 0 0 0 46.063671
-13.732045 5.244061 3.6697888 75 0 0 0 5.4621501
-12.862045 5.2713757 3.8140731 49 0 0 0 5.8564701
-12.072786 5.2894168 3.9391088 5 0 0 0 6.2413402
-11.290526 5.2752156 3.725929 62 0 0 0 6.6342602
7.8953934 5.0486436 3.5762489 78 0 0 0 40.593727
9.3589144 5.243166 3.6459341 113.33334 0 0 0 41.513668
9.2727442 5.7089295 3.7007024 154.66667 0 0 0 40.859097
10.176506 6.3171339 3.671062 180.5 0 0 0 40.792755
10.669982 6.6189127 3.5363121 191.5 0 0 0 40.792755
-15.857769 7.43995 3.5250211 6 0 0 0 6.6342602
54.411068 30.856911 3.5526845 5 0 0 0 41.382278
-3.0386345 -41.161808 4.3872647 28 0 0 0 75.771324
-2.0201077 -41.065769 4.3697648 13 0 0 0 75.377968
-1.0100254 -41.02314 4.3605266 37 0 0 0 74.989922
-38.358818 -36.528923 4.3448 7 0 0 0 87.495827
-35.728786 -35.736748 4.146893 8 0 0 0 87.111168
-33.59816 -35.296936 4.0004292 4 0 0 0 86.721054
-11.343303 -31.7173 4.4203067 34 0 0 0 80.062737
-10.429767 -31.585758 4.3650594 18 0 0 0 79.672394
-21.004616 -31.44017 4.0303607 16 0 0 0 83.975693
-9.5089016 -31.360367 4.3004942 19 0 0 0 79.287292
-8.6376867 -31.225679 4.2516642 23 0 0 0 78.899162
-7.7651687 -31.012478 4.1954546 24 0 0 0 78.500931
-6.8682699 -30.596474 4.1153474 68 0 0 0 78.106712
-6.1023045 -30.688486 4.1059651 15 0 0 0 77.718842
-5.3095894 -30.608921 4.076427 11 0 0 0 77.335594
-4.5218768 -30.49139 4.0445423 36 0 0 0 76.935875
6.1660657 -27.479223 4.3860765 14 0 0 0 71.079163
6.8481517 -27.359467 4.3918514 29 0 0 0 70.69043
8.213172 -27.094591 4.4075356 38 0 0 0 69.908226
8.941226 -27.084263 4.4394231 41 0 0 0 69.510735
10.313528 -26.754889 4.4618468 23 0 0 0 68.733185
11.004712 -26.58544 4.4766488 43 0 0 0 68.336151
-10.098262 -26.187563 4.3832598 5 0 0 0 80.459457
16.534609 -26.125332 4.0391507 155 0 0 0 65.596863
17.35881 -25.993011 4.0825138 35 0 0 0 65.210594
18.043503 -25.633154 4.0937777 117 0 0 0 64.820221
18.971043 -25.592093 4.1593609 63 0 0 0 64.43132
20.885221 -25.459845 4.2974505 20 0 0 0 63.642578
-12.335155 -24.515051 4.2874556 6 0 0 0 82.021034
-11.801885 -24.9622 4.3133249 10 0 0 0 81.625694
-12.946726 -24.23118 4.2922006 24 0 0 0 82.415154
49.803108 -20.633785 4.3847537 6 0 0 0 55.829647
51.387508 -19.826246 4.4802194 11 0 0 0 55.431927
21.911442 -18.912201 4.4968977 15 0 0 0 60.897552
28.846985 -18.273373 4.4568343 7 0 0 0 58.563969
29.48855 -17.680443 4.4878883 17 0 0 0 58.174301
38.169754 -16.92754 4.4186525 6 0 0 0 56.212219
38.787117 -16.073559 4.4436321 11 0 0 0 55.829647
49.847462 -16.470736 4.2738113 4 0 0 0 54.66114
53.00943 -14.671333 4.4778695 6 0 0 0 53.881432
52.044579 -13.037771 4.3698764 13 0 0 0 53.48542
53.038727 -11.910736 4.4279261 18 0 0 0 53.09288
53.140385 -10.570113 4.4144692 4836 0 0 0 52.70649
10.616795 -6.0277267 4.030211 307 0 0 0 57.781288
-10.554026 -5.9886084 4.1547871 31.5 0 0 0 91.406548
10.429702 -5.583014 4.1974969 4 0 0 0 57.388161
10.380825 -5.2330441 4.1260719 5 0 0 0 56.99662
-12.221513 -4.7216129 4.3228068 20 0 0 0 93.745514
10.417598 -4.9343505 4.0921054 23 0 0 0 56.59705
15.812889 -4.8007817 4.2182083 22 0 0 0 54.265289
-12.442499 -4.4591455 4.3605466 8 0 0 0 94.13868
15.449411 -4.2788744 4.4926157 35 0 0 0 53.881432
18.993435 -4.2650032 4.4844198 19 0 0 0 53.09288
-14.329077 -3.5963023 4.1408138 34 0 0 0 95.691162
-10.87858 -3.7521181 4.2229962 21.5 0 0 0 94.336296
15.93314 -3.9934335 4.1939793 58 0 0 0 53.48542
25.559443 -3.7898591 4.030519 51 0 0 0 51.928688
-10.966648 -3.1909637 4.3323679 26.5 0 0 0 95.121597
16.179012 -3.2188044 4.2126355 44 0 0 0 52.70649
18.287075 -3.1717157 4.278492 28 0 0 0 52.309593
-12.6952 -2.5310931 4.2707591 22 0 0 0 96.474327
-11.46109 -2.8809831 4.1916032 26 0 0 0 95.691162
-10.846552 -2.7265627 4.2425885 23 0 0 0 95.691162
26.792168 -2.6349959 4.1989851 20 0 0 0 51.137966
16.038088 -2.3779199 4.1420517 38 0 0 0 51.928688
-12.654433 -1.5657945 4.2068648 35 0 0 0 97.641403
16.697529 -1.6411949 4.285861 36 0 0 0 51.137966
26.231155 -1.9301983 4.1038933 34 0 0 0 50.746727
-11.762983 -0.58574152 4.3204594 39 0 0 0 98.810883
12.222136 -0.59278941 4.3492045 171 0 0 0 50.363113
-12.298304 -0.15813549 4.2079697 25.5 0 0 0 99.396439
-11.884766 -0.29935446 4.3607512 19.5 0 0 0 99.201447
12.266338 -0.29225633 4.3613582 100 0 0 0 49.969761
12.504699 -0.30228359 4.1376719 134 0 0 0 49.969761
12.561544 0.16114517 4.1563239 208.5 0 0 0 49.383133
13.15116 0.33263752 4.0237699 161 0 0 0 49.191048
12.839525 0.63940036 4.2523947 107 0 0 0 48.80323
13.141305 0.65667623 4.0248361 174 0 0 0 48.80323
13.4719 1.0064025 4.1315718 158 0 0 0 48.416008
13.696844 1.3632244 4.2090693 134 0 0 0 48.018101
13.886636 1.7285256 4.2787409 142 0 0 0 47.628639
9.7114143 4.9291415 4.1478171 109 0 0 0 42.170422
-13.631097 5.2031221 4.1792135 159.5 0 0 0 5.4621501
-12.765108 5.2292843 4.2896309 11.5 0 0 0 5.8564701
-11.939902 5.2326293 4.2150936 7 0 0 0 6.2413402
9.8649569 6.2984819 4.166636 117 0 0 0 40.593727
65.921394 41.782749 4.4274731 18 0 0 0 40.593727
0.001041572 -56.103302 4.5853558 13 0 0 0 74.597191
-44.905521 -38.744774 4.8598981 11 0 0 0 88.271072
-45.291794 -37.178677 4.8014202 30 0 0 0 88.658577
-48.21537 -35.76733 4.9171472 9 0 0 0 89.451035
-3.4612601 -35.170452 4.6309271 25 0 0 0 76.165115
-29.517389 -32.57428 4.6798625 14 0 0 0 86.32518
-21.149311 -31.669149 4.9952779 13 0 0 0 83.975693
-7.0002227 -31.18722 4.9848952 6 0 0 0 78.106712
5.3889213 -31.067711 4.9081664 16 0 0 0 71.865524
-4.5353928 -30.585714 4.8218799 32 0 0 0 76.935875
11.748339 -26.52095 4.5122113 52 0 0 0 67.954979
12.473364 -26.389378 4.5398355 20 0 0 0 67.55864
13.231002 -26.301617 4.5784454 7 0 0 0 67.163025
13.984328 -26.178461 4.6146173 10 0 0 0 66.770317
14.748799 -26.050358 4.6536932 45 0 0 0 66.385475
15.527027 -25.919834 4.6962743 47 0 0 0 65.990959
16.286489 -25.733253 4.73276 34 0 0 0 65.596863
17.179075 -25.723656 4.8061442 45 0 0 0 65.210594
17.992002 -25.559483 4.8557463 8 0 0 0 64.820221
18.965609 -25.584173 4.9463501 63 0 0 0 64.43132
24.530891 -24.539469 4.5246491 47 0 0 0 62.073193
25.647593 -24.426289 4.6174507 36 0 0 0 61.681488
39.241684 -22.239307 4.7669868 18 0 0 0 57.781288
40.807407 -21.82041 4.8904638 7 0 0 0 57.388161
23.149374 -20.991262 4.8515391 15 0 0 0 61.298969
54.254051 -19.415218 4.6864471 10 0 0 0 55.048233
23.813967 -18.594364 4.6934876 12 0 0 0 60.127632
38.710091 -18.316849 4.530169 12 0 0 0 56.59705
29.998589 -8.3023958 4.8441153 5 0 0 0 53.881432
29.835987 -7.4735904 4.7878656 44 0 0 0 53.48542
-12.051534 -5.0041595 4.6254563 14 0 0 0 93.357933
16.332962 -5.4000654 4.8168254 60 0 0 0 54.66114
-14.240524 -4.7120652 4.9440274 22 0 0 0 94.533913
-12.329612 -4.76825 4.6853366 22 0 0 0 93.745514
-11.977135 -4.6319518 4.866858 12 0 0 0 93.745514
15.4215 -4.6822815 4.5159049 77 0 0 0 54.265289
17.081337 -4.7295437 4.5216231 30 0 0 0 53.881432
-14.354834 -4.3647237 4.5740442 31 0 0 0 94.932076
15.693788 -4.3434038 4.9639554 9 0 0 0 53.881432
25.462826 -4.417592 4.671186 25 0 0 0 52.309593
15.746773 -3.7432485 4.5366087 62.5 0 0 0 53.28915
17.435339 -3.9159837 4.5594487 63 0 0 0 53.09288
-12.515301 -3.4746277 4.6037478 23 0 0 0 95.311119
15.89617 -3.1627002 4.5431442 40 0 0 0 52.70649
-12.115049 -2.7307787 4.7073321 27 0 0 0 96.076385
-22.934687 -2.2631507 4.7358589 37 0 0 0 98.034523
-13.104569 -2.2842386 4.7136073 29 0 0 0 96.865051
-12.172879 -2.1218905 4.6836047 39 0 0 0 96.865051
18.06842 -2.2254486 4.6461267 59 0 0 0 51.532768
-13.569954 -1.683744 4.8441534 13 0 0 0 97.641403
-12.77562 -1.9049004 4.7373891 26 0 0 0 97.256081
16.091484 -1.9826324 4.5460377 42 0 0 0 51.532768
17.145245 -1.6850691 4.8284817 27 0 0 0 51.137966
-13.113234 -0.97632378 4.9815698 32 0 0 0 98.427811
13.441733 -0.98397261 4.7852235 94 0 0 0 50.746727
13.689281 -0.66840792 4.528914 84 0 0 0 50.363113
15.184285 -0.36404547 4.6378889 132 0 0 0 49.969761
-14.179364 0.33538747 4.9089117 33 0 0 0 0
13.33519 0.011007401 4.7364783 151 0 0 0 49.575218
13.12606 0.98298913 4.6770163 137 0 0 0 48.416008
14.054114 0.70464098 4.996367 59 0 0 0 48.80323
12.690691 1.2657139 4.8468995 146 0 0 0 48.018101
13.052303 1.3016316 4.6612716 147 0 0 0 48.018101
13.877107 1.0341498 4.5996614 85 0 0 0 48.416008
14.156198 1.4063097 4.70156 69 0 0 0 48.018101
12.752719 1.5901945 4.8840432 131 0 0 0 47.628639
13.245174 1.6513509 4.7427454 30 0 0 0 47.628639
13.759343 1.7103143 4.5838623 83 0 0 0 47.628639
13.763389 2.0563393 4.6008248 58 0 0 0 47.243271
26.496611 3.9470165 4.8477516 27 0 0 0 47.243271
-20.268284 5.0378218 4.6933098 25 0 0 0 3.51739
-14.503896 5.138092 4.970346 114 0 0 0 5.0714798
-13.537137 5.1675892 4.6819825 146 0 0 0 5.4621501
-12.860351 5.2640343 4.8288059 7 0 0 0 5.8564701
-11.900167 5.2094245 4.6726565 75 0 0 0 6.2413402
37.018066 23.489635 4.6617937 18 0 0 0 40.593727
-3.035146 -41.221039 5.4097228 26 0 0 0 75.771324
-2.0166023 -41.154083 5.3921309 13 0 0 0 75.377968
-1.0024556 -41.03228 5.3706474 46 0 0 0 74.989922
-35.916946 -35.925098 5.4024372 9 0 0 0 87.111168
-33.783733 -35.492073 5.2124891 5 0 0 0 86.721054
-18.225098 -34.115356 5.0724583 21 0 0 0 82.415154
-54.729694 -32.811363 5.2214594 4 0 0 0 91.024872
-11.384655 -31.834061 5.2728686 31 0 0 0 80.062737
-8.7128038 -31.499031 5.0971131 11 0 0 0 78.899162
-7.8046679 -31.172079 5.0118442 30 0 0 0 78.500931
5.4997888 -27.667336 5.0918493 8 0 0 0 71.465508
6.186708 -27.568666 5.0994902 9 0 0 0 71.079163
6.8632679 -27.417683 5.1006145 9 0 0 0 70.69043
7.5698171 -27.371475 5.1243262 10 0 0 0 70.293526
8.2756577 -27.298525 5.1464548 23 0 0 0 69.908226
9.0078125 -27.283949 5.1830454 17 0 0 0 69.510735
9.7232895 -27.19136 5.2085257 20 0 0 0 69.119881
10.45276 -27.113956 5.2405353 39 0 0 0 68.733185
11.153315 -26.942453 5.258081 27 0 0 0 68.336151
11.896889 -26.854471 5.2955637 33 0 0 0 67.954979
12.652914 -26.767439 5.3372722 26 0 0 0 67.55864
13.434824 -26.705029 5.3881497 40 0 0 0 67.163025
14.174778 -26.533403 5.421402 23 0 0 0 66.770317
14.948364 -26.401354 5.4669991 28 0 0 0 66.385475
19.832399 -25.424303 5.0072303 37 0 0 0 64.032791
20.595991 -25.107265 5.0422153 37 0 0 0 63.642578
21.526421 -24.965414 5.1174345 50 0 0 0 63.256561
22.45879 -24.789114 5.1918926 46 0 0 0 62.86499
23.414375 -24.601885 5.270618 34 0 0 0 62.467033
31.384478 -23.280777 5.0927744 5 0 0 0 59.73484
32.798069 -23.102648 5.2281923 6 0 0 0 59.341049
42.833157 -21.567888 5.0677166 6 0 0 0 56.99662
-14.139383 -5.0724831 5.3195395 9 0 0 0 94.13868
17.131493 -5.1967072 5.4525943 15 0 0 0 54.265289
15.670406 -4.7576265 5.3973751 28 0 0 0 54.265289
17.342989 -3.8921165 5.4155493 49 0 0 0 53.09288
16.779137 -3.3348105 5.2144394 30 0 0 0 52.70649
17.643175 -3.0603397 5.0154037 50 0 0 0 52.309593
-20.128757 -2.9937437 5.1843419 24 0 0 0 97.256081
16.663805 -2.8879254 5.1559701 87 0 0 0 52.309593
17.837923 -2.6407919 5.4950914 42 0 0 0 51.928688
18.026901 -2.671906 5.1039796 9 0 0 0 51.928688
16.146767 -2.394002 5.3830643 46 0 0 0 51.928688
15.912062 -1.1696682 5.2642884 114 0 0 0 50.746727
14.119168 -0.68435854 5.364346 127 0 0 0 50.363113
18.918077 -0.92262882 5.3052726 72 0 0 0 50.363113
13.890419 0.18299177 5.2740879 85 0 0 0 49.383133
14.185638 0.36124524 5.0376296 61 0 0 0 49.191048
13.847293 0.69431227 5.2641926 75 0 0 0 48.80323
13.734933 1.0284508 5.2302313 105 0 0 0 48.416008
-20.081799 4.9907641 5.1544161 28 0 0 0 3.51739
-14.42504 5.1038542 5.3141265 87 0 0 0 5.0714798
-13.510111 5.151361 5.0228906 92 0 0 0 5.4621501
-13.462359 5.1325345 5.3544474 85 0 0 0 5.4621501
-12.783297 5.2317381 5.1346564 10 0 0 0 5.8564701
0.0019412132 -56.204208 5.9586926 15 0 0 0 74.597191
-56.186638 -37.551395 5.5293832 5 0 0 0 90.24337
-40.292759 -36.527706 5.7806702 11 0 0 0 87.889687
-38.065094 -36.249313 5.5885448 13 0 0 0 87.495827
-21.134825 -31.647842 5.9335208 10 0 0 0 83.975693
-18.752771 -31.303881 5.6906676 7 0 0 0 83.188362
-8.6994734 -31.4522 5.8971186 10 0 0 0 78.899162
-7.8209453 -31.238798 5.8193841 22 0 0 0 78.500931
-6.9878879 -31.133991 5.7660403 6 0 0 0 78.106712
-4.5409875 -30.626457 5.5944095 26 0 0 0 76.935875
5.5808878 -28.071207 5.8697476 44 0 0 0 71.465508
6.22964 -27.757076 5.8339195 30 0 0 0 71.079163
6.9317999 -27.688585 5.8528533 41 0 0 0 70.69043
7.640883 -27.625875 5.8767796 73 0 0 0 70.293526
8.3356752 -27.494322 5.889926 44 0 0 0 69.908226
9.0486116 -27.405708 5.9160528 30 0 0 0 69.510735
9.8015594 -27.408329 5.9659481 20 0 0 0 69.119881
10.518725 -27.283401 5.9924812 11 0 0 0 68.733185
11.164283 -26.967726 5.9810796 9 0 0 0 68.336151
15.706709 -26.218466 5.5066032 19 0 0 0 65.990959
16.5541 -26.154617 5.5759931 13 0 0 0 65.596863
17.377609 -26.019749 5.6356945 19 0 0 0 65.210594
18.119848 -25.74016 5.6691475 24 0 0 0 64.820221
18.970272 -25.589855 5.7360802 39 0 0 0 64.43132
19.693802 -25.24634 5.7651405 40 0 0 0 64.032791
20.581203 -25.088745 5.8419476 41 0 0 0 63.642578
21.518908 -24.956223 5.9314404 36 0 0 0 63.256561
39.187778 -17.370268 5.5899062 8 0 0 0 56.212219
-21.112478 -5.2979736 5.544208 26 0 0 0 95.691162
17.062641 -4.7243719 5.8321004 44 0 0 0 53.881432
18.478983 -4.6262603 5.8003483 21 0 0 0 53.48542
15.342058 -4.2434464 5.638947 19 0 0 0 53.881432
16.303232 -4.0859246 5.5393071 26 0 0 0 53.48542
17.327288 -3.8917844 5.8510075 49 0 0 0 53.09288
15.620829 -3.1024129 5.643352 21 0 0 0 52.70649
16.656181 -3.3134718 5.597651 26 0 0 0 52.70649
17.210415 -2.9854872 5.7567611 58 0 0 0 52.309593
16.693712 -2.4688923 5.9781804 44 0 0 0 51.928688
18.557034 -2.2821863 5.6965036 35 0 0 0 51.532768
17.993156 -1.7649804 5.5105357 16 0 0 0 51.137966
15.412982 -0.3667984 5.8469753 78 0 0 0 49.969761
-20.110018 4.9973874 5.6724706 16 0 0 0 3.51739
-15.487883 5.0614491 5.6574788 78 0 0 0 4.6859999
-14.377781 5.0865421 5.6666007 70 0 0 0 5.0714798
-3.02319 -41.066128 6.4083624 29 0 0 0 75.771324
-2.0192547 -41.221485 6.4220734 15 0 0 0 75.377968
-44.92197 -38.759026 6.3028622 20 0 0 0 88.271072
-45.418236 -37.282494 6.2420521 24 0 0 0 88.658577
-32.139641 -37.280319 6.4465981 9 0 0 0 85.935822
-34.021362 -35.754398 6.463501 10 0 0 0 86.721054
-32.48748 -35.865055 6.3382845 5 0 0 0 86.32518
-14.316535 -32.315475 6.3866301 17 0 0 0 81.237907
-13.328277 -32.195015 6.2964602 26 0 0 0 80.848808
-12.34406 -32.018208 6.2009592 24 0 0 0 80.459457
-11.370052 -31.794228 6.1018987 31 0 0 0 80.062737
-10.502141 -31.807472 6.0530605 9 0 0 0 79.672394
-3.8599176 -31.315353 6.4761848 23 0 0 0 76.54837
-6.9213238 -30.838669 6.4890704 48 0 0 0 78.106712
-6.1148324 -30.757849 6.4383516 39 0 0 0 77.718842
-5.3353734 -30.765234 6.4102306 42 0 0 0 77.335594
-4.5525236 -30.707401 6.3726778 25 0 0 0 76.935875
12.002318 -27.090857 6.0709105 4 0 0 0 67.954979
15.708405 -26.220522 6.2591453 34 0 0 0 65.990959
16.694471 -26.375284 6.3908629 27 0 0 0 65.596863
17.518696 -26.229954 6.4571366 30 0 0 0 65.210594
18.168987 -25.809212 6.4609718 24 0 0 0 64.820221
22.470911 -24.802013 6.0232229 33 0 0 0 62.86499
23.448477 -24.637239 6.1202884 27 0 0 0 62.467033
26.357313 -23.895502 6.399209 12 0 0 0 61.298969
16.964966 -4.2450047 6.1913514 32 0 0 0 53.48542
16.479019 -3.6957207 6.3956866 33 0 0 0 53.09288
16.821241 -3.7722533 6.1044102 71 0 0 0 53.09288
17.212513 -2.9796586 6.1862121 45 0 0 0 52.309593
27.112837 -2.6617143 6.2627988 25 0 0 0 51.137966
-24.695354 -2.4409628 6.31352 26 0 0 0 98.034523
-22.691259 -2.2428465 6.3704753 17 0 0 0 98.034523
-19.792088 4.9138384 6.0800643 44 0 0 0 3.51739
-18.084015 4.9612875 6.0524545 57 0 0 0 3.9121399
-16.627691 4.9908991 6.4478559 51 0 0 0 4.2929802
-16.667944 5.0035067 6.041081 67 0 0 0 4.2929802
-15.430266 5.0420294 6.0302725 53 0 0 0 4.6859999
66.020416 41.862446 6.3821554 5 0 0 0 40.593727
-38.326927 -36.511539 6.9293876 10 0 0 0 87.495827
-35.891438 -35.912254 6.6480947 8 0 0 0 87.111168
-18.250919 -34.164951 6.9967508 20 0 0 0 82.415154
-21.132177 -31.644262 6.8745794 14 0 0 0 83.975693
-11.373136 -31.803892 6.9345717 35 0 0 0 80.062737
-10.423425 -31.569954 6.8258882 12 0 0 0 79.672394
-19.895845 -31.436428 6.7219667 6 0 0 0 83.58213
-9.5333223 -31.444803 6.7462168 16 0 0 0 79.287292
-8.6392813 -31.235689 6.6539135 28 0 0 0 78.899162
-7.7774825 -31.066507 6.5752039 25 0 0 0 78.500931
5.5900931 -28.089277 6.5745735 41 0 0 0 71.465508
6.2598095 -27.866137 6.5558739 15 0 0 0 71.079163
7.0061231 -27.961876 6.6160073 9 0 0 0 70.69043
9.193881 -27.826775 6.7240334 5 0 0 0 69.510735
9.8583155 -27.550152 6.7131591 7 0 0 0 69.119881
13.608088 -27.035122 6.9403577 7 0 0 0 67.163025
11.143303 -26.90275 6.6798706 6 0 0 0 68.336151
19.039932 -25.683077 6.5436144 61 0 0 0 64.43132
21.819979 -25.304377 6.83603 17 0 0 0 63.256561
10.744322 -20.104122 6.9217396 17 0 0 0 66.770317
-19.680159 4.8890781 6.5434957 39 0 0 0 3.51739
-18.094179 4.956924 6.5112309 34 0 0 0 3.9121399
-17.930573 4.9113789 6.9036813 40 0 0 0 3.9121399
-3.0285451 -41.147591 7.4421406 33 0 0 0 75.771324
-14.355117 -32.403393 7.2757168 23 0 0 0 81.237907
-13.333341 -32.208103 7.1564837 22 0 0 0 80.848808
-12.328881 -31.979738 7.0366278 37 0 0 0 80.459457
-8.6949768 -31.460135 7.4998622 19 0 0 0 78.899162
-7.8170781 -31.249678 7.4017291 27 0 0 0 78.500931
-6.9737601 -31.099968 7.3234301 27 0 0 0 78.106712
-6.1408377 -30.919264 7.2431073 26 0 0 0 77.718842
-5.3334737 -30.788641 7.1794944 24 0 0 0 77.335594
-4.5373969 -30.644873 7.1176443 13 0 0 0 76.935875
5.5956106 -28.114361 7.2841296 37 0 0 0 71.465508
6.2528172 -27.832886 7.2483974 20 0 0 0 71.079163
6.9745584 -27.834301 7.2904172 33 0 0 0 70.69043
7.6625028 -27.681488 7.2968798 21 0 0 0 70.293526
8.3513985 -27.525545 7.3070307 14 0 0 0 69.908226
9.0585823 -27.416836 7.3343415 13 0 0 0 69.510735
9.761198 -27.278049 7.3584714 12 0 0 0 69.119881
10.481685 -27.170944 7.3960876 17 0 0 0 68.733185
11.222457 -27.09226 7.446692 27 0 0 0 68.336151
11.91922 -26.888891 7.4683862 17 0 0 0 67.954979
12.606085 -26.653561 7.4861603 5 0 0 0 67.55864
15.749519 -26.277874 7.0233383 19 0 0 0 65.990959
16.677885 -26.338238 7.1457491 37 0 0 0 65.596863
17.520935 -26.222729 7.2281322 23 0 0 0 65.210594
18.203583 -25.848068 7.2453666 20 0 0 0 64.820221
19.071978 -25.716267 7.3366518 80 0 0 0 64.43132
23.869095 -25.078131 7.0813036 42 0 0 0 62.467033
24.82687 -24.833946 7.1815138 41 0 0 0 62.073193
25.974298 -24.73591 7.3343682 46 0 0 0 61.681488
27.052389 -24.524496 7.4654984 9 0 0 0 61.298969
53.679932 -20.699087 7.4919262 11 0 0 0 55.431927
-19.645596 4.8727946 7.0235343 36 0 0 0 3.51739
-19.437996 4.8205709 7.4356685 35 0 0 0 3.51739
-46.992863 8.126358 7.1904178 5 0 0 0 2.34746
-44.941525 -38.789639 7.7664714 14 0 0 0 88.271072
-45.417656 -37.295319 7.688086 17 0 0 0 88.658577
-36.020302 -36.041344 7.9328136 6 0 0 0 87.111168
-33.837719 -35.561562 7.6435337 12 0 0 0 86.721054
-32.536396 -35.919266 7.5470867 10 0 0 0 86.32518
-16.573431 -32.945049 7.5701847 6 0 0 0 82.021034
-12.378832 -32.127052 7.9109359 24 0 0 0 80.459457
-11.420376 -31.954741 7.797267 18 0 0 0 80.062737
-10.478853 -31.757772 7.6842465 23 0 0 0 79.672394
-9.5624447 -31.562082 7.5778995 24 0 0 0 79.287292
-5.3515959 -30.895954 7.9741125 36 0 0 0 77.335594
-4.5584698 -30.790535 7.9153857 30 0 0 0 76.935875
5.5250034 -27.758408 7.8953171 8 0 0 0 71.465508
6.2181807 -27.677002 7.9125948 17 0 0 0 71.079163
6.8996787 -27.53442 7.9173045 13 0 0 0 70.69043
7.5861673 -27.404737 7.9305806 25 0 0 0 70.293526
8.9730053 -27.157022 7.9756131 7 0 0 0 69.510735
9.6498728 -26.966352 7.986228 27 0 0 0 69.119881
21.048218 -25.646999 7.600812 13 0 0 0 63.642578
21.887417 -25.373032 7.675878 15 0 0 0 63.256561
22.800428 -25.155451 7.776289 7 0 0 0 62.86499
23.885981 -25.08666 7.9329348 67 0 0 0 62.467033
27.962837 -24.126337 7.5512633 11 0 0 0 60.897552
30.400421 -23.728899 7.8847594 4 0 0 0 60.127632
37.911724 -22.72378 7.9476843 6 0 0 0 58.174301
-37.872829 8.4694834 7.7664819 17 0 0 0 3.1218901
-3.0351467 -41.246063 8.4773092 18 0 0 0 75.771324
-38.083626 -36.279869 8.1872616 5 0 0 0 87.495827
-13.330552 -32.218124 8.0114202 23 0 0 0 80.848808
-7.8023014 -31.192101 8.1774311 10 0 0 0 78.500931
-6.9876976 -31.164049 8.122447 36 0 0 0 78.106712
-6.1607308 -31.021727 8.043376 19 0 0 0 77.718842
10.342946 -26.810894 8.0123701 26 0 0 0 68.733185
11.105115 -26.808451 8.0898752 7 0 0 0 68.336151
11.886656 -26.814503 8.1764803 6 0 0 0 67.954979
14.180118 -26.52874 8.3833122 8 0 0 0 66.770317
14.94428 -26.380142 8.4490547 22 0 0 0 66.385475
19.127363 -25.790232 8.1461811 60 0 0 0 64.43132
20.03874 -25.676924 8.2624569 78 0 0 0 64.032791
20.920834 -25.491484 8.3647814 9 0 0 0 63.642578
21.77216 -25.239122 8.4541349 5 0 0 0 63.256561
24.863646 -24.861612 8.0515795 53 0 0 0 62.073193
25.979408 -24.73176 8.2126799 48 0 0 0 61.681488
26.966139 -24.4375 8.3315659 7 0 0 0 61.298969
31.745188 -23.54731 8.0808945 5 0 0 0 59.73484
33.102093 -23.315897 8.277873 5 0 0 0 59.341049
34.423122 -23.002878 8.4643087 7 0 0 0 58.955601
-41.160465 8.1553726 8.3935814 13 0 0 0 2.7321
-36.924095 8.249197 8.4934912 15 0 0 0 3.1218901
-55.757664 -39.292511 8.9160147 6 0 0 0 89.849823
-32.20932 -37.361652 8.9022446 12 0 0 0 85.935822
-33.957298 -35.687416 8.8898029 12 0 0 0 86.721054
-32.569946 -35.95652 8.7557154 16 0 0 0 86.32518
-24.062864 -34.186844 8.5782909 8 0 0 0 84.355553
5.6257076 -28.234243 8.7383432 19 0 0 0 71.465508
6.252069 -27.802485 8.6493921 26 0 0 0 71.079163
6.9368401 -27.659859 8.6548233 23 0 0 0 70.69043
7.630415 -27.543678 8.6738605 27 0 0 0 70.293526
8.3344641 -27.44943 8.7053499 23 0 0 0 69.908226
9.033637 -27.322598 8.7322063 32 0 0 0 69.510735
9.7477732 -27.222952 8.7735367 26 0 0 0 69.119881
10.468316 -27.119787 8.8197899 14 0 0 0 68.733185
11.193299 -27.006386 8.8689346 18 0 0 0 68.336151
11.912013 -26.857878 8.9128809 15 0 0 0 67.954979
12.666636 -26.767239 8.9825706 11 0 0 0 67.55864
15.726976 -26.238783 8.5241566 14 0 0 0 65.990959
16.569471 -26.165869 8.6292095 20 0 0 0 65.596863
17.375952 -26.004734 8.7134104 8 0 0 0 65.210594
18.158855 -25.783382 8.7853165 10 0 0 0 64.820221
19.145266 -25.813723 8.9521341 59 0 0 0 64.43132
22.856855 -25.217163 8.6311483 38 0 0 0 62.86499
23.837557 -25.03544 8.7658024 45 0 0 0 62.467033
24.89974 -24.897257 8.9278822 62 0 0 0 62.073193
29.050909 -23.837614 8.6035776 6 0 0 0 60.509098
-55.3867 -41.102024 9.015687 7 0 0 0 89.451035
-38.045124 -36.243301 9.4797087 4 0 0 0 87.495827
-36.077805 -36.09903 9.2087603 12 0 0 0 87.111168
-10.61051 -35.026882 9.3047342 7 0 0 0 79.287292
-14.677761 -33.149353 9.2190809 9 0 0 0 81.237907
-16.586161 -32.986004 9.3888464 9 0 0 0 82.021034
-15.486668 -32.779179 9.2193403 14 0 0 0 81.625694
13.417464 -26.642769 9.0479231 10 0 0 0 67.163025
15.812531 -26.370071 9.3238268 9 0 0 0 65.990959
20.057247 -25.700029 9.079915 59 0 0 0 64.032791
20.945652 -25.521151 9.1948709 23 0 0 0 63.642578
21.908405 -25.396332 9.3400383 49 0 0 0 63.256561
22.800373 -25.154467 9.4533987 48 0 0 0 62.86499
25.999453 -24.750448 9.1004944 57 0 0 0 61.681488
-10.201033 -36.918442 9.7358294 17 0 0 0 78.899162
-32.594059 -35.983349 9.9567604 10 0 0 0 86.32518
-14.328909 -34.633644 9.5298052 14 0 0 0 80.848808
-13.453938 -34.920555 9.5147295 14 0 0 0 80.459457
18.323799 -26.006931 9.6448574 4 0 0 0 64.820221
23.813858 -25.010153 9.615139 44 0 0 0 62.467033
-31.97423 -38.984325 10.339013 18 0 0 0 85.537071
-32.278305 -37.441936 10.137588 5 0 0 0 85.935822
-15.40725 -32.611713 10.068332 14 0 0 0 81.625694
-14.562704 -32.890141 10.040726 38 0 0 0 81.237907
15.682271 -27.678734 10.433045 25 0 0 0 66.385475
18.371931 -27.481728 10.020753 6 0 0 0 65.210594
16.981621 -26.814104 10.408244 10 0 0 0 65.596863
15.862494 -26.462915 10.118969 13 0 0 0 65.990959
18.241711 -25.899561 10.387859 9 0 0 0 64.820221
36.918232 -25.990961 10.331777 7 0 0 0 59.341049
-40.82513 8.0800362 10.35607 23 0 0 0 2.7321
65.952477 41.837204 10.196932 9 0 0 0 40.593727
-31.671953 -40.608814 10.559825 11 0 0 0 85.142799
-38.323227 -36.508362 10.851125 4 0 0 0 87.495827
-36.286274 -36.307781 10.524819 6 0 0 0 87.111168
6.3635073 -31.949308 10.689679 56 0 0 0 71.465508
7.15344 -31.820242 10.701364 55 0 0 0 71.079163
7.9596658 -31.746372 10.738247 73 0 0 0 70.69043
8.7469721 -31.58149 10.751191 68 0 0 0 70.293526
9.5423365 -31.434322 10.77689 64 0 0 0 69.908226
10.33901 -31.276995 10.806007 58 0 0 0 69.510735
11.143657 -31.127153 10.844769 47 0 0 0 69.119881
11.933451 -30.92111 10.871106 31 0 0 0 68.733185
12.709977 -30.671284 10.889051 21 0 0 0 68.336151
13.514245 -30.475737 10.93343 27 0 0 0 67.954979
64.738098 -24.959688 10.745128 5 0 0 0 55.431927
64.421059 -23.037823 10.597234 24 0 0 0 55.048233
-32.286793 -37.465244 11.352915 14 0 0 0 85.935822
-40.632866 -36.849304 11.244039 6 0 0 0 87.889687
-34.50182 -36.272739 11.490619 4 0 0 0 86.721054
-32.623913 -36.029148 11.157495 10 0 0 0 86.32518
14.377186 -30.387075 11.024107 29 0 0 0 67.55864
-40.76664 8.0677595 11.368612 24 0 0 0 2.7321
-31.659355 -40.607624 11.818402 8 0 0 0 85.142799
-32.063496 -39.107384 11.607882 15 0 0 0 85.537071
-36.203384 -36.237621 11.756531 7 0 0 0 87.111168
-38.298237 -36.497417 12.140866 4 0 0 0 87.495827
-32.474297 -35.864109 12.294517 6 0 0 0 86.32518
65.90226 41.806206 12.122004 10 0 0 0 40.593727
-36.481697 -38.354568 13.448052 9 0 0 0 86.721054
