# .PCD v0.7 - Point Cloud Data file format
VERSION 0.7
FIELDS x y z intensity normal_x normal_y normal_z curvature
SIZE 4 4 4 4 4 4 4 4
TYPE F F F F F F F F
COUNT 1 1 1 1 1 1 1 1
WIDTH 939
HEIGHT 1
VIEWPOINT 0 0 0 1 0 0 0
POINTS 939
DATA ascii
-7.1477723 3.2190807 -0.66505951 132 0 0 0 6.2368398
-4.0301175 3.1479385 -0.67403561 204 0 0 0 10.13871
-3.8232944 3.3281815 -0.61884362 150.39999 0 0 0 10.987892
-3.2790313 3.2312138 -0.60236877 112.6 0 0 0 12.003013
-2.7582977 3.1259544 -0.60213387 86.85714 0 0 0 13.135765
2.7288773 3.2633822 -0.57135081 184.16667 0 0 0 35.677624
3.1865318 3.0422146 -0.59201473 208 0 0 0 37.444427
4.1770258 3.1781108 -0.71121204 197.25 0 0 0 39.197304
5.3975654 3.4109685 -0.71240407 177 0 0 0 40.563248
5.6104646 3.1693866 -0.71901351 217 0 0 0 41.336277
7.8112907 3.3254421 -0.7468797 108 0 0 0 43.092422
8.008399 3.0656414 -0.75439847 255 0 0 0 43.682114
12.715758 3.4759018 -0.85030061 85 0 0 0 45.234688
13.080367 3.2324662 -0.86964649 91 0 0 0 45.62674
-4.5716028 3.5777049 -0.62904686 143 0 0 0 10.13871
-4.2703047 3.50968 -0.59751803 100 0 0 0 10.52636
2.2719936 3.6147652 -0.5737859 145.8 0 0 0 33.530933
2.8393543 3.7882178 -0.52170926 306 0 0 0 34.829235
3.8915517 3.7104182 -0.59592837 222 0 0 0 37.446087
4.0333633 3.6594813 -0.60386628 151 0 0 0 37.83456
5.1653295 3.7296271 -0.71158588 375 0 0 0 39.585548
7.3517356 3.7930129 -0.72745848 205 0 0 0 41.927238
7.5944171 3.5700219 -0.7380802 244 0 0 0 42.513721
11.879618 3.8839762 -0.80484444 111 0 0 0 44.45612
12.231591 3.6688974 -0.822851 102 0 0 0 44.84124
-9.1040907 4.3815465 -0.62254125 221 0 0 0 6.6235399
2.4505272 4.2330093 -0.54041845 305.5 0 0 0 32.946312
2.6423454 4.0864649 -0.53731585 309 0 0 0 33.725319
4.8449216 4.073092 -0.70711756 313.5 0 0 0 38.418373
6.807075 4.2905493 -0.70760983 250.33333 0 0 0 40.558064
7.1203332 4.0136971 -0.71865302 301 0 0 0 41.334888
11.20721 4.2845044 -0.77172047 78 0 0 0 43.682114
11.534026 4.0874128 -0.78751129 126 0 0 0 44.068512
6.2755008 4.7574959 -0.69286358 523.75 0 0 0 39.197308
10.415558 4.8895798 -0.73938918 52 0 0 0 42.513721
10.822645 4.6002874 -0.75612664 68.5 0 0 0 43.092422
5.8194318 5.2593451 -0.69065595 370 0 0 0 37.83456
6.0240846 5.1802831 -0.69974184 352 0 0 0 38.224529
9.8339977 5.3759766 -0.72004896 65 0 0 0 41.53154
10.197595 5.0968609 -0.73253059 108 0 0 0 42.126282
9.2370014 5.8129935 -0.70126534 140.33333 0 0 0 40.55806
8.3040161 6.4478636 -0.67557436 176 0 0 0 39.004368
8.6665821 6.2299051 -0.68587548 170.5 0 0 0 39.586319
7.7845812 6.8513327 -0.66687787 516.5 0 0 0 38.029545
8.0952482 6.6111417 -0.67178774 159 0 0 0 38.612221
14.944595 8.8891449 -0.71048045 55 0 0 0 40.945759
15.597342 8.7660275 -0.73147386 38 0 0 0 41.334888
16.765875 8.8875113 -0.7773273 25 0 0 0 41.728191
13.734737 9.3544312 -0.67891848 58 0 0 0 39.970989
14.441895 9.0775537 -0.69687361 57 0 0 0 40.563248
12.226854 9.7194939 -0.63769424 79 0 0 0 38.808296
12.92782 9.5223684 -0.65558577 104 0 0 0 39.39584
39.225227 16.079975 -0.73889786 20 0 0 0 43.287006
37.936607 16.649336 -0.7221626 14 0 0 0 42.897839
37.451046 17.543102 -0.72171617 24 0 0 0 42.513721
37.654213 18.776628 -0.73583859 17 0 0 0 42.126282
37.416973 19.817635 -0.74170017 20 0 0 0 41.728191
33.424576 20.984528 -0.69276088 76 0 0 0 40.563248
37.082474 20.81941 -0.74641269 29 0 0 0 41.334888
36.931072 21.941093 -0.75574768 30 0 0 0 40.945759
33.262405 22.036642 -0.70219022 52 0 0 0 40.16518
27.030064 -9.006238 -0.47871631 91 0 0 0 54.594406
10.869027 -3.3336465 -0.44771644 51 0 0 0 54.206089
22.834206 -3.45333 -0.38137946 87 0 0 0 51.857059
3.3691378 -2.5192754 -0.34995303 123 0 0 0 59.668999
3.6527112 -2.5254335 -0.31683549 156.75 0 0 0 59.076515
4.3246431 -2.5407817 -0.23928039 365.5 0 0 0 57.90918
4.8415971 -2.5327897 -0.26369208 640.75 0 0 0 57.121895
5.5966754 -2.5045407 -0.22490245 1090 0 0 0 56.142792
10.957132 -2.7789299 -0.16839138 38 0 0 0 53.428833
12.909004 -2.9381061 -0.20335375 79 0 0 0 53.036098
22.910496 -2.8921945 -0.3813152 245 0 0 0 51.470501
3.303319 -2.4074116 -0.18774956 87.833336 0 0 0 59.471592
3.7903886 -2.191644 -0.19219854 124 0 0 0 57.787392
4.3709526 -2.1311314 -0.23025082 294.5 0 0 0 56.669956
5.2677746 -2.2532208 -0.25542751 540.16669 0 0 0 55.884525
6.0360422 -2.351922 -0.23949593 488.5 0 0 0 55.376301
6.6510258 -2.4048498 -0.26495135 461 0 0 0 54.984905
13.76608 -2.42994 -0.21674839 178 0 0 0 52.253529
22.963055 -2.3286643 -0.38107339 186 0 0 0 51.088768
9.749239 -1.9706912 -0.26575094 2473.5 0 0 0 52.642406
-5.6839767 -1.0065691 -0.066164508 408 0 0 0 96.791321
-5.138237 -1.1060584 -0.056671895 239 0 0 0 96.203651
-4.4156613 -1.0086758 -0.15472589 122 0 0 0 96.010406
-10.096434 -0.52701771 -0.14550237 119 0 0 0 98.739296
-7.9295812 -0.6098392 -0.10630091 56 0 0 0 98.355011
-7.4785347 -0.75954914 -0.2823289 332 0 0 0 97.966011
-6.3990941 -0.88948792 -0.2371379 557.16669 0 0 0 97.38105
-5.3210382 -0.90782875 -0.35720491 406.75 0 0 0 96.890594
-4.7974281 -0.97203398 -0.29172674 160.66667 0 0 0 96.396889
-4.2550673 -0.9730134 -0.36407065 77 0 0 0 96.010406
10.815397 -0.83116859 -0.29298666 1199.5 0 0 0 50.688313
18.306782 -0.95371348 -0.29534724 91 0 0 0 50.304031
-13.656639 -0.041379098 -0.21059754 322 0 0 0 99.517601
-11.263578 -0.30996984 -0.30482376 384.5 0 0 0 99.139771
14.779116 -0.40695354 -0.231342 31 0 0 0 49.915489
15.542064 -0.046648473 -0.24508329 20 0 0 0 49.521919
14.779399 0.3182998 -0.23144302 63 0 0 0 49.138126
14.314271 0.6599322 -0.22334664 243 0 0 0 48.744431
-18.306328 1.0936704 -0.24703065 127 0 0 0 0.38762
-20.311153 1.7118735 -0.27978525 47 0 0 0 0.77820998
-18.545174 2.0191069 -0.25391251 33 0 0 0 1.1716501
-17.938776 2.3967807 -0.2462648 176 0 0 0 1.5589499
3.0953875 2.957778 -0.20274211 172 0 0 0 37.446087
-4.2333894 3.4823792 -0.32544088 175 0 0 0 10.52636
-3.8275421 3.383568 -0.23984037 186 0 0 0 11.103275
-3.2400405 3.2366121 -0.25115675 170 0 0 0 12.108073
-2.7852552 3.1273649 -0.24235436 122 0 0 0 13.050079
2.8424029 3.232295 -0.22239324 236.33333 0 0 0 36.068752
3.1036832 3.1674845 -0.30096182 200.33333 0 0 0 36.921669
-4.6014533 3.5676532 -0.23310888 189.2 0 0 0 10.059426
2.8408449 3.754179 -0.26994169 261.125 0 0 0 34.895958
3.1597099 3.8619738 -0.42772734 371 0 0 0 35.480232
2.9102705 4.2041359 -0.18822311 346.25 0 0 0 34.213947
3.1484561 4.4823303 -0.47339341 380 0 0 0 34.311409
-10.322599 4.973011 -0.29412499 127.5 0 0 0 6.6235399
2.8645594 4.7949977 -0.48393485 527.66669 0 0 0 33.140564
3.0139248 4.5245256 -0.46971807 411 0 0 0 33.921566
3.324769 5.8726168 -0.4247424 802 0 0 0 32.74976
3.6960886 5.8354487 -0.43527794 658.33331 0 0 0 33.53117
3.8853641 6.6574574 -0.30098245 790 0 0 0 32.946312
4.4073935 6.9453282 -0.32314271 858 0 0 0 33.529072
9.1675835 7.8646131 -0.48580086 122 0 0 0 38.224529
8.9897451 8.103651 -0.48729584 156 0 0 0 37.83456
5.1837368 8.8576956 -0.16127107 349 0 0 0 32.946312
5.5687704 8.7593203 -0.16295393 667 0 0 0 33.529072
6.1336179 9.1393843 -0.17455322 368 0 0 0 33.921566
16.293213 14.661271 -0.3745532 22 0 0 0 37.83456
17.787909 15.231194 -0.40172151 21 0 0 0 38.224529
20.68137 15.220948 -0.44107789 125 0 0 0 39.39584
21.760775 15.206265 -0.45626447 73 0 0 0 39.776798
19.616776 15.977691 -0.43592545 76 0 0 0 38.612221
20.401079 15.799957 -0.44434908 104 0 0 0 39.004368
-17.045067 -44.340977 0.38281441 20 0 0 0 80.379326
-16.776691 -37.980343 0.33984631 23 0 0 0 81.168365
21.269842 -35.557941 0.30791804 25 0 0 0 65.922203
22.569458 -35.714962 0.31233126 22 0 0 0 65.528709
20.015823 -35.401737 0.3037993 15 0 0 0 66.312317
-16.243357 -32.385685 0.30161262 18 0 0 0 81.951523
6.357532 -31.981049 0.2607418 60 0 0 0 71.399857
-16.610874 -31.188881 0.29521686 11 0 0 0 82.341217
14.009602 -29.674812 0.25434431 34 0 0 0 67.483742
14.854906 -29.567396 0.25540993 22 0 0 0 67.10054
6.5818853 -29.335455 0.24250689 84 0 0 0 71.005554
13.039727 -29.468819 0.25116441 25 0 0 0 67.870834
2.8588066 -28.989586 0.23945455 48 0 0 0 72.951424
-15.912774 -28.193369 0.27361631 39 0 0 0 82.726791
4.1955848 -28.284637 0.23440559 39 0 0 0 72.168915
4.9058623 -28.28372 0.23452014 27 0 0 0 71.781479
7.0165997 -28.041107 0.23385544 18 0 0 0 70.613251
-19.397902 -27.646681 0.28392383 17 0 0 0 84.288315
-19.795378 -26.793011 0.28046644 16 0 0 0 84.680038
-16.906824 -26.798698 0.26867518 18 0 0 0 83.506683
-16.020004 -26.827446 0.26543093 124 0 0 0 83.125198
-28.830667 -26.244045 0.31951296 13 0 0 0 87.808167
-24.828983 -26.185633 0.29967356 14 0 0 0 86.646019
-23.736128 -26.294399 0.29515168 15 0 0 0 86.257401
-22.587303 -26.289017 0.28983089 14 0 0 0 85.862564
-21.639431 -26.47102 0.28660998 14 0 0 0 85.471001
13.309966 -24.952026 0.22284456 42 0 0 0 66.698273
26.957615 -8.9771338 0.21712424 166 0 0 0 54.594406
17.855099 -6.9373593 0.15807088 82 0 0 0 55.376301
22.865719 -3.4542239 0.18336776 196 0 0 0 51.857059
10.918519 -2.7682934 0.24858302 668 0 0 0 53.428833
12.911926 -2.9377627 0.28564 412.5 0 0 0 53.036098
22.909283 -2.8881912 0.18319713 222 0 0 0 51.470501
3.3170958 -2.3546615 0.061824735 62 0 0 0 59.271099
3.5311124 -2.378139 0.06303522 167 0 0 0 58.881927
4.3156376 -2.2686634 0.11627927 292 0 0 0 57.165649
4.6810913 -2.447011 0.069583885 531 0 0 0 57.121895
5.3804951 -2.249886 0.14589325 443 0 0 0 55.75539
5.5211654 -2.4686506 0.074469537 301 0 0 0 56.142792
6.6654739 -2.4079871 0.081101552 847 0 0 0 54.984901
9.9427996 -2.0090585 0.35404778 1160 0 0 0 52.642406
13.812729 -2.4371142 0.30080286 303 0 0 0 52.253529
22.948809 -2.323375 0.18308714 245 0 0 0 51.088768
9.9037399 -1.9992894 0.10033267 252 0 0 0 52.642406
-5.8244472 -1.0321925 0.076131634 310 0 0 0 96.791321
-5.2559443 -1.0974975 0.1750491 219.75 0 0 0 96.30027
-10.069832 -0.52704006 0.10173937 379 0 0 0 98.739296
-8.835392 -0.67966104 0.20530316 405 0 0 0 98.355011
-7.5604992 -0.76999193 0.086410031 361 0 0 0 97.966011
-6.3714643 -0.85951263 0.13336171 464 0 0 0 97.445274
10.879831 -0.83438349 0.24204472 188 0 0 0 50.688313
18.200703 -0.94514614 0.15219724 171 0 0 0 50.304031
-13.672598 -0.043332152 0.12360372 312 0 0 0 99.517601
-11.277793 -0.31272084 0.10895111 347 0 0 0 99.139771
14.236507 -0.38962856 0.12675577 94 0 0 0 49.915489
14.376812 0.66393185 0.30749291 335 0 0 0 48.744431
-17.652117 1.0523906 0.19281234 131 0 0 0 0.38762
-17.441328 1.4672475 0.19030763 161 0 0 0 0.77820998
-17.131393 1.8626685 0.18697838 137 0 0 0 1.1716501
-17.548073 2.3423824 0.19013351 116 0 0 0 1.5589499
-19.423498 3.0777142 0.20590839 32 0 0 0 1.95237
-4.1517291 3.414854 0.46590343 285 0 0 0 10.52636
-3.77843 3.3398874 0.25316161 244.75 0 0 0 11.103275
-3.2049611 3.2025564 0.2503843 235.84616 0 0 0 12.11024
-2.7596364 3.0992241 0.26288563 196.5 0 0 0 13.050081
2.8238044 3.2127061 0.059580065 247.75 0 0 0 36.068459
3.0025506 3.0166039 0.059882995 243 0 0 0 37.052631
3.6389937 3.4721782 0.064455181 111 0 0 0 37.446087
2.8730078 3.7960792 0.12163866 256 0 0 0 34.895958
3.2244949 3.8406463 0.18897043 390 0 0 0 35.674217
3.531507 3.904593 0.19691177 44 0 0 0 36.266872
2.8279996 4.1390018 0.24406895 194.5 0 0 0 34.116486
-10.251184 4.9364715 0.12253983 177 0 0 0 6.6235399
5.9671259 9.9085369 0.24100998 369 0 0 0 33.14286
10.235226 10.687021 0.48866442 194 0 0 0 36.65852
6.4694719 11.35425 0.26725614 428 0 0 0 32.74976
7.2943878 11.148438 0.27310413 464.5 0 0 0 33.725319
7.7943959 11.004065 0.44529289 403 0 0 0 34.311409
56.31897 13.908921 0.40008092 20 0 0 0 45.62674
20.663406 15.21328 0.18668424 96 0 0 0 39.39584
55.645668 15.198271 0.39711338 14 0 0 0 45.234688
21.420462 16.593777 0.19412573 35 0 0 0 39.004368
55.932774 16.759373 0.4005467 9 0 0 0 44.84124
21.087404 17.179033 0.19370963 61 0 0 0 38.612221
55.798042 18.220146 0.40144733 7 0 0 0 44.45612
39.538387 18.528219 0.30342898 29 0 0 0 42.513721
42.158245 18.508953 0.31898737 17 0 0 0 42.897839
39.153023 19.531725 0.30300125 30 0 0 0 42.126282
38.809387 20.562956 0.30297276 31 0 0 0 41.728191
35.590637 21.153925 0.28501722 46 0 0 0 40.945759
38.642887 21.703363 0.30405223 34 0 0 0 41.334888
35.370129 22.213078 0.28580886 22 0 0 0 40.563248
35.14817 23.293243 0.2866936 32 0 0 0 40.16518
34.880379 24.366072 0.28745887 50 0 0 0 39.776798
7.1785989 -28.709486 0.97709578 24 0 0 0 70.613251
7.9806619 -28.892048 0.9884941 19 0 0 0 70.223778
2.779917 -28.23995 0.94232994 34 0 0 0 72.951424
3.4881318 -28.307247 0.94632614 32 0 0 0 72.568016
4.2010827 -28.355707 0.95024872 16 0 0 0 72.168915
4.9100051 -28.336874 0.95258284 94 0 0 0 71.781479
6.3848696 -28.480783 0.96488541 53 0 0 0 71.005554
-2.0203655 -27.534357 0.92186034 327 0 0 0 75.696472
-1.3460692 -27.581684 0.92150891 222 0 0 0 75.298637
-0.67174077 -27.657436 0.92259121 151 0 0 0 74.906677
0.0055157696 -27.722652 0.92385739 140 0 0 0 74.520683
0.68742353 -27.847162 0.92753637 113 0 0 0 74.133011
1.3741051 -27.928852 0.93034768 86 0 0 0 73.734314
-6.1119771 -27.313457 0.93693811 27 0 0 0 78.030258
-5.4263272 -27.378689 0.93401974 28 0 0 0 77.64724
-4.7113838 -27.254393 0.92544103 142 0 0 0 77.253685
-4.0363832 -27.318268 0.92356533 150 0 0 0 76.860748
-2.6915359 -27.453619 0.92163444 486 0 0 0 76.084839
-2.8573074 -23.26943 0.78908151 61 0 0 0 76.475601
26.997339 -8.9958372 0.92803103 168 0 0 0 54.594406
14.229784 -8.1072292 0.74990606 104 0 0 0 57.710239
15.464638 -8.3149357 0.58623976 155 0 0 0 57.317272
11.747128 -7.4793286 0.81321061 266 0 0 0 58.49704
15.544117 -7.4004426 0.99708587 166 0 0 0 56.541679
15.562558 -6.9467487 0.77854621 182.5 0 0 0 56.142792
17.906923 -6.961236 0.6382193 136 0 0 0 55.376301
15.482296 -6.4609094 0.97262263 214 0 0 0 55.75539
15.636366 -6.0796657 0.97268337 246 0 0 0 55.376301
22.865192 -3.458447 0.7609812 232 0 0 0 51.857059
10.940008 -2.773931 0.80702263 263.5 0 0 0 53.428833
12.918207 -2.940556 0.77589107 101 0 0 0 53.036098
14.546981 -2.9375224 0.86479098 115 0 0 0 52.642406
22.918791 -2.8936727 0.76027542 263 0 0 0 51.470501
13.846152 -2.444442 0.82124954 155 0 0 0 52.253529
15.946947 -2.4131672 0.93673486 98 0 0 0 51.857059
22.967409 -2.3295147 0.75984871 242 0 0 0 51.088768
-22.707819 -1.1830143 0.75111949 21 0 0 0 98.739296
15.230428 -0.79379606 0.51428169 627 0 0 0 50.304031
20.418344 -0.56254005 0.67648017 156 0 0 0 49.915489
-27.135525 -0.081248403 0.88678318 78 0 0 0 99.517601
15.424565 -0.046612877 0.89757466 65 0 0 0 49.521919
22.474525 -0.068072036 0.74063063 125 0 0 0 49.521919
14.409055 0.6640237 0.84162855 223 0 0 0 48.744431
-17.54328 1.4799627 0.62835509 127 0 0 0 0.77820998
-17.273909 1.882323 0.61966783 209 0 0 0 1.1716501
-17.548168 2.3466222 0.62976992 210 0 0 0 1.5589499
-82.025475 2.8893037 0.77175331 5 0 0 0 0
-4.1325331 3.3992102 0.78716445 299 0 0 0 10.52636
-3.7346687 3.301122 0.73436892 251.5 0 0 0 11.103275
-3.2839971 3.1949904 0.7323131 233.7 0 0 0 11.88685
-2.8116128 3.0801473 0.76998723 210.73334 0 0 0 12.855941
2.5801034 4.100533 0.65940374 222 0 0 0 33.529072
2.8813159 4.961174 0.70391619 139 0 0 0 32.946312
3.0338838 4.5585103 0.87651914 377 0 0 0 33.921566
3.5134258 4.746737 0.65125394 36 0 0 0 34.69606
5.7260752 6.6218462 0.94888997 628 0 0 0 35.868198
5.7774773 7.1991296 0.65745538 817.5 0 0 0 35.288048
6.0138397 7.6817336 0.81512666 1415 0 0 0 35.09586
5.9766135 9.9219418 0.66993505 387 0 0 0 33.14286
6.0089278 9.978898 0.9636969 880 0 0 0 33.14286
7.788054 10.995028 0.77502221 401 0 0 0 34.311409
10.226594 10.677992 0.85054135 179 0 0 0 36.65852
6.4619322 11.33847 0.7497285 514 0 0 0 32.74976
7.2773867 11.120082 0.76417744 456.5 0 0 0 33.725319
74.238739 12.636497 0.51173919 6 0 0 0 46.795422
20.675123 15.21629 0.82807535 51 0 0 0 39.39584
21.223881 18.166229 0.89481944 5238 0 0 0 38.224529
20.525391 19.389439 0.90182889 55 0 0 0 37.446087
-16.811752 -38.040779 1.3785375 17 0 0 0 81.168365
-16.545235 -35.089012 1.2885432 34 0 0 0 81.55645
-16.239521 -32.363117 1.2052962 27 0 0 0 81.951523
-16.055914 -30.134102 1.1387951 26 0 0 0 82.341217
17.984161 -30.079115 1.1407274 87 0 0 0 65.922203
19.042913 -30.148199 1.1592871 54 0 0 0 65.528709
14.840859 -29.552326 1.0806588 53 0 0 0 67.10054
15.906971 -29.830633 1.1031643 58 0 0 0 66.698273
16.919737 -29.94001 1.1208225 70 0 0 0 66.312317
13.008134 -29.41131 1.0533731 47 0 0 0 67.870834
13.912821 -29.483229 1.0665922 32 0 0 0 67.483742
-15.86688 -28.099901 1.0783708 35 0 0 0 82.726791
-17.709244 -26.592726 1.0681529 97 0 0 0 83.891716
-23.563282 -26.092943 1.1709517 9 0 0 0 86.257401
-22.398703 -26.059534 1.1455328 39 0 0 0 85.862564
-21.509731 -26.302206 1.1332932 13 0 0 0 85.471001
-20.515673 -26.379871 1.1153883 89 0 0 0 85.076256
-19.545803 -26.444952 1.0982426 81 0 0 0 84.680038
-18.583517 -26.476139 1.0809611 49 0 0 0 84.288315
-28.23521 -25.69224 1.2667501 15 0 0 0 87.808167
-25.711042 -25.808584 1.2113575 17 0 0 0 87.039932
-24.599543 -25.933765 1.1896009 23 0 0 0 86.646019
-31.071819 -24.353226 1.3070328 15 0 0 0 88.982018
-2.3670166 -24.147915 1.4086621 32 0 0 0 76.084839
-35.292088 -23.693624 1.4021912 20 0 0 0 90.170151
-33.627586 -23.792088 1.3607622 24 0 0 0 89.771713
-38.626175 -23.270479 1.4833324 20 0 0 0 90.943993
-36.8423 -23.445326 1.438599 38 0 0 0 90.559883
-3.8952489 -22.538134 1.3311368 77 0 0 0 77.253685
-22.03182 -21.06024 1.0190907 34 0 0 0 87.432678
14.256241 -8.1191969 1.3602635 104 0 0 0 57.710239
15.439317 -8.3014822 1.0145123 162 0 0 0 57.317272
14.744526 -7.9251509 1.3872299 45 0 0 0 57.317272
15.491409 -7.846529 1.0053815 177 0 0 0 56.926514
11.744366 -7.4748688 1.3285449 273.5 0 0 0 58.49704
14.808578 -7.2727008 1.3679323 57.5 0 0 0 56.734097
14.871749 -6.6358523 1.3507195 85 0 0 0 56.142792
14.901443 -6.2158966 1.3395385 77 0 0 0 55.75539
18.531775 -6.177279 1.1266956 43 0 0 0 54.594406
15.124951 -5.8781676 1.3461415 45 0 0 0 55.376301
16.470486 -5.9432378 1.0136529 50 0 0 0 54.984901
16.481808 -4.6076951 1.4179083 93 0 0 0 53.81702
9.2954369 -4.1499662 1.227978 212 0 0 0 56.142792
9.6377907 -4.0212541 1.3898493 160 0 0 0 55.75539
9.7852621 -3.8958194 1.2293172 305.33334 0 0 0 55.502666
10.108657 -3.6466668 1.4293108 264 0 0 0 54.984901
11.504444 -3.8353472 1.3099625 73 0 0 0 54.594406
10.987037 -2.7849631 1.2269123 78 0 0 0 53.428833
12.947427 -2.9449987 1.269948 232.5 0 0 0 53.036098
15.68631 -2.7661302 1.3223639 64 0 0 0 52.253529
9.1430845 -2.3169258 1.4928555 296 0 0 0 53.428833
15.789286 -2.3866725 1.3256521 97 0 0 0 51.857059
18.813116 -2.375917 1.0950269 81 0 0 0 51.470501
22.532675 -2.2856555 1.3008679 191 0 0 0 51.088768
-18.249393 -1.851254 1.0640755 58 0 0 0 97.966011
-17.700558 -1.7981296 1.4765867 332 0 0 0 97.966011
15.45193 -1.9492772 1.2939082 170 0 0 0 51.470501
15.57689 -1.5780505 1.3006152 225 0 0 0 51.088768
22.567474 -1.7316169 1.3000922 12 0 0 0 50.688313
-22.486227 -1.1706809 1.295765 134 0 0 0 98.739296
-18.178377 -1.3944558 1.0571083 71 0 0 0 98.355011
-17.658424 -1.3570768 1.4693151 347 0 0 0 98.355011
16.055635 -1.2296413 1.3366677 112 0 0 0 50.688313
22.675453 -1.1816874 1.3041451 124 0 0 0 50.304031
-22.47583 -0.61790103 1.2929945 102 0 0 0 99.139771
22.723087 -0.62620568 1.3055472 199 0 0 0 49.915489
-22.757439 -0.067170866 1.3072658 93 0 0 0 99.517601
17.389124 0.37392116 1.0074131 440 0 0 0 49.138126
-18.333277 1.5479056 1.1032956 107 0 0 0 0.77820998
-2.5948095 2.9845972 1.4506173 268.5 0 0 0 13.24735
-2.4590716 2.9694004 1.3212093 225 0 0 0 13.64119
-4.6862879 3.4929361 1.3558049 20 0 0 0 9.7422895
-4.2330422 3.3959858 1.2580595 295.25 0 0 0 10.332535
-3.6816549 3.2631044 1.2357655 259.66666 0 0 0 11.124828
-3.2325008 3.1530242 1.2453134 205.44444 0 0 0 11.908304
-2.7798305 3.045541 1.2311289 202.15384 0 0 0 12.855699
2.9459567 3.7948318 1.3675233 97 0 0 0 35.09586
3.2285471 4.1526489 1.1667445 174 0 0 0 35.09586
5.6463728 6.218122 1.2227267 233 0 0 0 36.266872
3.9697316 7.0026445 1.4692167 533 0 0 0 32.74976
6.1246452 7.6291609 1.1760653 349.5 0 0 0 35.288048
6.0539746 10.052938 1.2558037 257 0 0 0 33.14286
7.7697639 10.9732 1.2718637 403.5 0 0 0 34.311409
10.208309 10.662642 1.217077 165 0 0 0 36.65852
6.4497514 11.321585 1.0731488 361 0 0 0 32.74976
7.2065921 11.115293 1.3068393 393 0 0 0 33.659901
10.814216 11.861048 1.3195127 181 0 0 0 36.266872
20.735441 15.260558 1.4610381 27 0 0 0 39.39584
37.994915 18.946205 1.3555424 22 0 0 0 42.126282
41.950386 19.648418 1.4767416 7 0 0 0 42.513721
24.534906 24.332771 1.0942236 40 0 0 0 37.052631
38.448627 25.468298 1.4620831 17 0 0 0 40.16518
36.608261 25.562138 1.415076 18 0 0 0 39.776798
-17.902283 -50.177242 1.7543406 29 0 0 0 79.993874
13.136401 -29.701193 1.8581952 22 0 0 0 67.870834
14.071821 -29.820038 1.8853334 37 0 0 0 67.483742
15.012321 -29.893633 1.9114 64 0 0 0 67.10054
16.768944 -29.673353 1.9453239 27 0 0 0 66.312317
7.1742873 -28.692175 1.7002624 29 0 0 0 70.613251
7.9237027 -28.685846 1.7099497 68 0 0 0 70.223778
8.6956015 -28.721052 1.7232184 73 0 0 0 69.833328
9.5208492 -28.877718 1.7448953 22 0 0 0 69.443184
0.69177592 -28.024693 1.6191937 21 0 0 0 74.133011
1.3821205 -28.092163 1.6238236 17 0 0 0 73.734314
2.0779614 -28.166445 1.6297967 15 0 0 0 73.340042
2.7773106 -28.213465 1.6351991 21 0 0 0 72.951424
3.4869401 -28.297543 1.6436927 29 0 0 0 72.568016
4.2185154 -28.473303 1.6583934 72 0 0 0 72.168915
4.9205847 -28.397846 1.6598115 111 0 0 0 71.781479
6.3727717 -28.426762 1.6760044 12 0 0 0 71.005554
-4.0686173 -27.535574 1.6117623 19 0 0 0 76.860748
-3.3888052 -27.590467 1.6091969 24 0 0 0 76.475601
-2.0358677 -27.744526 1.6093665 38 0 0 0 75.696472
-1.3572385 -27.809132 1.6101174 28 0 0 0 75.298637
-0.67769045 -27.900021 1.613287 31 0 0 0 74.906677
0.0055169412 -27.953279 1.6152625 28 0 0 0 74.520683
-21.155409 -27.201015 1.9925501 9 0 0 0 85.076256
-20.193455 -27.319729 1.9650137 16 0 0 0 84.680038
-19.180582 -27.32535 1.9317117 16 0 0 0 84.288315
-18.260077 -27.418465 1.9065822 33 0 0 0 83.891716
-6.1207404 -27.352009 1.6241133 26 0 0 0 78.030258
-5.431428 -27.403826 1.6184983 19 0 0 0 77.64724
-16.782005 -26.589191 1.8213876 24 0 0 0 83.506683
-15.972332 -26.735579 1.8043611 53 0 0 0 83.125198
13.691049 -25.676924 1.6666238 26 0 0 0 66.698273
19.353523 -24.870422 1.7973844 21 0 0 0 63.967632
-47.938068 -24.270895 1.7564454 8 0 0 0 92.103004
-45.521019 -24.4669 1.6920997 11 0 0 0 91.720161
-1.734051 -23.694534 1.9708478 32 0 0 0 75.696472
-40.520157 -23.077229 1.5315336 27 0 0 0 91.329346
-2.2933841 -23.439489 1.9544753 15 0 0 0 76.084839
-2.7265792 -22.237497 1.861384 10 0 0 0 76.475601
-3.2394674 -21.956827 1.8447019 48 0 0 0 76.860748
-22.068949 -21.09486 1.7681338 39 0 0 0 87.432678
14.273597 -8.1292057 1.7609377 92 0 0 0 57.710239
11.727148 -7.4612265 1.8372576 208 0 0 0 58.49704
18.728369 -5.7333694 1.6174725 56 0 0 0 54.206089
13.980654 -4.2816486 1.5720229 89 0 0 0 54.206089
14.327032 -4.0061879 1.5988619 115 0 0 0 53.81702
9.2709045 -3.7362366 1.5794535 296 0 0 0 55.565845
9.7265654 -3.7812285 1.9057758 367 0 0 0 55.376301
11.378487 -3.636502 1.5849723 213 0 0 0 54.400246
13.388103 -3.7416232 1.8384545 99 0 0 0 53.81702
13.937717 -3.5290039 1.900279 130 0 0 0 53.428833
18.730358 -3.777818 1.5789815 116 0 0 0 52.642406
9.352356 -3.2893298 1.6498371 424.33334 0 0 0 54.854736
9.2206516 -2.676388 1.7067235 351.20001 0 0 0 53.972649
12.862823 -2.9236016 1.7465334 41 0 0 0 53.036098
13.896629 -2.804121 1.5255176 223 0 0 0 52.642406
9.2196321 -2.1928995 1.7790411 284.79999 0 0 0 53.193195
12.365837 -2.2841933 1.7704353 104.66666 0 0 0 52.383152
13.964593 -2.4630671 1.5259283 59 0 0 0 52.253529
15.976213 -2.4150393 1.7336659 137 0 0 0 51.857059
16.752411 -2.1132822 1.8101636 112 0 0 0 51.470501
8.93573 -1.5761278 1.7741077 413 0 0 0 52.253529
9.1981621 -1.8561321 1.8333843 276 0 0 0 52.642406
9.6428185 -1.9455175 1.555545 205 0 0 0 52.642406
12.271516 -1.8536954 1.6456027 37 0 0 0 51.857059
9.3108425 -1.4074242 1.72412 301 0 0 0 51.857059
-17.772352 0.62911731 1.9394271 27 0 0 0 0
-17.546877 1.0500617 1.9165262 90 0 0 0 0.38762
-18.120939 1.5283467 1.7602434 98.5 0 0 0 0.77820998
-31.782938 3.4712563 1.8934073 25 0 0 0 1.1716501
-4.6607366 3.4748471 1.7734545 344.33334 0 0 0 9.7422895
-4.1889715 3.3605361 1.7674538 266.125 0 0 0 10.332535
-3.6762731 3.2383273 1.6992484 207.85715 0 0 0 11.075563
-3.2385755 3.1351233 1.617626 218.2 0 0 0 11.848234
-2.8742054 3.0511913 1.5529808 223.66667 0 0 0 12.596043
7.3441324 3.4582558 1.7900786 176.5 0 0 0 42.513721
-5.0388556 3.5720665 1.8835113 151 0 0 0 9.3495598
6.9414587 3.6969409 1.7352026 536.5 0 0 0 41.728191
7.1843262 3.6009979 1.6740102 759 0 0 0 42.126282
-31.798912 4.261704 1.8980918 35 0 0 0 1.5589499
6.9159317 4.1326389 1.8749192 167 0 0 0 40.945759
7.7250152 4.3578668 1.8429712 230 0 0 0 41.334888
7.6999021 4.5966387 1.8626018 396 0 0 0 40.945759
5.6350369 5.9088349 1.6939015 577 0 0 0 36.65852
3.941402 6.9544506 1.7536981 516.5 0 0 0 32.74976
6.4222775 7.4231796 1.787517 609 0 0 0 35.868198
6.2293162 7.5684652 1.5417662 453 0 0 0 35.480232
8.8943033 8.8544378 1.65492 138 0 0 0 37.052631
9.1685791 8.6895142 1.6660204 313 0 0 0 37.446087
6.2842422 9.8817272 1.8318628 311 0 0 0 33.529072
7.7540441 10.954967 1.7630138 373 0 0 0 34.311409
10.186822 10.642063 1.754056 156.5 0 0 0 36.65852
10.572659 10.513536 1.5920978 205 0 0 0 37.052631
6.4396377 11.308058 1.7081677 349 0 0 0 32.74976
7.419384 11.04811 1.747847 413 0 0 0 33.921566
10.588747 11.614688 1.6748933 111 0 0 0 36.266872
10.445036 12.649391 1.7451348 113 0 0 0 35.480232
24.426544 23.066889 1.8889995 33 0 0 0 37.446087
-16.545624 -31.05175 2.0336099 9 0 0 0 82.341217
26.402575 -30.696985 2.297745 12 0 0 0 63.188313
19.061993 -30.178493 2.034035 11 0 0 0 65.528709
-1.3885492 -28.550323 2.3635175 6 0 0 0 75.298637
0.71354449 -28.706116 2.3724031 7 0 0 0 74.133011
1.4157288 -28.67415 2.3712878 5 0 0 0 73.734314
2.1206121 -28.676678 2.3743834 6 0 0 0 73.340042
4.2461338 -28.625189 2.3873398 186 0 0 0 72.168915
4.9985986 -28.818041 2.4118638 138 0 0 0 71.781479
5.7482796 -28.91671 2.430222 84 0 0 0 71.399857
6.4958854 -28.952032 2.4448986 28 0 0 0 71.005554
7.9479084 -28.753836 2.4565053 66 0 0 0 70.223778
8.7211008 -28.787075 2.475848 55 0 0 0 69.833328
-4.8551478 -28.113087 2.3616996 12 0 0 0 77.253685
-0.68106592 -28.239109 2.33551 102 0 0 0 74.906677
0.010483453 -28.355078 2.3437037 5 0 0 0 74.520683
-6.2281842 -27.853844 2.3636296 190 0 0 0 78.030258
-5.4463449 -27.503553 2.3220754 236 0 0 0 77.64724
-23.217899 -27.01104 2.0580151 25 0 0 0 85.862564
-26.597816 -26.697128 2.1744475 14 0 0 0 87.039932
-25.541058 -26.924704 2.1422472 6 0 0 0 86.646019
29.601858 -26.920969 2.2685997 10 0 0 0 61.224979
-29.097374 -26.475178 2.2674139 5 0 0 0 87.808167
29.905962 -25.888435 2.24318 7 0 0 0 60.830761
13.328749 -24.987335 2.3278503 41 0 0 0 66.698273
14.605734 -24.421511 2.3376255 8 0 0 0 65.922203
-3.9223039 -22.717085 2.4749141 29 0 0 0 77.253685
-1.1057494 -22.747915 2.4432769 26 0 0 0 75.298637
-1.6390483 -22.398487 2.4102759 17 0 0 0 75.696472
-30.192083 -20.270504 2.0952845 24 0 0 0 90.170151
-30.055763 -19.127838 2.0527029 15 0 0 0 90.559883
11.99499 -8.0507841 2.2655272 25 0 0 0 58.881927
14.261104 -8.1189413 2.162869 65 0 0 0 57.710239
11.371234 -7.6327958 2.4886191 242 0 0 0 58.881927
11.725134 -7.460063 2.180877 252 0 0 0 58.49704
4.8409028 -6.8945508 2.2685909 9 0 0 0 64.746407
11.586088 -6.789155 2.2734413 227.5 0 0 0 57.90918
17.683075 -6.3771005 2.0105062 44 0 0 0 54.984901
9.5143919 -4.5276136 2.4408343 56 0 0 0 56.541679
10.785936 -4.6559978 2.4299984 289 0 0 0 55.949089
9.6050577 -4.1441469 2.4239244 265.5 0 0 0 55.949089
10.696211 -4.3086882 2.2444723 254.5 0 0 0 55.565845
9.118578 -3.0382166 2.2303519 428 0 0 0 54.594406
9.7889271 -3.3958206 2.1478174 305.5 0 0 0 54.789654
10.470718 -3.4895825 2.0136776 170 0 0 0 54.594406
8.1120749 -2.5925908 2.2947841 468.5 0 0 0 54.400246
8.7711372 -2.6855898 2.1304493 385 0 0 0 54.206089
9.7409649 -2.9836164 2.1124771 302 0 0 0 54.206089
8.3386364 -2.2211838 2.2187881 481 0 0 0 53.622925
8.6952143 -2.2001934 2.0846059 348.66666 0 0 0 53.427319
13.453759 -2.0320978 2.137552 157 0 0 0 51.857059
17.575914 -2.2140915 2.3332198 123 0 0 0 51.470501
8.461257 -1.923655 2.2309098 392 0 0 0 53.036098
8.7690411 -1.768268 2.0790308 379 0 0 0 52.642406
9.574544 -1.6869448 2.2563505 159 0 0 0 52.253529
10.427142 -1.5741105 2.4443471 216 0 0 0 51.857059
12.957561 -1.6331953 2.3768892 244 0 0 0 51.470501
13.343143 -1.6815957 2.1133337 129 0 0 0 51.470501
15.828652 -1.6010123 2.0992992 174 0 0 0 51.088768
18.925072 -1.9170078 2.0346599 127 0 0 0 51.088768
10.456322 -1.3167506 2.4430492 161 0 0 0 51.470501
10.767048 -1.0899366 2.2426536 11 0 0 0 51.088768
13.12641 -1.3282448 2.4008918 195 0 0 0 51.088768
18.887526 -1.4464573 2.0264115 83 0 0 0 50.688313
21.772264 -1.131176 2.3266935 66 0 0 0 50.304031
-28.898228 -0.79853344 2.3719211 5522 0 0 0 99.139771
11.286783 -0.86318398 2.0653532 151 0 0 0 50.688313
18.645327 -0.96569073 2.4572873 134 0 0 0 50.304031
-28.971603 -0.089794353 2.3757122 6 0 0 0 99.517601
-17.677938 -0.056238044 2.3294952 69 0 0 0 99.517601
-26.928898 1.6116406 2.2745898 27 0 0 0 0.38762
-17.879124 1.5063244 2.393961 62 0 0 0 0.77820998
-36.595093 2.1955354 2.1705019 28 0 0 0 0.38762
-18.717247 2.0403211 2.0491285 13 0 0 0 1.1716501
-27.211445 2.9678371 2.30474 33 0 0 0 1.1716501
-4.6326032 3.4528432 2.1134472 314 0 0 0 9.7422895
-4.3040199 3.3708165 2.0662293 254 0 0 0 10.13871
-5.3637581 3.6129596 2.2862117 180.33333 0 0 0 8.9616499
-4.9799361 3.5304139 2.1584742 331.66666 0 0 0 9.3495598
4.763371 3.8151307 2.3321235 333.5 0 0 0 38.808296
4.6379981 4.0048633 2.3407373 476 0 0 0 38.224529
6.7558694 4.151844 2.2359588 348.66666 0 0 0 40.754501
7.35078 4.1494799 2.1704791 209 0 0 0 41.334888
7.6997452 4.3454423 2.0540385 530 0 0 0 41.334888
8.4314909 4.4870381 2.4510174 353 0 0 0 41.728191
5.7648783 5.6171694 2.3673944 675.5 0 0 0 37.249359
9.2686253 6.3294954 2.3204615 145 0 0 0 39.970989
9.6548376 6.0837979 2.3592188 33 0 0 0 40.563248
3.9390657 6.9515653 2.0471828 518 0 0 0 32.74976
4.1592741 6.9383492 2.4727883 453 0 0 0 33.14286
8.8510265 6.8777366 2.3161626 401 0 0 0 39.004368
9.058897 6.6887751 2.3271322 191 0 0 0 39.39584
3.9840159 7.0311327 2.370208 243.5 0 0 0 32.74976
6.5201769 7.1728153 2.0049455 633 0 0 0 36.266872
8.7184544 7.1248746 2.3258941 92 0 0 0 38.612221
9.0828724 9.0412083 2.0065753 110 0 0 0 37.052631
6.3207569 9.9385557 2.1338878 179 0 0 0 33.529072
9.3386574 9.7614155 2.1124909 277 0 0 0 36.65852
7.7395353 10.934383 2.257165 280 0 0 0 34.311409
6.4319091 11.294351 2.0278833 196 0 0 0 32.74976
6.7383442 11.184395 2.1992111 404.5 0 0 0 33.14286
7.3926029 11.008166 2.3983345 371 0 0 0 33.921566
10.230706 11.794831 2.4343112 137 0 0 0 35.868198
9.227047 12.370678 2.4044631 199 0 0 0 34.69606
11.544735 13.303267 2.3052652 100 0 0 0 35.868198
10.895162 13.874773 2.307245 148 0 0 0 35.09586
10.728679 14.374103 2.3444495 125 0 0 0 34.69606
19.95927 18.862206 2.2348146 53 0 0 0 37.446087
70.795898 23.100449 2.3594244 21 0 0 0 44.45612
68.809258 24.333065 2.3117754 5 0 0 0 44.068512
64.436142 24.579275 2.1851149 17 0 0 0 43.682114
60.072746 26.35441 2.0775292 5 0 0 0 42.897839
31.711416 31.437441 2.4969041 43 0 0 0 37.052631
39.180561 -32.26968 2.8686152 9 0 0 0 60.444889
15.063248 -31.905703 2.8931632 7 0 0 0 67.483742
17.578859 -31.093309 2.9260597 16 0 0 0 66.312317
7.5097961 -30.011221 2.5468903 28 0 0 0 70.613251
13.201578 -29.834427 2.6785841 8 0 0 0 67.870834
15.026956 -29.909782 2.7457681 39 0 0 0 67.10054
40.27964 -28.483515 2.7894492 7 0 0 0 59.271099
-19.314016 -27.524666 2.7825251 30 0 0 0 84.288315
-18.387939 -27.619934 2.7462554 16 0 0 0 83.891716
-17.491779 -27.722815 2.713459 22 0 0 0 83.506683
-23.214151 -27.015268 2.9449723 23 0 0 0 85.862564
-22.272541 -27.242199 2.9099491 16 0 0 0 85.471001
-21.297216 -27.392183 2.8699896 12 0 0 0 85.076256
-20.265892 -27.426798 2.8214335 19 0 0 0 84.680038
-16.310806 -27.311758 2.6343031 8 0 0 0 83.125198
18.20928 -24.612579 2.5099323 17 0 0 0 64.35405
19.405251 -24.928049 2.5881007 9 0 0 0 63.967632
20.303848 -24.804424 2.6249988 18 0 0 0 63.570431
12.982343 -24.338305 2.9381607 34 0 0 0 66.698273
20.97773 -24.384033 2.6334267 13 0 0 0 63.188313
13.191304 -23.33596 2.8556976 9 0 0 0 66.312317
14.043452 -23.481918 2.9134812 18 0 0 0 65.922203
1.1026883 -22.249517 2.9363124 55 0 0 0 73.734314
-1.6016306 -21.940151 2.9024076 9 0 0 0 75.696472
-22.036541 -21.070408 2.5250545 27 0 0 0 87.432678
-22.556051 -20.533184 2.5258031 23 0 0 0 87.808167
-29.645018 -19.909868 2.9475343 4 0 0 0 90.170151
20.228352 -9.6198635 2.9394178 49 0 0 0 56.541679
14.326257 -8.1561279 2.5806003 16 0 0 0 57.710239
4.8159308 -7.7653184 2.8703156 417.66666 0 0 0 65.659874
10.940132 -7.7390876 2.7654002 32 0 0 0 59.271099
4.8744574 -7.3160582 2.9081857 743 0 0 0 65.142662
11.774639 -7.4916935 2.7069144 208.5 0 0 0 58.49704
10.694557 -6.8029661 2.9280491 246 0 0 0 58.49704
12.305008 -6.8079329 2.9011064 101 0 0 0 57.513756
13.156901 -5.8693719 2.6168635 58 0 0 0 56.142792
10.926563 -5.2005715 2.501565 183 0 0 0 56.541679
9.2987118 -4.2861199 2.624625 220.5 0 0 0 56.342236
9.2362223 -3.7210157 2.5538032 375 0 0 0 55.565845
10.187509 -3.8150802 2.519485 197 0 0 0 55.180603
9.3738022 -3.2522969 2.5450997 259.5 0 0 0 54.789654
9.2772522 -2.7161736 2.7211957 81 0 0 0 54.011555
9.2058268 -2.3315022 2.673975 415 0 0 0 53.428833
9.7740021 -2.0937862 2.6868877 203.5 0 0 0 52.839252
9.2216454 -1.6250808 2.6375756 317 0 0 0 52.253529
9.6510429 -1.8220561 2.8224039 151.25 0 0 0 52.447968
12.227641 -1.8474286 2.5570176 66 0 0 0 51.857059
17.680769 -1.7882862 2.7806726 116 0 0 0 51.088768
9.2151375 -1.2377912 2.6954157 285 0 0 0 51.599354
9.735404 -1.3474264 2.5225291 177 0 0 0 51.66378
17.757219 -1.35715 2.7866254 119 0 0 0 50.688313
-17.895826 -0.93552923 2.8062592 30 0 0 0 98.739296
9.2259474 -0.85589486 2.7621441 274.66666 0 0 0 50.95528
-17.387484 -0.48156211 2.7243125 53 0 0 0 99.139771
-15.743338 -0.23979233 2.8598075 23.5 0 0 0 99.32869
-18.010796 0.63639796 2.8500645 40 0 0 0 0
-19.249895 1.1500015 2.5722227 16 0 0 0 0.38762
-17.630753 1.4863678 2.7967961 50 0 0 0 0.77820998
-8.2403908 3.9660344 2.5634592 285 0 0 0 6.6235399
8.3573446 3.9355309 2.8298063 220 0 0 0 42.513721
6.4482975 4.149415 2.6701224 230.33333 0 0 0 40.430557
8.3775597 4.3310566 2.8880117 248 0 0 0 41.927238
8.3713207 4.7234616 2.8226659 141.5 0 0 0 41.334888
9.7762499 4.8953724 2.5314312 251 0 0 0 42.126282
6.1831241 5.3217182 2.7683575 477.66666 0 0 0 38.22377
7.1408963 5.0163231 2.6732662 77 0 0 0 39.776798
8.4547663 5.9318857 2.9020691 339 0 0 0 39.776798
9.4614344 5.9647212 2.5871694 214 0 0 0 40.563248
4.1726799 6.2498765 2.8554513 398 0 0 0 33.921566
7.1645293 6.4771247 2.9519393 759 0 0 0 37.83456
8.1986046 6.3753734 2.9170718 153 0 0 0 39.004368
8.7455044 6.4607468 2.7821596 99 0 0 0 39.39584
9.199688 6.2296143 2.7512922 285 0 0 0 40.035721
4.1513529 6.7450056 2.812551 298 0 0 0 33.335968
8.4854774 6.5973473 2.750211 356 0 0 0 39.004368
8.7567425 6.6364598 2.5408146 265.5 0 0 0 39.200104
9.333333 6.5453753 2.6352191 120 0 0 0 39.776798
8.6580372 7.4397106 2.9173532 357 0 0 0 38.224529
8.6670551 7.8247762 2.9826705 284 0 0 0 37.83456
9.1210461 8.2312508 2.6845574 138 0 0 0 37.83456
9.3462534 8.8600683 2.9685054 150 0 0 0 37.446087
10.642523 9.1335096 2.8869429 18 0 0 0 38.224529
6.7143431 10.008 2.7748942 191 0 0 0 33.921566
6.7248659 11.16396 2.8367195 345 0 0 0 33.14286
7.2236738 11.045903 2.7120442 231.5 0 0 0 33.725319
10.214047 11.209107 2.7417278 143 0 0 0 36.266872
11.276832 11.214662 2.8749633 164 0 0 0 37.052631
10.501491 12.721663 2.9775827 110 0 0 0 35.480232
10.676732 13.597631 2.6898751 103 0 0 0 35.09586
19.771706 18.685257 2.8753257 62 0 0 0 37.446087
24.202574 21.767195 2.6434219 29 0 0 0 37.83456
23.837214 23.650084 2.7230597 16 0 0 0 37.052631
31.298965 34.225422 2.5883198 30 0 0 0 36.266872
-15.995697 -38.75 3.4587393 21 0 0 0 80.772629
-16.989635 -38.459309 3.4691532 19 0 0 0 81.168365
7.5171018 -30.040331 3.3013406 28 0 0 0 70.613251
13.107982 -29.622993 3.4465482 70 0 0 0 67.870834
-26.384724 -29.223364 3.2512145 15 0 0 0 86.257401
5.049768 -29.112915 3.153723 77 0 0 0 71.781479
5.8005471 -29.179502 3.1744564 56 0 0 0 71.399857
6.5507851 -29.196569 3.1918993 146 0 0 0 71.005554
0.010517685 -28.563768 3.0543456 18 0 0 0 74.520683
0.71118504 -28.611725 3.0597432 17 0 0 0 74.133011
1.4167989 -28.696083 3.0707815 16 0 0 0 73.734314
2.1281574 -28.778822 3.0834904 5 0 0 0 73.340042
4.2509041 -28.65728 3.0935023 217 0 0 0 72.168915
7.9995265 -28.940445 3.2013764 45 0 0 0 70.223778
-16.018559 -28.377579 3.4890664 13 0 0 0 82.726791
-4.1784182 -28.31069 3.0633743 19 0 0 0 76.860748
-3.4804378 -28.37512 3.0597303 17 0 0 0 76.475601
-2.7796111 -28.399578 3.0536392 19 0 0 0 76.084839
-0.6846652 -28.386328 3.0370464 79 0 0 0 74.906677
-6.2359786 -27.888088 3.0605156 220 0 0 0 78.030258
-5.4566007 -27.554716 3.0085115 212 0 0 0 77.64724
-25.701666 -27.10235 3.0859101 8 0 0 0 86.646019
-16.301857 -27.296034 3.4051418 12 0 0 0 83.125198
-26.67194 -26.779778 3.1219091 17 0 0 0 87.039932
19.224077 -25.983648 3.4328313 7 0 0 0 64.35405
20.064911 -24.512856 3.3639283 10 0 0 0 63.570431
-48.012554 -24.3069 3.0767877 9 0 0 0 92.103004
-31.239975 -24.491425 3.2744901 7 0 0 0 88.982018
18.970673 -24.370237 3.281039 16 0 0 0 63.967632
20.621264 -23.970098 3.3572853 12 0 0 0 63.188313
-2.8403482 -23.196272 3.0820668 51 0 0 0 76.475601
-3.9369032 -22.824757 3.0558238 21 0 0 0 77.253685
-20.26996 -22.453911 3.2412095 31 0 0 0 86.257401
-22.051228 -21.083601 3.2679033 22 0 0 0 87.432678
-20.608919 -20.695179 3.1302388 7 0 0 0 87.039932
-22.501904 -20.483084 3.2590873 11 0 0 0 87.808167
-30.985435 -19.725563 3.0300243 7 0 0 0 90.559883
10.422248 -8.5841436 3.4475143 58 0 0 0 60.444889
12.818065 -8.6027489 3.1804338 151 0 0 0 58.881927
10.679667 -8.1562233 3.2664235 142 0 0 0 59.862583
4.8048158 -7.8167596 3.2573178 448 0 0 0 65.725456
10.805062 -7.6409583 3.0552773 116 0 0 0 59.271099
12.871714 -7.7512512 3.2796903 35 0 0 0 58.10812
4.8848977 -7.200561 3.1636522 387 0 0 0 65.010582
10.978789 -7.3672929 3.3772676 47 0 0 0 58.881927
12.841233 -7.309093 3.4077513 25 0 0 0 57.710239
4.8937607 -6.964685 3.2336874 14 0 0 0 64.746407
12.905932 -6.9330115 3.379282 71 0 0 0 57.317272
10.774476 -6.1344318 3.3225729 59.5 0 0 0 57.710239
11.30477 -6.0741429 3.2797794 208 0 0 0 57.317272
12.313479 -6.2314467 3.1855016 202 0 0 0 56.926514
11.588108 -5.8650002 3.3189945 194 0 0 0 56.926514
10.404322 -4.1916227 3.1509418 73.5 0 0 0 55.565845
9.4519196 -3.8084357 3.3689089 196 0 0 0 55.565845
9.5089331 -3.6934075 3.1197619 245 0 0 0 55.376301
10.413161 -3.7548189 3.1100132 235 0 0 0 54.984901
9.2788048 -3.2190132 3.2486386 266 0 0 0 54.789654
9.5493774 -3.3106871 3.0918412 250 0 0 0 54.789654
9.3478308 -2.7370343 3.2225266 213 0 0 0 54.011555
9.7223864 -2.8436985 3.0990658 170.5 0 0 0 54.011555
10.267897 -2.5980589 3.2386413 121 0 0 0 53.428833
-16.732685 -2.1158907 3.4786551 50 0 0 0 97.573685
8.9416857 -2.1455741 3.2704349 298.5 0 0 0 53.232468
9.1211147 -2.192054 3.1053567 260 0 0 0 53.232468
9.793972 -2.2242694 3.0731609 198 0 0 0 53.036098
16.105083 -2.0294681 3.3448031 149 0 0 0 51.470501
-17.066216 -1.7343615 3.1143174 20 0 0 0 97.966011
8.7728062 -1.5432568 3.1694489 288 0 0 0 52.253529
9.1410837 -1.7633501 3.1578789 227 0 0 0 52.512783
14.867489 -1.5018145 3.4482942 141 0 0 0 51.088768
-16.844187 -1.2951342 3.0670266 64 0 0 0 98.355011
-14.859736 -1.142176 3.0774176 32 0 0 0 98.355011
8.4893703 -1.2796313 3.2669737 262 0 0 0 51.857059
8.7101994 -1.1674504 3.1982243 204.66667 0 0 0 51.599354
9.2819004 -1.4019302 3.1078184 219 0 0 0 51.857059
-29.025528 -0.80103099 3.0879869 4952 0 0 0 99.139771
-17.659904 -0.92257214 3.2079265 24 0 0 0 98.739296
-14.898622 -0.7778759 3.0799787 26 0 0 0 98.739296
-14.294707 -0.74836558 3.3075321 43 0 0 0 98.739296
8.7942572 -0.88646829 3.3627481 206 0 0 0 51.088768
17.527567 -0.90811521 3.1816308 175 0 0 0 50.304031
-28.994392 -0.088842832 3.0823207 8 0 0 0 99.517601
-20.210409 -0.063709162 3.1582272 23 0 0 0 99.517601
-16.511438 -0.45610794 3.4051282 60 0 0 0 99.139771
-14.653669 -0.044870257 3.0247862 73 0 0 0 99.517601
-14.26377 -0.22021925 3.2958047 35.5 0 0 0 99.32869
17.611994 -0.47985086 3.1937594 98 0 0 0 49.915489
-18.693953 0.66159397 3.4184127 15 0 0 0 0
-15.665451 0.93795687 3.2541707 46 0 0 0 0.38762
-15.030203 0.5325495 3.1198761 28 0 0 0 0
-20.480526 1.2248762 3.2409294 25 0 0 0 0.38762
-17.731873 1.4959675 3.2511759 22 0 0 0 0.77820998
-17.426582 1.8992743 3.2021356 48 0 0 0 1.1716501
-15.761918 1.7181282 3.2860529 63 0 0 0 1.1716501
-18.95437 2.535898 3.4905798 14 0 0 0 1.5589499
7.9125366 3.8488855 3.3476839 37.5 0 0 0 42.32
8.3760757 3.9442682 3.1780105 63.5 0 0 0 42.513721
-8.2772141 4.2341208 3.2863557 38 0 0 0 7.0149999
7.8031559 4.2819271 3.3853846 204.5 0 0 0 41.53154
8.1678047 4.2219114 3.1557102 302.75 0 0 0 41.927238
7.6970057 4.7299051 3.4347167 175.5 0 0 0 40.754501
8.1603441 4.7398353 3.238631 238.5 0 0 0 41.140324
9.8465996 4.9304247 3.0940812 19 0 0 0 42.126282
7.8921242 5.2546902 3.1363118 127 0 0 0 40.16518
9.6075954 5.1100564 3.0577447 208 0 0 0 41.728191
8.889863 5.9178858 3.2628896 117 0 0 0 40.16518
7.2315431 6.2198339 3.1525633 274 0 0 0 38.224529
7.7289391 6.324512 3.0519969 461 0 0 0 38.612221
9.2806253 6.1745191 3.1294584 126 0 0 0 40.16518
4.1718569 6.9614525 3.0794725 290 0 0 0 33.14286
6.5676923 6.8806787 3.1417885 37 0 0 0 36.65852
8.7016802 6.7670288 3.3651166 248 0 0 0 39.004368
9.0685835 6.6995025 3.3022504 196.5 0 0 0 39.39584
8.7953548 7.3720341 3.3592234 201 0 0 0 38.418373
8.44625 7.8179708 3.2265806 164.5 0 0 0 37.640324
8.7511911 8.2985125 3.0787606 167 0 0 0 37.446087
10.078979 8.654808 3.0622392 136 0 0 0 38.224529
10.513487 8.587841 3.1288731 214 0 0 0 38.612221
9.1498766 9.1105909 3.2928374 112 0 0 0 37.052631
9.9885693 9.9417868 3.2441263 127 0 0 0 37.052631
7.1537809 10.11498 3.3104014 153.5 0 0 0 34.311409
7.8797731 10.053817 3.2546875 243 0 0 0 35.09586
8.3042183 10.074635 3.0056694 178 0 0 0 35.480232
7.3599319 10.963472 3.3611076 149 0 0 0 33.921566
7.7158818 10.904847 3.072407 227 0 0 0 34.311409
9.9877157 10.965498 3.410862 90 0 0 0 36.266872
10.840792 10.782639 3.1419375 127 0 0 0 37.052631
6.7079225 11.137914 3.3086591 298 0 0 0 33.14286
7.0420127 11.068041 3.1775157 297.5 0 0 0 33.529072
9.5367393 11.001879 3.3482075 63 0 0 0 35.868198
9.2233248 12.365442 3.1652031 91 0 0 0 34.69606
10.82999 12.482554 3.3904388 155 0 0 0 35.868198
10.784272 13.062656 3.4734876 139 0 0 0 35.480232
38.125385 13.495378 3.2951593 7 0 0 0 44.068512
10.41195 13.95126 3.1385374 132 0 0 0 34.69606
10.649961 13.56355 3.1102757 80 0 0 0 35.09586
37.601543 14.356384 3.2787259 18 0 0 0 43.682114
57.276455 14.134239 3.3242996 15 0 0 0 45.62674
37.112965 15.222142 3.2669823 14 0 0 0 43.287006
56.418686 15.398329 3.2948279 23 0 0 0 45.234688
18.153049 16.341579 3.1873567 54 0 0 0 37.83456
32.621956 18.325012 3.0453384 23 0 0 0 41.334888
32.659584 19.41357 3.0904746 9 0 0 0 40.945759
24.734726 21.172596 3.4365771 32 0 0 0 38.224529
24.13257 21.704271 3.4246507 40 0 0 0 37.83456
33.074421 21.920359 3.223114 9 0 0 0 40.16518
32.964382 26.835354 3.4438646 24 0 0 0 38.612221
48.494347 32.11554 3.2588234 17 0 0 0 40.16518
20.412697 -30.617395 3.9048562 4 0 0 0 65.142662
-16.055677 -30.143953 3.6549602 6 0 0 0 82.341217
19.24254 -30.45265 3.8240433 6 0 0 0 65.528709
14.059852 -29.781256 3.5026567 59 0 0 0 67.483742
14.978541 -29.81349 3.547343 66 0 0 0 67.10054
5.0540056 -29.107121 3.8795123 161 0 0 0 71.781479
5.8010859 -29.155539 3.9028375 104 0 0 0 71.399857
6.5421877 -29.134398 3.9194169 9 0 0 0 71.005554
0.71995741 -28.763817 3.7832336 5 0 0 0 74.133011
2.1277418 -28.70517 3.7833884 14 0 0 0 73.340042
2.84952 -28.843878 3.8088365 9 0 0 0 72.951424
3.5597959 -28.805861 3.8134859 39 0 0 0 72.568016
4.2664919 -28.727766 3.8151286 150 0 0 0 72.168915
8.0142879 -28.974089 3.9443007 52 0 0 0 70.223778
-0.67953831 -28.377693 3.7340069 93 0 0 0 74.906677
-18.389801 -27.621922 3.5525954 19 0 0 0 83.891716
-17.467505 -27.683586 3.5048656 13 0 0 0 83.506683
-6.2361169 -27.910963 3.766073 179 0 0 0 78.030258
-5.4540143 -27.566305 3.7005818 216 0 0 0 77.64724
-22.18618 -27.135736 3.7503002 7 0 0 0 85.471001
-20.236506 -27.386204 3.6445801 19 0 0 0 84.680038
-19.296511 -27.498911 3.5960822 22 0 0 0 84.288315
-25.373774 -26.755816 3.9428427 6 0 0 0 86.646019
12.651134 -23.707794 3.5238516 24 0 0 0 66.698273
-3.3778331 -22.919407 3.6292312 17 0 0 0 76.860748
-2.8119349 -22.964081 3.6239281 26 0 0 0 76.475601
-1.6786186 -22.991821 3.6102011 16 0 0 0 75.696472
-20.865145 -22.011463 3.9954238 16 0 0 0 86.646019
-2.1716175 -22.235535 3.5002408 40 0 0 0 76.084839
-28.525541 -21.25629 3.8021209 10 0 0 0 89.373039
-20.447296 -20.539377 3.8193436 15 0 0 0 87.039932
-22.400578 -20.397215 3.9902549 11 0 0 0 87.808167
-22.806225 -19.766581 3.9748259 11 0 0 0 88.194321
-20.908804 -19.99832 3.8126776 15 0 0 0 87.432678
-28.932983 -19.430935 3.7244604 7 0 0 0 90.170151
-22.972513 -18.945503 3.9218485 17 0 0 0 88.596039
21.214321 -11.394374 3.753175 29 0 0 0 57.317272
21.151365 -10.701565 3.695219 31 0 0 0 56.926514
20.426504 -9.7142048 3.5277233 37 0 0 0 56.541679
12.266359 -9.3654957 3.7477396 43 0 0 0 59.862583
19.101624 -9.0848751 3.8249879 27 0 0 0 56.541679
21.013475 -9.369071 3.5878377 52 0 0 0 56.142792
12.633655 -8.9323711 3.9460123 131 0 0 0 59.271099
13.35668 -8.9605484 3.7058346 37 0 0 0 58.881927
4.7867308 -8.0000887 3.5388298 373 0 0 0 65.922203
10.118975 -8.333395 3.8332472 135 0 0 0 60.444889
10.967503 -8.1658401 3.8308191 44 0 0 0 59.668999
10.221233 -7.8072963 3.7626867 93 0 0 0 59.862583
10.756774 -7.60708 3.6925468 27 0 0 0 59.271099
11.816505 -7.7199612 3.7782016 76 0 0 0 58.689484
10.588907 -7.1035748 3.8886352 12 0 0 0 58.881927
10.77931 -6.8557405 3.7396038 132.5 0 0 0 58.49704
11.498619 -6.9243574 3.7618723 121 0 0 0 58.10812
11.46361 -5.8021941 3.6030035 133 0 0 0 56.926514
10.820006 -4.826683 3.9102612 178 0 0 0 56.142792
9.7002144 -3.6750023 3.7678795 147 0 0 0 55.245834
9.4837046 -3.1564469 3.7956138 168 0 0 0 54.594406
9.5861406 -3.3210266 3.7273345 155.5 0 0 0 54.789654
9.2787399 -2.7134848 3.6729598 134 0 0 0 54.011555
9.7260685 -2.8442183 3.5997167 132.5 0 0 0 54.011555
9.3771038 -2.3716419 3.6748881 171 0 0 0 53.428833
9.7979803 -2.2236505 3.8160059 118 0 0 0 53.036098
-18.09329 -1.8379791 3.7472365 32 0 0 0 97.966011
9.8968506 -1.8662863 3.8256738 133 0 0 0 52.447968
11.991302 -1.5101397 3.9904318 209 0 0 0 51.470501
12.328028 -1.8586335 3.8061974 149 0 0 0 51.857059
15.523553 -1.5681407 3.9821579 20 0 0 0 51.088768
-16.18047 -1.2458515 3.7450607 20 0 0 0 98.355011
17.595366 -0.26287073 3.6235414 41 0 0 0 49.718704
-14.012574 0.49550426 3.5930939 44 0 0 0 0
-16.277424 0.57487315 3.7742043 17 0 0 0 0
-14.004725 0.8373332 3.5946424 44 0 0 0 0.38762
-13.876187 0.83040881 3.9051261 20 0 0 0 0.38762
-17.120876 1.4452484 3.5605276 36 0 0 0 0.77820998
-16.958523 1.4295193 3.9415007 50 0 0 0 0.77820998
-15.085606 1.642367 3.5151157 17 0 0 0 1.1716501
-14.793225 1.9773654 3.8211868 52 0 0 0 1.5589499
-17.046471 2.2798295 3.7721953 17 0 0 0 1.5589499
-27.922415 3.0440354 3.7333164 15 0 0 0 1.1716501
-8.2789812 4.2358098 3.513202 132 0 0 0 7.0149999
7.7931337 5.3332338 3.5875134 171 0 0 0 39.970989
7.4900832 5.541605 3.539212 231 0 0 0 39.39584
8.3647728 5.8733644 3.6281867 243 0 0 0 39.776798
8.3140087 6.3088894 3.703455 256 0 0 0 39.200104
8.7818556 6.322423 3.5731845 296 0 0 0 39.586319
6.7258587 6.7128959 3.6055849 250 0 0 0 37.052631
8.2961893 6.6156731 3.6320295 227.5 0 0 0 38.808296
7.0432086 7.7521143 3.9686637 196 0 0 0 36.266872
8.3433018 7.5390902 3.9847383 160 0 0 0 37.83456
8.365242 8.3328991 3.890996 137 0 0 0 37.052631
8.5247698 8.084754 3.8725383 169 0 0 0 37.446087
8.6721468 8.6400871 3.7295344 154 0 0 0 37.052631
9.1987629 9.8563671 3.770864 92 0 0 0 36.462696
7.1799288 10.155267 3.7836056 260 0 0 0 34.311409
9.7804661 10.224414 3.6038401 149 0 0 0 36.65852
7.3423204 10.937248 3.6804919 245 0 0 0 33.921566
9.32617 10.759935 3.9790154 116 0 0 0 35.868198
9.6448212 10.59063 3.6472614 42 0 0 0 36.266872
6.6957908 11.117705 3.6251748 246 0 0 0 33.14286
