# .PCD v0.7 - Point Cloud Data file format
VERSION 0.7
FIELDS x y z intensity normal_x normal_y normal_z curvature
SIZE 4 4 4 4 4 4 4 4
TYPE F F F F F F F F
COUNT 1 1 1 1 1 1 1 1
WIDTH 909
HEIGHT 1
VIEWPOINT 0 0 0 1 0 0 0
POINTS 909
DATA ascii
-10.955745 0.79545343 -0.93908322 45 0 0 0 0.78070998
-8.1097593 0.78073865 -0.88201433 88.333336 0 0 0 1.16873
-6.3241768 0.76237273 -0.8331852 107.33334 0 0 0 1.5598398
-5.3170514 0.70441699 -0.81899482 74.75 0 0 0 1.7536449
-4.5914125 0.71787822 -0.81569099 31.25 0 0 0 2.1432276
-4.125124 0.77855825 -0.80899334 18.799999 0 0 0 2.652082
3.8107071 0.72356826 -0.81523752 15 0 0 0 46.651749
4.3870888 0.7744835 -0.82995844 39.799999 0 0 0 46.848354
5.2965908 0.72976291 -0.86531305 111.25 0 0 0 47.438061
6.4049535 0.96506423 -0.89664811 178 0 0 0 47.240128
6.5847497 0.65942496 -0.91686082 173.66667 0 0 0 48.025715
15.011686 0.74873948 -0.9995358 93 0 0 0 48.80616
19.456711 0.96911633 -0.82676214 21 0 0 0 48.80616
-10.98243 1.2009699 -0.94547403 57 0 0 0 1.36274
-8.0542212 1.2714159 -0.88354981 99 0 0 0 2.1445498
-6.32271 1.1517937 -0.84182525 153 0 0 0 2.5292749
-5.2594342 1.0215752 -0.81852901 116 0 0 0 2.72349
4.1959381 1.2388501 -0.81436151 54.75 0 0 0 45.092857
4.9540725 1.3921868 -0.83144927 130 0 0 0 45.28302
5.0842972 1.1590282 -0.84315187 126.66666 0 0 0 46.066235
6.2539506 1.2613342 -0.88292772 165 0 0 0 46.455624
19.577013 1.459071 -0.83346874 22 0 0 0 48.415607
-10.986698 1.6078832 -0.9510662 85 0 0 0 1.9540401
-8.0181322 1.5653572 -0.88582218 179 0 0 0 2.72349
-4.2629547 1.8380686 -0.81881791 25 0 0 0 6.2364864
-3.6609156 1.7309619 -0.80423927 20.5 0 0 0 6.8205895
3.8670645 1.8649608 -0.79791862 88 0 0 0 42.555782
4.0712624 1.5999321 -0.81387377 86.333336 0 0 0 43.728405
4.7487917 1.7247143 -0.81614369 166.8 0 0 0 44.118244
5.8351135 1.7945603 -0.8434909 188.33333 0 0 0 44.896343
6.0497818 1.5373566 -0.86300629 161 0 0 0 45.682419
19.752542 1.9622239 -0.8431654 16 0 0 0 48.026768
-22.575724 2.2035794 -0.88198245 127 0 0 0 1.1651599
-10.956334 2.1514165 -0.95752436 144 0 0 0 2.72349
-4.8557396 2.3139477 -0.82640499 272.25 0 0 0 6.8209348
-4.0920296 2.1893477 -0.8201946 54.75 0 0 0 7.6008797
-3.7160935 2.2243838 -0.81045592 30 0 0 0 8.3808994
-3.3346572 2.2701151 -0.80386651 21 0 0 0 9.3572254
3.384613 2.3749266 -0.76646638 36.75 0 0 0 40.014534
3.6716802 2.1233416 -0.78749537 60.333332 0 0 0 41.383179
4.3259292 2.2831006 -0.78839809 156 0 0 0 41.970913
4.5294175 2.0413802 -0.80125529 226 0 0 0 42.945858
5.3281555 2.3173625 -0.80109644 139 0 0 0 43.143707
5.5527468 2.0164816 -0.81498343 89 0 0 0 44.116039
7.9952807 2.454277 -0.95743036 173 0 0 0 44.897659
8.301775 2.2132964 -0.98455119 141 0 0 0 45.482719
19.926964 2.4763584 -0.8533805 23 0 0 0 47.634769
-23.756039 2.9065001 -0.93373132 197 0 0 0 1.56032
-5.8152113 2.779068 -0.84876937 82.25 0 0 0 6.8209352
-4.6273766 2.7823768 -0.83149421 140.75 0 0 0 8.38097
-3.7193966 2.7449932 -0.82006818 46.5 0 0 0 9.9439325
2.8583813 2.8668807 -0.74817538 45.5 0 0 0 37.28397
3.1352112 2.6379249 -0.75835752 32.666668 0 0 0 38.652874
3.7257125 2.8180614 -0.75064778 72.199997 0 0 0 39.431324
4.0888143 2.5663915 -0.77697605 143 0 0 0 40.792084
4.8656774 2.8013086 -0.77229357 86 0 0 0 41.383175
5.058877 2.5872619 -0.78210968 125 0 0 0 42.161671
6.9903321 2.932234 -0.86448318 176 0 0 0 43.337673
7.3476543 2.7634959 -0.89663231 194 0 0 0 43.923767
7.7238126 2.5823767 -0.9314394 206 0 0 0 44.508339
-16.353821 3.2234704 -0.63909036 162 0 0 0 2.72349
-7.5095258 3.2722487 -0.89169937 122 0 0 0 6.2395201
-7.4211588 3.4502041 -0.8912257 85 0 0 0 6.6271901
-5.6107574 3.2927711 -0.85852975 103.66666 0 0 0 8.1862831
-4.3016915 3.2706578 -0.83454645 114 0 0 0 10.139713
-3.2337875 3.2023051 -0.80974245 55 0 0 0 12.282043
-2.8718345 3.4552517 -0.80035722 56 0 0 0 13.846556
1.922905 3.4440587 -0.72417605 39.5 0 0 0 32.97963
2.2624171 3.2439334 -0.72840124 34.5 0 0 0 34.540665
2.7468722 3.198287 -0.72292733 34.75 0 0 0 36.10498
3.2716553 3.1884573 -0.73225343 35.200001 0 0 0 37.479847
3.9669187 3.4925513 -0.72351927 44 0 0 0 38.263359
4.2996216 3.3312483 -0.7463401 64.25 0 0 0 39.235451
4.6133208 3.0535407 -0.76001835 98 0 0 0 40.4058
5.8235292 3.4426694 -0.76736677 143 0 0 0 41.185287
6.2154951 3.2681453 -0.7980907 96 0 0 0 41.970314
6.6677971 3.0932245 -0.83714926 156 0 0 0 42.752831
20.10573 3.0028932 -0.86437833 20 0 0 0 47.240128
-25.173594 3.706907 -0.9962526 50 0 0 0 1.9540401
-7.2536201 3.8106434 -0.89334327 125.66666 0 0 0 7.4046936
-5.3029308 3.7495279 -0.85873044 129 0 0 0 9.553442
-4.0800333 3.5991402 -0.84159267 78 0 0 0 11.30698
-3.7357166 3.8098264 -0.8264758 91.599998 0 0 0 12.477057
-2.6205552 3.569973 -0.78972864 70.666664 0 0 0 14.82581
-2.2454853 3.6734216 -0.7686156 79.75 0 0 0 16.194653
-1.7975029 3.8261197 -0.75677472 54.799999 0 0 0 17.945307
-1.2949173 3.9408631 -0.74487287 51.200001 0 0 0 19.900211
-0.83747202 3.9752297 -0.7312212 32 0 0 0 21.653166
-0.31527382 3.9735768 -0.72011358 39 0 0 0 23.698786
0.43939957 3.9064121 -0.71360302 26 0 0 0 26.732386
1.2409217 3.7129521 -0.71548152 45.5 0 0 0 30.047009
1.7342595 3.6869924 -0.71086651 32.333332 0 0 0 31.878031
2.215462 3.8346171 -0.70539856 42.799999 0 0 0 33.176056
2.6462173 3.5849583 -0.7114237 55.75 0 0 0 34.929756
3.3141251 3.9381049 -0.70239598 200 0 0 0 35.908733
3.7026787 3.6921144 -0.71515012 149.75 0 0 0 37.28397
4.822289 3.9265246 -0.70171177 56 0 0 0 38.84763
5.2069583 3.7245502 -0.72394782 123 0 0 0 39.820446
5.5415931 3.5627563 -0.74614483 209 0 0 0 40.596809
20.364054 3.55597 -0.87955534 34 0 0 0 46.850578
-10.108685 4.4261298 -0.94935018 280 0 0 0 6.2395201
-7.0587978 4.1574736 -0.89383668 88 0 0 0 8.1894398
-6.946681 4.321928 -0.89304537 138 0 0 0 8.57236
-5.0768147 4.0729346 -0.8615641 189 0 0 0 10.53278
-4.8575068 4.3001699 -0.85977119 104.33334 0 0 0 11.308578
-3.2332916 4.1096716 -0.81123525 118 0 0 0 14.23784
-2.757751 4.3050275 -0.79435182 82.5 0 0 0 15.805071
-2.2584181 4.4182892 -0.77190071 50 0 0 0 17.361757
-0.59028131 4.0082526 -0.73040944 26 0 0 0 22.62723
-0.24027467 4.4504838 -0.6986379 61 0 0 0 24.057608
0.23538366 4.434392 -0.69835567 44.599998 0 0 0 25.755215
0.77523899 4.3477626 -0.6968956 65.199997 0 0 0 27.707972
1.2534652 4.2324638 -0.69858158 70.5 0 0 0 29.460493
1.6593382 4.0714869 -0.69752353 57.75 0 0 0 31.026154
2.3496408 4.4257922 -0.67996585 89 0 0 0 32.591736
2.7545111 4.248939 -0.68924332 156 0 0 0 33.953728
3.1152411 4.0999136 -0.70196569 191 0 0 0 35.130951
3.9690588 4.4735398 -0.6720162 305 0 0 0 36.30254
4.2340283 4.3182225 -0.68058926 143.66667 0 0 0 37.089649
4.5742292 4.1195021 -0.69384909 86.5 0 0 0 38.06514
20.511152 4.1043801 -0.89039361 23 0 0 0 46.451729
-9.7570648 4.5569243 -0.92569089 329 0 0 0 6.6271901
-9.2870884 4.7545462 -0.89608639 315 0 0 0 7.2085152
-8.8699503 4.9572563 -0.87205362 256 0 0 0 7.79705
-6.7441239 4.6653647 -0.89635777 184 0 0 0 9.3595667
-4.6182613 4.5066786 -0.8557654 120 0 0 0 12.08567
-4.2881527 4.7231236 -0.84712315 145.75 0 0 0 13.062987
-3.8591185 4.929431 -0.83178359 109.5 0 0 0 14.234465
-1.7883513 4.5388713 -0.76050675 36.5 0 0 0 18.9214
-1.298327 4.5504355 -0.73871237 106.75 0 0 0 20.486444
-0.76686549 4.517683 -0.71679521 61.400002 0 0 0 22.236591
-0.31596771 4.5175653 -0.70980334 96 0 0 0 23.798149
0.71132791 4.9883065 -0.67810678 93.5 0 0 0 27.125376
1.2549136 4.8637691 -0.6779424 143 0 0 0 28.876699
1.7719913 4.6522017 -0.67343247 126.25 0 0 0 30.633266
2.1247911 4.5322552 -0.67839456 104 0 0 0 31.812504
3.2572546 4.873517 -0.65672445 220.75 0 0 0 34.1492
3.7146394 4.6307511 -0.66644055 269.33334 0 0 0 35.518204
5.9795589 4.9748988 -0.69240671 283 0 0 0 38.653179
6.2485819 4.9406996 -0.71010971 174 0 0 0 39.04208
6.5466552 4.9164271 -0.73097539 99 0 0 0 39.4263
8.6858921 4.9681263 -0.90183282 340 0 0 0 41.383221
9.1936579 4.9593959 -0.94309425 252 0 0 0 41.778954
20.586977 4.6494241 -0.89864814 32 0 0 0 46.06456
-12.237265 5.3688765 -0.83180034 470 0 0 0 6.2395201
-10.222788 5.3997731 -0.71482605 496 0 0 0 7.4015999
-8.712739 5.1512403 -0.86891544 373 0 0 0 8.1894398
-8.3710442 5.3689909 -0.85366869 518 0 0 0 8.7686949
-6.5393081 5.0107574 -0.9014883 285 0 0 0 10.13507
-6.4153852 5.3001776 -0.9119162 513 0 0 0 10.724915
-3.6366916 5.0109243 -0.82287484 214 0 0 0 14.82839
-3.2517207 5.1018543 -0.80470324 240.5 0 0 0 15.805071
-2.7272272 5.2094378 -0.78264809 279.66666 0 0 0 17.165764
-2.2214878 5.2957134 -0.76545525 225.5 0 0 0 18.532335
-1.7153233 5.3183417 -0.74551964 212 0 0 0 19.897463
-1.2142533 5.2605782 -0.72093958 139 0 0 0 21.264626
-0.74402553 5.2424297 -0.70810986 111.33334 0 0 0 22.627951
-0.28813076 5.1989169 -0.69771904 141.25 0 0 0 23.992743
0.21857053 5.0988154 -0.68510687 94.25 0 0 0 25.559204
0.7170586 5.0305758 -0.68372643 100.5 0 0 0 27.121231
1.8526169 5.4306235 -0.63785315 181.33333 0 0 0 30.046598
2.2523937 5.2828088 -0.63969809 201.66667 0 0 0 31.223442
2.722065 5.1048231 -0.64620215 189 0 0 0 32.591103
4.4217663 5.4905014 -0.62250334 278 0 0 0 35.516232
4.763967 5.3470063 -0.63357514 291.33334 0 0 0 36.304005
5.3061175 5.1288095 -0.65466577 298 0 0 0 37.477936
5.7406335 5.023046 -0.67814267 309 0 0 0 38.263359
7.1824827 5.1168694 -0.79012084 145 0 0 0 39.820248
7.8045206 5.2705884 -0.84621763 342 0 0 0 40.21479
8.218771 5.1146235 -0.87114263 343.5 0 0 0 40.792084
9.828804 5.2990999 -0.73267305 81 0 0 0 41.778954
-11.846977 5.5445771 -0.81367993 433 0 0 0 6.6271901
-11.433234 5.6932497 -0.7939145 461 0 0 0 7.01543
-9.8713999 5.5243883 -0.69888288 440 0 0 0 7.79705
-9.3924847 5.7145381 -0.67869937 541.5 0 0 0 8.3808994
-8.0248699 5.5700116 -0.83832562 728 0 0 0 9.3593998
-7.5369253 5.7924485 -0.81546092 572 0 0 0 10.13507
-7.3243046 5.9174209 -0.8078149 588 0 0 0 10.53278
-6.1457705 5.7407055 -0.92333388 364 0 0 0 11.7017
-5.8778305 5.9054203 -0.91522098 504.5 0 0 0 12.281775
0.26801431 5.9258614 -0.65550047 185.5 0 0 0 25.559204
0.76961643 5.825068 -0.65043801 158.66667 0 0 0 26.92724
1.2552396 5.6759729 -0.64482206 180 0 0 0 28.293251
1.5861932 5.530405 -0.638668 186 0 0 0 29.260849
3.3679178 5.9262238 -0.5987159 264.5 0 0 0 32.97963
3.76456 5.7607913 -0.60582948 262.66666 0 0 0 33.955673
4.1717749 5.5939856 -0.61549389 305.5 0 0 0 34.930367
7.7173338 5.9341884 -0.63317072 666 0 0 0 39.234192
8.2243414 5.8513188 -0.65801907 707 0 0 0 39.820248
10.183827 5.8176188 -0.77102613 339 0 0 0 41.383221
20.654516 5.746501 -0.91325611 29 0 0 0 45.28302
-14.000607 6.1501279 -0.58652091 80 0 0 0 6.2395201
-9.1359653 6.0262556 -0.67603236 628 0 0 0 8.9650297
-8.9914408 6.2505183 -0.67688632 643 0 0 0 9.3593998
-7.1478057 6.068007 -0.80469066 645 0 0 0 10.91705
-6.7545953 6.322473 -0.79458982 726.33331 0 0 0 11.698116
-5.5782123 6.0288825 -0.90228719 571 0 0 0 12.86686
-5.2737846 6.1327839 -0.88871944 572.5 0 0 0 13.453606
-4.7460575 6.2466636 -0.86206514 489.66666 0 0 0 14.432441
-4.2317181 6.3352795 -0.83714056 391.5 0 0 0 15.41535
-3.7339065 6.3974113 -0.81419116 370 0 0 0 16.38903
-3.2200494 6.3781471 -0.78507233 335 0 0 0 17.35989
-2.7639961 6.4179955 -0.76837331 287 0 0 0 18.335587
-2.2249365 6.4158158 -0.7471593 261 0 0 0 19.508032
-1.6822977 6.3063788 -0.71816987 227.33333 0 0 0 20.68342
-1.1877095 6.2604833 -0.70181966 203.33333 0 0 0 21.846451
-0.70292336 6.1246681 -0.67929882 176.66667 0 0 0 23.01561
-0.24588841 6.0391345 -0.66680646 224.33333 0 0 0 24.189249
2.2068932 6.4163651 -0.59288627 276.66666 0 0 0 30.046598
2.7497375 6.1944666 -0.59369946 250.75 0 0 0 31.419857
3.1367643 6.0308008 -0.59635496 248 0 0 0 32.396061
6.4281316 6.3547707 -0.58429992 590.5 0 0 0 37.283447
6.7288361 6.1746984 -0.59102964 248 0 0 0 37.86692
7.3487382 6.2534761 -0.62682259 671 0 0 0 38.458267
9.1055555 6.1407886 -0.71920496 452 0 0 0 40.21479
9.5968847 6.1311264 -0.74724019 555 0 0 0 40.596809
20.893881 6.3710179 -0.93103969 26 0 0 0 44.897659
-13.518774 6.742393 -0.57984191 434 0 0 0 7.01543
-11.701846 6.9419279 -0.51942247 192 0 0 0 8.1894398
-8.5267973 6.5646515 -0.66533959 615 0 0 0 10.13507
-8.2111797 6.8127675 -0.6600672 587.5 0 0 0 10.724915
-6.2227798 6.5782042 -0.77789903 782 0 0 0 12.67237
-5.7095437 6.8238835 -0.76498407 908.66669 0 0 0 13.648761
-4.5077381 6.9511757 -0.60991609 804.5 0 0 0 15.61152
0.8469767 6.9207268 -0.60640705 253 0 0 0 26.732386
1.259606 6.7948337 -0.6018979 233 0 0 0 27.708227
1.7400001 6.6149697 -0.59667712 220.66667 0 0 0 28.875374
4.3327699 6.9789023 -0.52513653 276 0 0 0 33.565968
4.7377133 6.8475976 -0.53365022 253.66667 0 0 0 34.343609
5.2723975 6.6936421 -0.54754198 274.5 0 0 0 35.323593
5.796174 6.6482935 -0.5685541 257 0 0 0 36.10498
6.2492032 6.6527476 -0.58991814 551 0 0 0 36.702061
20.933685 6.9507499 -0.94037217 51 0 0 0 44.508339
-13.174648 7.1835289 -0.5764488 442.5 0 0 0 7.5993252
-7.7959967 7.1370335 -0.65445364 565 0 0 0 11.50434
-7.4932356 7.3813605 -0.65176827 673 0 0 0 12.08567
-5.2416339 7.1025352 -0.75983822 810.5 0 0 0 14.629126
-4.9556103 7.2563748 -0.75694686 929 0 0 0 15.21918
-4.045536 7.3728313 -0.6213479 628 0 0 0 16.77751
-3.869633 7.4800782 -0.72641867 715 0 0 0 17.16403
-0.73781872 7.4360871 -0.64815152 255 0 0 0 23.209801
-0.27589557 7.2930074 -0.6335122 268 0 0 0 24.189249
0.25563082 7.136013 -0.62041122 258 0 0 0 25.364952
0.5977242 7.0173573 -0.61217868 314 0 0 0 26.14196
3.3094213 7.4184017 -0.5167501 220.5 0 0 0 31.419285
3.7663162 7.2089558 -0.51854211 246 0 0 0 32.397522
4.1535745 7.07481 -0.52402598 270 0 0 0 33.171848
-10.819364 7.937458 -0.51360875 5 0 0 0 9.7542696
-7.2050238 7.636817 -0.65133429 647.5 0 0 0 12.67237
-6.7799368 7.9262848 -0.6478337 528 0 0 0 13.453606
-5.3948793 7.7070208 -0.58214808 709 0 0 0 15.023785
-4.6241407 7.5377936 -0.76317877 477 0 0 0 16.002489
-4.4481945 7.6655416 -0.76553255 515 0 0 0 16.387091
-3.8046365 7.5817909 -0.627931 547 0 0 0 17.35989
-3.2231417 7.8068419 -0.7306934 527.5 0 0 0 18.528511
-2.8376646 7.9489164 -0.73130977 279 0 0 0 19.314289
-2.2625086 7.8064437 -0.70420671 270 0 0 0 20.290823
-1.7415078 7.7541666 -0.68899214 255 0 0 0 21.264641
-1.2298391 7.614943 -0.66901809 249 0 0 0 22.23687
1.8914752 7.9159427 -0.51461214 227 0 0 0 28.48966
2.2671239 7.7728715 -0.51273161 230.33333 0 0 0 29.265867
2.7455893 7.6272082 -0.51436865 270 0 0 0 30.239326
3.0285132 7.5263243 -0.51538962 242 0 0 0 30.83176
21.070343 7.5767221 -0.95495003 49 0 0 0 44.116039
-12.254596 8.3257132 -0.57061219 469 0 0 0 9.1622143
-10.60595 8.1862192 -0.51324904 640 0 0 0 10.13507
-10.409175 8.4476862 -0.51408833 588 0 0 0 10.53278
-6.3312244 8.1782837 -0.64308619 657.5 0 0 0 14.234465
-4.8518963 8.1435642 -0.58849871 796 0 0 0 16.19479
-3.8048046 8.3486042 -0.79637927 330 0 0 0 17.949739
0.83771205 8.4045076 -0.53300726 297 0 0 0 26.340611
1.2291346 8.2199001 -0.52479225 234 0 0 0 27.121231
1.6104759 8.0433369 -0.5183481 239 0 0 0 27.903866
21.174822 8.2081289 -0.96872461 32 0 0 0 43.731499
-4.2117958 8.6843996 -0.60183901 751 0 0 0 17.55575
-0.53642577 8.9443188 -0.56451613 268 0 0 0 23.798149
-0.20491216 8.8103104 -0.55540931 234 0 0 0 24.3848
0.22293559 8.6462803 -0.5453307 255.5 0 0 0 25.166784
0.53540528 8.5404778 -0.53977835 256 0 0 0 25.76129
21.221167 8.8327236 -0.9805885 36 0 0 0 43.337673
-4.094605 9.0024567 -0.61826104 737 0 0 0 17.949739
-3.9416714 9.2655096 -0.63078284 550 0 0 0 18.33424
-1.7389116 9.4478493 -0.60509068 195 0 0 0 21.84314
-1.2472515 9.2961988 -0.59112483 221.33333 0 0 0 22.627951
-0.76761806 9.0839491 -0.5744499 189 0 0 0 23.403219
21.327112 9.4989576 -0.996185 29 0 0 0 42.945858
-9.3320055 9.6833687 -0.51856077 323 0 0 0 12.47788
-8.8098574 9.5968113 -0.50161564 259 0 0 0 12.86686
-3.6722345 9.6035461 -0.64590186 427.5 0 0 0 18.92268
-2.6910958 9.8176813 -0.64147556 349 0 0 0 20.488476
-2.2574413 9.6049824 -0.62135696 226 0 0 0 21.073311
-1.9927487 9.5152206 -0.61222595 208 0 0 0 21.455971
-3.3237145 10.168486 -0.67491293 365 0 0 0 19.70076
25.259039 12.002104 -0.51452428 63 0 0 0 42.559807
-2.6169486 12.645693 -0.510548 306 0 0 0 21.455971
-2.2776959 12.544318 -0.50422478 161 0 0 0 21.84314
25.442873 12.865511 -0.52482617 76 0 0 0 42.161671
25.869379 14.720319 -0.54854035 69 0 0 0 41.383221
29.555111 29.677509 -0.77816278 19 0 0 0 37.090527
30.786295 34.106533 -0.85525125 22 0 0 0 36.30254
14.214331 -18.24646 -0.40501374 94 0 0 0 64.047371
14.545703 -17.755102 -0.40238339 94 0 0 0 63.65472
15.124283 -17.562744 -0.40741545 136 0 0 0 63.259647
17.652037 -17.676163 -0.44420111 19 0 0 0 62.079609
18.789333 -17.911087 -0.46374995 18 0 0 0 61.693901
20.61866 -17.804609 -0.489999 14 0 0 0 60.907299
15.576498 -17.214083 -0.40886757 41 0 0 0 62.865513
16.61875 -17.481276 -0.42693755 26 0 0 0 62.466991
-4.0272779 -15.993679 -0.25102586 201 0 0 0 78.507072
7.5906644 -14.255493 -0.26657635 101 0 0 0 66.775459
-11.426126 -13.229024 -0.26262087 24 0 0 0 85.943771
7.3830848 -13.085447 -0.24623799 370 0 0 0 66.38652
8.7370634 -13.120391 -0.26244643 159 0 0 0 65.215851
8.0621414 -12.778811 -0.24932805 206 0 0 0 65.609619
-5.6310992 -11.866806 -0.18983506 379 0 0 0 81.646835
0.54988289 -11.718672 -0.17359836 169 0 0 0 73.824028
-14.420835 -11.245388 -0.27664894 47 0 0 0 89.069389
-1.6884091 -11.227521 -0.16308223 285 0 0 0 76.951988
-1.1456256 -11.391157 -0.16564243 137 0 0 0 76.167885
-0.72697401 -11.444273 -0.16670251 159 0 0 0 75.583847
5.1747169 -11.005355 -0.19064099 363 0 0 0 67.562622
-2.1394196 -10.637972 -0.28472537 221 0 0 0 77.737213
-1.0918121 -10.820848 -0.42109033 185 0 0 0 76.167885
-0.02531768 -10.538179 -0.1514101 192 0 0 0 74.604607
1.0432676 -10.863206 -0.15994866 174 0 0 0 73.032349
4.7350273 -10.75358 -0.32615992 390.5 0 0 0 67.952873
5.1509609 -10.961141 -0.48592657 370 0 0 0 67.562622
-13.929019 -10.322556 -0.26050502 14 0 0 0 89.466759
-2.3780293 -10.482221 -0.41367984 33 0 0 0 78.119392
3.7431829 -10.148526 -0.29576463 420.75 0 0 0 68.937843
4.3082061 -10.473963 -0.17393029 358 0 0 0 68.34671
-14.078752 -9.9081898 -0.25857189 16 0 0 0 89.867668
-3.5390482 -9.8350048 -0.1445868 523 0 0 0 80.08432
-1.6818966 -9.5617523 -0.13383956 206 0 0 0 77.33651
2.9022775 -9.6684885 -0.27241093 471 0 0 0 69.907372
3.2269316 -9.8615551 -0.28155679 428.5 0 0 0 69.515366
-4.2101507 -9.4552927 -0.14208718 612 0 0 0 81.251266
0.42593825 -9.245368 -0.35532168 105 0 0 0 73.824028
0.65856785 -9.3160963 -0.35932556 206 0 0 0 73.427399
1.7630055 -9.0062675 -0.13047993 557 0 0 0 71.470596
2.478313 -9.061717 -0.1357964 279 0 0 0 70.303841
5.7062345 -9.40065 -0.35041988 1029 0 0 0 65.872154
6.4122057 -9.1526356 -0.31254017 507 0 0 0 64.828514
-5.5083208 -8.670351 -0.26508236 607 0 0 0 83.594246
-5.2904205 -8.7980785 -0.1397537 352 0 0 0 83.212654
-3.3042347 -8.5123005 -0.23273215 292 0 0 0 80.472191
-0.027473083 -8.8589563 -0.33780885 161 0 0 0 74.604607
1.2699986 -8.7492447 -0.12353086 934 0 0 0 72.258118
24.480783 -8.7613392 -0.47464389 24 0 0 0 55.049328
-6.2763538 -8.2281752 -0.14077261 283.5 0 0 0 84.968307
-5.9538579 -8.4311123 -0.14036165 557 0 0 0 84.374146
-4.5194387 -8.4220095 -0.12788607 293 0 0 0 82.424736
0.18097131 -8.4348841 -0.11430026 89 0 0 0 74.207069
0.99216986 -8.2824602 -0.31784868 41 0 0 0 72.641159
1.1983684 -8.2635431 -0.18051408 345.66666 0 0 0 72.254707
1.8651774 -8.4390717 -0.22634596 578.5 0 0 0 71.084007
2.0580673 -8.3370533 -0.22669791 561 0 0 0 70.695229
-7.6455054 -7.6299138 -0.41188344 110 0 0 0 87.125832
-7.2607236 -7.6094775 -0.40009683 300 0 0 0 86.73539
-0.21746385 -7.8243032 -0.10280533 166 0 0 0 74.991997
0.63355422 -7.7051697 -0.33699277 197.75 0 0 0 73.229874
1.3078004 -7.7230844 -0.39354929 128 0 0 0 71.864594
2.1687899 -7.951088 -0.31611106 495 0 0 0 70.303841
3.8808932 -7.773962 -0.12638479 295 0 0 0 67.178879
24.176176 -7.9878039 -0.46443629 34 0 0 0 54.662113
-4.9636965 -7.4028077 -0.22493815 268 0 0 0 83.981842
-3.1505992 -7.0611048 -0.28547335 560 0 0 0 81.251266
-2.7352986 -7.3026924 -0.38315934 441.5 0 0 0 80.278259
-2.0129256 -7.196517 -0.093654744 89 0 0 0 78.906113
-1.5080898 -7.4588704 -0.46841097 44 0 0 0 77.737213
-0.91509628 -7.2199926 -0.1792566 271 0 0 0 76.562958
-0.2025806 -7.2250009 -0.44543028 181.5 0 0 0 74.995209
0.14764257 -7.1482754 -0.26583824 443 0 0 0 74.207069
0.89439046 -7.492115 -0.46865758 152 0 0 0 72.641159
3.9603317 -7.4740191 -0.32944453 47 0 0 0 66.775459
23.829481 -7.2286925 -0.45374781 42 0 0 0 54.271488
-3.7064438 -6.6984634 -0.37543809 481.25 0 0 0 82.619003
-3.2908714 -6.9146543 -0.4068892 358.66666 0 0 0 81.646736
-2.0739105 -6.7675414 -0.08657933 1094 0 0 0 79.296715
-1.8125994 -6.7793798 -0.25697118 237.5 0 0 0 78.706589
-1.211482 -6.8399301 -0.33908474 120 0 0 0 77.33651
-0.57639867 -6.7026114 -0.35625255 122.33334 0 0 0 75.910553
-0.27681762 -6.7557178 -0.24870621 73.5 0 0 0 75.188904
0.30366141 -6.7605829 -0.41549402 58 0 0 0 73.824028
23.579056 -6.5242658 -0.445434 41 0 0 0 53.875969
-6.768177 -6.4298754 -0.35097042 352 0 0 0 87.510658
-4.7847614 -6.1097016 -0.28560892 322 0 0 0 85.163361
-4.4316173 -6.2672973 -0.37551928 516.5 0 0 0 84.374146
-2.1144695 -6.3382149 -0.079501778 39 0 0 0 79.691322
-1.4530369 -6.3714299 -0.077774942 58 0 0 0 78.119392
-0.98290926 -6.4584212 -0.2377499 135 0 0 0 76.951988
-8.3100872 -5.545537 -0.25642192 256.5 0 0 0 90.250542
-4.8871765 -5.9350591 -0.47037524 604 0 0 0 85.550301
-4.3702245 -5.5786114 -0.43066183 133 0 0 0 85.163361
-3.3473663 -5.8783321 -0.07976611 71 0 0 0 82.813263
-2.8092585 -5.7104368 -0.14788659 151 0 0 0 81.844467
-2.2804439 -5.6486392 -0.25503221 265.75 0 0 0 80.669708
-1.9188502 -5.741806 -0.28849462 242.5 0 0 0 79.691322
23.400848 -5.859561 -0.43896595 33 0 0 0 53.485298
-5.1048775 -5.0924582 -0.086901903 90 0 0 0 87.125832
-4.638958 -5.1035905 -0.081553645 109 0 0 0 86.344887
-4.1983252 -5.0973082 -0.15638497 229 0 0 0 85.550301
-3.6636295 -5.1801252 -0.38185036 426.5 0 0 0 84.377548
-3.1815548 -5.2774582 -0.29575345 266 0 0 0 83.212654
-2.2049143 -5.2725759 -0.48192859 151 0 0 0 80.864838
-1.7253094 -5.4521489 -0.34269896 86.666664 0 0 0 79.428253
23.28446 -5.2254801 -0.43409058 27 0 0 0 53.100201
-13.208076 -4.7240281 -0.20604947 185 0 0 0 94.159996
-4.6345901 -4.7385511 -0.31879011 416 0 0 0 86.927773
-4.3773742 -4.6981153 -0.23135643 147 0 0 0 86.540138
-3.8751681 -4.7071385 -0.26553148 132.66667 0 0 0 85.553612
-3.0279429 -4.7531781 -0.4739022 808 0 0 0 83.594246
23.188496 -4.6080451 -0.42994624 25 0 0 0 52.711979
-13.04613 -4.3082442 -0.2013201 88 0 0 0 94.548721
-5.314939 -4.423677 -0.19364761 158.66667 0 0 0 88.547325
-4.6863441 -4.289957 -0.18551537 1339.25 0 0 0 87.801582
-4.055697 -4.2445889 -0.4949964 69 0 0 0 86.73539
23.0961 -4.0018773 -0.42618129 38 0 0 0 52.314991
-13.125228 -3.6310768 -0.19976628 80 0 0 0 95.329376
-4.5903692 -3.9487107 -0.36246794 89 0 0 0 88.290543
-13.771152 -3.2672033 -0.20951155 308 0 0 0 95.912605
-4.7870641 -3.1915762 -0.48468298 1127 0 0 0 90.250542
-4.3259625 -3.039181 -0.31187814 241 0 0 0 89.867668
23.097872 -3.4192376 -0.4245857 44 0 0 0 51.92194
-14.939073 -2.5914853 -0.22785018 246 0 0 0 96.88884
-14.39584 -2.8627455 -0.21907537 272 0 0 0 96.495171
6.4824901 -2.8904469 -0.10337882 1136 0 0 0 56.21777
6.6106949 -2.6783223 -0.31539741 1460.4 0 0 0 55.667999
22.63253 -2.7833729 -0.41398841 64 0 0 0 51.53207
6.422389 -2.4919896 -0.099549092 1634 0 0 0 55.433033
22.657738 -2.2221017 -0.41342163 37 0 0 0 51.149231
23.00709 -1.685971 -0.41953248 43 0 0 0 50.747231
23.078011 -1.1211095 -0.42038116 38 0 0 0 50.359512
23.053127 -0.55179852 -0.41959569 58 0 0 0 49.977489
22.496347 0.015315624 -0.40857801 81 0 0 0 49.58308
22.616644 0.5721789 -0.41117945 135 0 0 0 49.191231
22.503441 1.1240439 -0.40942097 167 0 0 0 48.80616
22.528412 1.6820009 -0.41065058 168 0 0 0 48.415607
-22.676262 2.2102933 -0.33225375 51 0 0 0 1.1651599
22.626112 2.2504635 -0.41358221 166 0 0 0 48.026768
22.66577 2.8193383 -0.41563147 184 0 0 0 47.634769
22.961069 3.4317603 -0.42305747 103 0 0 0 47.240128
23.091055 4.0344586 -0.42748255 94 0 0 0 46.850578
23.412056 4.6869035 -0.43606251 91 0 0 0 46.451729
-6.6043735 5.0651717 -0.10216718 552 0 0 0 10.13507
23.604521 5.3326802 -0.44238567 107 0 0 0 46.06456
7.7313619 5.895288 -0.31286445 619 0 0 0 39.298229
8.2084789 5.8407049 -0.28470859 641.5 0 0 0 39.820248
8.7164516 5.8801045 -0.42833593 643 0 0 0 40.21479
23.720098 5.9758492 -0.44748166 110 0 0 0 45.682419
-9.7961597 6.1281471 -0.29580465 466 0 0 0 8.57236
7.6750474 6.2648635 -0.23903142 625.66669 0 0 0 38.78281
8.9160013 6.0155349 -0.17485164 500 0 0 0 40.21479
9.521224 6.0838022 -0.32413894 537 0 0 0 40.596809
-13.531816 6.7467208 -0.21345314 508 0 0 0 7.01543
-11.823525 6.627552 -0.18810743 299 0 0 0 7.79705
-4.5249443 6.9785347 -0.20752028 1467 0 0 0 15.61152
6.8494968 6.6022596 -0.26615795 507.5 0 0 0 37.476368
7.1808786 6.5854836 -0.27357048 481 0 0 0 37.86692
20.977457 6.9689093 -0.40065476 87 0 0 0 44.508339
23.857687 6.6388569 -0.45337865 85 0 0 0 45.28302
-13.287681 7.0344539 -0.21246107 472 0 0 0 7.4015999
6.7775779 7.2090111 -0.2769393 511 0 0 0 36.702061
23.999861 7.3191719 -0.45971829 101 0 0 0 44.897659
-12.844278 7.6236687 -0.21170618 407 0 0 0 8.1894398
-9.3710566 7.9850278 -0.46926248 253 0 0 0 10.91705
-8.8867226 7.951757 -0.4537144 535 0 0 0 11.30698
-5.4799304 7.6292071 -0.35256043 273 0 0 0 14.82839
-4.7308059 7.861546 -0.19657938 329.33334 0 0 0 16.13069
6.1013212 7.7322707 -0.39613295 225 0 0 0 35.323593
6.6775732 7.6486731 -0.4099955 460.5 0 0 0 36.10498
7.7374926 7.8232212 -0.4479166 444 0 0 0 37.090527
8.8084526 7.6732368 -0.33407483 463 0 0 0 38.263359
-12.263524 8.3294086 -0.21102096 551.5 0 0 0 9.1622143
-10.422238 8.4561863 -0.18893237 1422 0 0 0 10.53278
-8.6276264 8.2411718 -0.35726357 389 0 0 0 11.82969
-6.544682 8.2461147 -0.2711989 786.5 0 0 0 14.03907
-6.3775077 8.4522438 -0.27343208 735 0 0 0 14.42986
-4.3082323 8.2536917 -0.21620865 496 0 0 0 17.087765
5.8930135 8.4914141 -0.41669565 218 0 0 0 34.34206
6.1357532 8.3905363 -0.41954705 220 0 0 0 34.729778
21.05303 8.1648436 -0.40957004 118 0 0 0 43.731499
23.270947 8.3695755 -0.45227927 38 0 0 0 44.116039
-10.21573 8.7106695 -0.18947504 774 0 0 0 10.91705
-9.9977465 8.955431 -0.18990435 531 0 0 0 11.30698
-7.2131729 8.6547146 -0.29264104 138.5 0 0 0 13.65404
-6.2096853 8.6619387 -0.14663111 695 0 0 0 14.82839
-4.0797119 8.6841526 -0.36463714 658 0 0 0 17.752745
-3.9906573 8.7666636 -0.13225426 660 0 0 0 17.949739
4.4245963 8.9668303 -0.399432 152 0 0 0 32.00909
4.7557926 8.8012161 -0.40032095 188.5 0 0 0 32.591736
5.2122898 8.6013765 -0.40350181 220.5 0 0 0 33.368908
5.5981131 8.509079 -0.4096925 566 0 0 0 33.958992
21.255795 8.8509531 -0.4180041 160 0 0 0 43.337673
-9.5972023 9.4815187 -0.19206926 391 0 0 0 12.08567
-3.9377348 9.2557716 -0.26292419 503 0 0 0 18.33424
-2.945035 9.3703547 -0.13789743 430 0 0 0 19.895519
3.766362 9.3110437 -0.40016755 189.33333 0 0 0 30.829565
4.2014604 9.0719957 -0.39894044 165 0 0 0 31.615919
-9.2793941 9.8659735 -0.19376791 397.5 0 0 0 12.67237
-8.4299164 9.6425838 -0.33758467 92.5 0 0 0 13.25317
2.3891332 9.9068222 -0.4037503 184 0 0 0 28.48966
2.7392049 9.7637825 -0.4023006 201.5 0 0 0 29.06823
3.2032974 9.5760117 -0.40133113 201.5 0 0 0 29.852757
5.5215631 9.9076614 -0.18090256 53 0 0 0 32.787411
6.1621585 9.6099014 -0.18341072 211 0 0 0 33.762482
21.575331 9.6131353 -0.42938945 122 0 0 0 42.945858
-6.9078097 10.176279 -0.47463974 462 0 0 0 15.21918
-5.8743725 10.181709 -0.45354214 272 0 0 0 16.387091
0.93761057 10.484904 -0.41543144 172 0 0 0 26.14196
1.3074419 10.324965 -0.41103807 210.5 0 0 0 26.732386
1.7945948 10.141861 -0.40731901 174 0 0 0 27.514221
2.1572626 10.020144 -0.40583694 173 0 0 0 28.096239
7.2650232 10.44537 -0.20925578 387 0 0 0 34.34206
7.7011266 10.239894 -0.21146837 375.5 0 0 0 34.930367
8.3179026 10.246527 -0.21936771 315 0 0 0 35.516232
-4.2514629 10.752654 -0.44893348 495 0 0 0 18.72278
-3.999748 10.889889 -0.45114908 505 0 0 0 19.12258
0.30273885 10.865793 -0.42900303 183 0 0 0 25.166784
0.68604898 10.595613 -0.41886404 221 0 0 0 25.76129
6.3419499 10.734169 -0.20292494 95 0 0 0 33.171848
9.1343088 10.695734 -0.23649123 303 0 0 0 35.907421
-3.6705379 11.266104 -0.46256879 474 0 0 0 19.70076
-0.23681358 11.254534 -0.44458899 182.5 0 0 0 24.3848
5.9939451 11.38741 -0.20964225 98 0 0 0 32.396061
-7.8681412 11.608751 -0.20562625 230 0 0 0 15.21918
-3.1775317 11.670591 -0.47423723 267.5 0 0 0 20.488476
-1.2627432 11.81293 -0.46910033 150 0 0 0 23.01638
-0.81134641 11.589294 -0.45884633 163 0 0 0 23.600685
4.8494711 11.934436 -0.20792441 131 0 0 0 30.83176
5.2633324 11.695334 -0.20760301 127.5 0 0 0 31.419285
5.7090831 11.526796 -0.20904732 117 0 0 0 32.00909
-2.838886 12.189151 -0.49296939 170 0 0 0 21.073311
-1.8139764 12.224444 -0.38593355 197 0 0 0 22.369238
3.8312085 12.394173 -0.2079014 120.5 0 0 0 29.460995
4.2802529 12.227025 -0.2082971 149 0 0 0 30.044371
4.5650725 12.078933 -0.2080093 115 0 0 0 30.43428
22.706537 12.19611 -0.47063655 68 0 0 0 41.778954
2.7976856 12.888768 -0.21015044 88 0 0 0 28.096239
3.2421796 12.667202 -0.20881414 125 0 0 0 28.682636
1.8992372 13.464587 -0.21620898 110 0 0 0 26.92551
2.3484318 13.139649 -0.21235761 107.5 0 0 0 27.514221
1.2685578 13.886168 -0.22156097 115 0 0 0 26.14196
1.5910053 13.698833 -0.21926025 120 0 0 0 26.539261
23.222242 13.985187 -0.49597046 146 0 0 0 40.987358
-2.9436152 14.273503 -0.22555558 396 0 0 0 21.455971
0.94797993 14.203468 -0.22639756 118 0 0 0 25.76129
-4.2279348 14.893327 -0.23980911 345 0 0 0 20.290871
-3.8508263 14.950474 -0.23973744 305 0 0 0 20.686079
-3.431217 14.810857 -0.23621055 290 0 0 0 21.073311
-2.631068 14.562712 -0.23029973 341 0 0 0 21.84314
0.26389897 14.866948 -0.2369826 82 0 0 0 24.969049
0.61469066 14.556189 -0.2320154 79 0 0 0 25.364519
-5.1286116 15.19851 -0.24836928 254 0 0 0 19.506001
-1.9861019 15.261017 -0.24243255 157 0 0 0 22.62723
-0.29170775 15.295584 -0.24398771 80.5 0 0 0 24.3848
-6.1567221 15.677569 -0.26118249 167 0 0 0 18.72278
-5.6867504 15.589988 -0.25750983 125 0 0 0 19.12258
-0.87618583 15.739398 -0.2514469 75 0 0 0 23.798149
-1.6808608 16.010283 -0.25606853 90 0 0 0 23.01638
-1.3016765 16.239862 -0.26036045 75 0 0 0 23.403219
49.158081 -32.82523 0.33248079 123 0 0 0 58.950859
-20.466541 -29.046761 0.29549336 22 0 0 0 84.374146
39.947144 -28.122484 0.28222883 14 0 0 0 59.341953
33.464588 -26.11182 0.25206989 17 0 0 0 60.123459
-30.462967 -23.772194 0.31853959 22 0 0 0 89.069389
21.522343 -22.617336 0.20012048 52 0 0 0 62.466991
24.60265 -22.305492 0.20772372 32 0 0 0 61.293766
26.889441 -22.071245 0.21401148 20 0 0 0 60.516991
21.890764 -21.90177 0.19787949 91 0 0 0 62.079609
24.946743 -21.525482 0.20548886 19 0 0 0 60.907299
29.050556 -21.545971 0.21922599 30 0 0 0 59.73822
22.30311 -21.244532 0.19614552 86 0 0 0 61.693901
14.184755 -18.200872 0.16013633 191 0 0 0 64.047371
15.535066 -18.031027 0.16255771 163 0 0 0 63.259647
14.560047 -17.765133 0.15884784 136 0 0 0 63.65472
12.705011 -17.159035 0.1516964 4478 0 0 0 64.436462
15.644477 -17.28194 0.15925512 57 0 0 0 62.865513
-4.0635862 -16.152712 0.15262488 90 0 0 0 78.507072
-44.443474 -15.906864 0.3734006 37 0 0 0 94.159996
-46.001144 -15.201792 0.38139558 18 0 0 0 94.548721
-3.0080729 -15.029063 0.14230938 137 0 0 0 77.737213
-47.355057 -14.370345 0.38783279 30 0 0 0 94.947708
-5.0605206 -14.096742 0.14252794 92 0 0 0 80.08432
7.6028891 -14.271145 0.12824386 159 0 0 0 66.775459
-48.70396 -13.4838 0.39430791 22 0 0 0 95.329376
7.370121 -13.058327 0.30801362 439.5 0 0 0 66.38652
8.750123 -13.134012 0.12300683 152 0 0 0 65.215851
-50.242886 -12.591046 0.40218821 17 0 0 0 95.718719
-10.094848 -12.920553 0.1558314 35 0 0 0 85.163361
7.5874677 -12.704931 0.30371258 411 0 0 0 66.003418
8.081562 -12.807507 0.49845359 269 0 0 0 65.609619
-5.2743297 -12.126101 0.35065505 1110.6666 0 0 0 81.122459
0.27563635 -12.158758 0.11606517 261 0 0 0 74.207069
-51.795872 -11.637246 0.41020307 20 0 0 0 96.106491
-6.212204 -11.592203 0.2952897 533 0 0 0 82.424736
-5.8480639 -11.824876 0.3505514 1051.6666 0 0 0 81.910347
0.55194551 -11.710183 0.11267488 329 0 0 0 73.824028
-6.8760619 -11.13529 0.2946606 614 0 0 0 83.40345
-6.4927678 -11.431587 0.45895752 1168 0 0 0 82.813263
5.1769919 -11.004173 0.10653333 414 0 0 0 67.562622
5.6636324 -11.308214 0.26691222 356 0 0 0 67.178879
-0.023098486 -10.532614 0.10568456 210 0 0 0 74.604607
1.043201 -10.84659 0.24221346 485 0 0 0 73.032349
4.3256583 -10.513849 0.38683507 351 0 0 0 68.34671
4.7113581 -10.693071 0.24966596 482.5 0 0 0 67.952873
5.1003847 -10.846302 0.40477011 341 0 0 0 67.562622
7.4643478 -10.638396 0.10703098 36 0 0 0 64.828514
3.7555287 -10.173752 0.2361359 459 0 0 0 68.937843
4.3175998 -10.490362 0.10288107 356 0 0 0 68.34671
-1.6885166 -9.6076889 0.22501437 137 0 0 0 77.33651
1.6643971 -9.7486496 0.34514827 586 0 0 0 71.864838
2.7578144 -9.6003418 0.22174054 639 0 0 0 70.105606
3.2347414 -9.8769169 0.22857983 614 0 0 0 69.515366
1.8519944 -9.4459219 0.21636881 629 0 0 0 71.470596
2.1767855 -9.2757854 0.21404776 714.75 0 0 0 70.889618
5.8918304 -9.3505611 0.097448945 78 0 0 0 65.609619
-3.3171127 -8.5495901 0.32976809 273 0 0 0 80.472191
1.2771647 -8.7887859 0.20356299 406.5 0 0 0 72.258118
0.36781773 -8.0150394 0.28841352 130 0 0 0 73.824028
0.78326946 -8.1945553 0.29437637 405.5 0 0 0 73.034279
-0.76989293 -7.5872674 0.087661654 104 0 0 0 76.167885
-0.025235513 -7.7050071 0.27890861 65 0 0 0 74.604607
0.16536877 -7.7805419 0.28112319 105 0 0 0 74.207069
0.56412929 -7.9896526 0.087996297 127 0 0 0 73.427399
1.3368831 -7.8584919 0.086332247 29 0 0 0 71.864838
30.896149 -7.7265053 0.18826014 14 0 0 0 53.485298
-4.9695687 -7.4137497 0.32320696 378 0 0 0 83.981842
-1.0886867 -7.1881404 0.17526031 56.5 0 0 0 76.951988
-0.91835707 -7.2649894 0.085879251 109 0 0 0 76.562958
0.89670515 -7.4824843 0.084252208 2704 0 0 0 72.641159
-2.1616478 -6.7589197 0.26269487 583.75 0 0 0 79.494019
-1.8066564 -6.775826 0.25965059 62.5 0 0 0 78.706589
-0.35960811 -6.8375936 0.081805333 655 0 0 0 75.385811
-7.8763614 -6.4553304 0.36410356 1005 0 0 0 88.675713
-6.793014 -6.4562354 0.3379426 402 0 0 0 87.510658
-2.2294192 -6.1778412 0.082595944 201.5 0 0 0 80.081757
-1.4247799 -6.2515435 0.080547512 55 0 0 0 78.119392
-8.3342285 -5.5639391 0.23396327 920 0 0 0 90.250542
-3.6538866 -5.7474432 0.08546333 260 0 0 0 83.597244
-3.2934041 -5.7857161 0.084160633 214 0 0 0 82.813263
-2.7020085 -5.6766086 0.081146017 119 0 0 0 81.646835
-1.6442819 -5.8660913 0.37889811 288 0 0 0 78.906113
28.792665 -5.7140098 0.17585219 26 0 0 0 52.711979
-5.0161567 -5.00562 0.087790638 116 0 0 0 87.125832
-4.6257906 -5.0909901 0.086243957 194 0 0 0 86.344887
-4.2885985 -5.2094402 0.16978496 195.5 0 0 0 85.550301
-3.74137 -5.0261898 0.081616729 73 0 0 0 84.773262
-3.3577461 -5.2768612 0.23695955 270 0 0 0 83.594246
-2.2539279 -5.3977056 0.077745244 155 0 0 0 80.864838
-5.6580424 -4.8714561 0.45859134 69 0 0 0 88.290543
-5.2045159 -4.7865558 0.14670669 171.33333 0 0 0 87.769257
-4.7405987 -4.967566 0.08617086 64 0 0 0 86.73539
-4.0356183 -4.6642361 0.08101134 100 0 0 0 85.943771
28.176823 -4.8752017 0.17201631 18 0 0 0 52.314991
-5.425962 -4.4459968 0.08721666 123 0 0 0 88.675713
27.718679 -4.0968351 0.16907617 28 0 0 0 51.92194
27.420332 -3.3660624 0.16702203 28 0 0 0 51.53207
6.4192872 -2.8299837 0.18761288 1065.1666 0 0 0 56.150467
6.6263137 -2.6326201 0.24796057 1061.3334 0 0 0 55.563568
26.969725 -2.6393828 0.16435981 24 0 0 0 51.149231
26.692781 -1.9509 0.16262223 16 0 0 0 50.747231
26.494425 -1.2822328 0.16136257 55 0 0 0 50.359512
24.398069 -0.57977372 0.15127277 87 0 0 0 49.977489
23.594473 0.020044455 0.1473681 84 0 0 0 49.58308
24.027246 0.61179274 0.1493597 142 0 0 0 49.191231
22.929869 1.1491548 0.1442492 78 0 0 0 48.80616
23.026903 1.7229882 0.14482707 66 0 0 0 48.415607
23.849892 2.3758225 0.14890869 138 0 0 0 48.026768
23.957575 2.9835658 0.14971228 86 0 0 0 47.634769
24.091259 3.6042347 0.15072761 101 0 0 0 47.240128
24.212769 4.2339544 0.15178183 102 0 0 0 46.850578
-6.82336 4.9741554 0.099887639 5035 0 0 0 9.7542696
24.344248 4.8771038 0.15297462 90 0 0 0 46.451729
-10.221535 5.3990488 0.41109931 554 0 0 0 7.4015999
-10.003007 5.9212608 0.12519796 380 0 0 0 8.1894398
24.746428 5.5941234 0.15557702 51 0 0 0 46.06456
-9.6429033 6.0300579 0.26321125 834.5 0 0 0 8.57236
20.880507 6.374198 0.13922909 32 0 0 0 44.897659
22.780895 6.343996 0.14765374 4 0 0 0 45.28302
24.787399 6.2482047 0.15655749 84 0 0 0 45.682419
-13.532389 6.7447796 0.153193 475 0 0 0 7.01543
-11.803061 6.6139455 0.14016394 271 0 0 0 7.79705
-4.524395 6.976552 0.19770579 1033 0 0 0 15.61152
6.8388705 6.593575 0.203178 559.5 0 0 0 37.476368
7.1841412 6.5899134 0.2075834 461 0 0 0 37.86692
8.8027096 6.9400649 0.091801703 380 0 0 0 39.04208
9.3432655 6.996881 0.093862467 332 0 0 0 39.4263
20.639441 6.8605962 0.13895947 135 0 0 0 44.508339
-13.306822 7.0424299 0.15229468 461 0 0 0 7.4015999
6.8053293 7.2397375 0.21111962 2163.5 0 0 0 36.702061
8.296586 7.1131949 0.18184674 430 0 0 0 38.393299
8.7386351 7.0605965 0.37352416 493 0 0 0 38.84763
20.745735 7.4677148 0.14053248 240 0 0 0 44.116039
7.8647108 7.9534416 0.23307121 327.5 0 0 0 37.090527
-12.271324 8.3324699 0.14872621 466 0 0 0 9.1622143
-10.630935 8.2013474 0.13704798 366 0 0 0 10.13507
-10.412912 8.4463358 0.13649459 657 0 0 0 10.53278
-8.670063 8.144949 0.27064249 647 0 0 0 11.7017
-6.5566778 8.2602034 0.24268551 873 0 0 0 14.03907
-6.388876 8.4662514 0.24350561 795 0 0 0 14.42986
20.929716 8.1209259 0.14272583 189 0 0 0 43.731499
-10.110509 8.8341579 0.13599858 694 0 0 0 11.112015
-7.157752 8.5859461 0.25511435 330 0 0 0 13.65404
-6.219141 8.6751404 0.24439487 817.5 0 0 0 14.82839
8.0379372 8.9659958 0.3989943 506 0 0 0 36.30254
-9.6023607 9.484272 0.13540496 527 0 0 0 12.08567
-9.6676788 9.5537558 0.47318894 398 0 0 0 12.08567
-9.3911629 9.7405233 0.13519605 531 0 0 0 12.47788
-8.3499498 9.5485191 0.28498334 233 0 0 0 13.25317
-6.092937 9.9814739 0.11796551 337 0 0 0 16.002489
-5.9082766 9.6788988 0.39690238 472 0 0 0 16.002489
5.5659671 9.9893026 0.097296454 150 0 0 0 32.787411
6.2302094 9.9851561 0.098241359 198 0 0 0 33.565968
6.5326028 9.9155216 0.098375909 222 0 0 0 33.958992
23.625347 9.8387184 0.15791954 106 0 0 0 43.337673
-9.1804886 10.000273 0.13505517 528 0 0 0 12.86686
5.8247809 10.053623 0.291251 292 0 0 0 33.043701
21.926605 10.427159 0.15239683 93 0 0 0 42.559807
8.6199045 10.613542 0.44846767 169 0 0 0 35.516232
9.015686 10.56096 0.10710657 287 0 0 0 35.907421
-4.085804 11.129305 0.41007859 878 0 0 0 19.12258
22.209974 11.239515 0.15567917 124 0 0 0 42.161671
-7.8816838 11.625875 0.13542233 412 0 0 0 15.21918
-1.9487655 12.438654 0.11597206 746 0 0 0 22.24024
5.8075218 12.475183 0.45503545 52 0 0 0 31.615919
6.3185792 12.359339 0.28478083 75 0 0 0 32.202576
22.613621 12.150769 0.15979633 98 0 0 0 41.778954
-5.7189598 12.658 0.30207232 296.5 0 0 0 17.949739
5.4738255 12.566066 0.11123317 41 0 0 0 31.222651
-7.7079344 13.800659 0.14570202 366.5 0 0 0 16.5823
-2.8627005 13.859411 0.12701164 186 0 0 0 21.455971
6.3058081 13.53834 0.11737294 45 0 0 0 31.615919
6.7800841 13.65593 0.49964422 57 0 0 0 32.00909
7.1260791 13.513963 0.1181469 78 0 0 0 32.396061
23.160921 13.953094 0.16719341 142 0 0 0 40.987358
24.543921 13.97306 0.17255683 27 0 0 0 41.383221
-7.3064685 14.291543 0.14642625 392 0 0 0 17.16403
-3.2903304 14.177494 0.13019967 185 0 0 0 21.073311
-2.5437088 14.051246 0.12721734 165 0 0 0 21.84314
-7.0345721 14.635772 0.14706314 420 0 0 0 17.55575
23.288044 14.821788 0.17036757 124 0 0 0 40.596809
-6.467627 15.34446 0.1485288 346 0 0 0 18.33424
-4.3919253 15.476863 0.14141312 202 0 0 0 20.290871
-6.1684837 15.702259 0.14930846 293 0 0 0 18.72278
-2.0399179 15.678801 0.13556968 175 0 0 0 22.62723
23.442753 15.742796 0.17390631 112 0 0 0 40.21479
-5.7104225 16.280613 0.1508061 226 0 0 0 19.314289
6.6451368 16.285524 0.13292623 72 0 0 0 30.83176
-5.2292814 16.873539 0.15242393 231 0 0 0 19.895519
-1.7532917 16.718937 0.14109455 143 0 0 0 23.01638
5.9241147 16.839916 0.13562353 52 0 0 0 30.044371
6.2868137 16.559568 0.13422698 48 0 0 0 30.43428
15.023196 16.691376 0.15000504 76 0 0 0 36.30254
23.633804 16.727997 0.17787181 117 0 0 0 39.820248
5.5599189 17.138025 0.13718428 61 0 0 0 29.66114
-4.5485225 17.717987 0.1550004 145 0 0 0 20.686079
-1.4165906 17.751881 0.14651707 147 0 0 0 23.403219
4.8357544 17.845432 0.14112544 40 0 0 0 28.87561
5.2086792 17.507778 0.13921559 64 0 0 0 29.260849
4.4714389 18.263512 0.14356826 39 0 0 0 28.48966
4.1056604 18.746515 0.14645293 34 0 0 0 28.096239
3.7495611 19.377352 0.15027848 29 0 0 0 27.711491
15.703171 19.265793 0.16312324 88 0 0 0 35.516232
3.3362119 19.835167 0.15316051 33 0 0 0 27.31695
2.9144802 20.364302 0.15654267 24 0 0 0 26.92551
-1.1337262 20.848164 0.16454223 132 0 0 0 23.798149
2.4753675 20.938034 0.16027717 29 0 0 0 26.539261
-0.6325298 21.303329 0.16627033 112 0 0 0 24.192209
-0.10918859 21.300274 0.16533014 45 0 0 0 24.577391
15.865132 21.54011 0.173917 36 0 0 0 34.729778
21.56469 -22.668344 0.9819746 59 0 0 0 62.466991
21.870098 -21.887531 0.97064698 102 0 0 0 62.079609
22.291582 -21.239828 0.96523809 80 0 0 0 61.693901
14.196143 -18.220779 0.7372002 167 0 0 0 64.047371
15.509885 -18.007105 0.7560361 86 0 0 0 63.259647
14.559265 -17.76936 0.73268473 108 0 0 0 63.65472
15.621598 -17.261745 0.74067789 59 0 0 0 62.865513
-3.0268655 -15.113725 0.71608752 206 0 0 0 77.737213
-5.05339 -14.070292 0.51506239 20 0 0 0 80.08432
7.2123032 -13.285518 0.745646 421.66666 0 0 0 66.645813
8.7780266 -13.179235 0.71281421 111 0 0 0 65.215851
7.5729723 -12.681787 0.84943575 393 0 0 0 66.003418
8.0783386 -12.801456 0.86893594 234 0 0 0 65.609619
-5.227561 -12.153418 0.78400004 945.5 0 0 0 81.058052
0.27390867 -12.138028 0.71558523 235 0 0 0 74.207069
-8.7398968 -11.764095 0.68792689 72.5 0 0 0 84.773262
-5.7970319 -11.842255 0.78195131 966.5 0 0 0 81.844467
0.54860932 -11.666266 0.68923247 325 0 0 0 73.824028
-7.0111656 -11.046693 0.77700388 204 0 0 0 83.594246
-6.7685766 -11.265631 0.78018391 1725 0 0 0 83.212654
-6.4973083 -11.440176 0.78079849 1670 0 0 0 82.813263
0.80069566 -11.193564 0.66318905 120 0 0 0 73.427399
5.2376962 -11.135239 0.71586376 264 0 0 0 67.562622
5.6762176 -11.334114 0.73577404 310 0 0 0 67.178879
-0.024153562 -10.540304 0.62619686 1018 0 0 0 74.604607
4.3351612 -10.532516 0.80820447 327 0 0 0 68.34671
4.7644253 -10.81047 0.83688569 147 0 0 0 67.952873
1.399353 -10.19224 0.6940729 482.66666 0 0 0 72.385796
3.7715158 -10.214793 0.77503771 344.75 0 0 0 68.937843
-1.6956394 -9.6466227 0.5868929 259 0 0 0 77.33651
1.6629984 -9.7322922 0.70891213 622 0 0 0 71.864838
2.7647133 -9.6216259 0.71650654 651.5 0 0 0 70.105606
3.2440581 -9.902565 0.7436645 583.5 0 0 0 69.515366
-2.8919044 -9.4676514 0.59427416 897 0 0 0 79.296715
0.87410605 -9.1389217 0.54857868 72 0 0 0 73.032349
1.0900626 -9.0360518 0.77012646 50 0 0 0 72.641159
1.8485932 -9.4251194 0.69003981 651 0 0 0 71.470596
2.1795402 -9.284215 0.68507087 753.5 0 0 0 70.889618
-4.5626831 -8.5042849 0.58183312 937 0 0 0 82.424736
-3.3266127 -8.5748978 0.555264 1401 0 0 0 80.472191
0.29564673 -8.640873 0.7345047 78.5 0 0 0 74.015549
0.76512486 -8.7488527 0.81429195 147 0 0 0 73.164032
1.1668081 -8.7636814 0.96348834 188.5 0 0 0 72.449638
-0.71814513 -8.0925465 0.69368255 272 0 0 0 75.974884
-0.18417747 -8.2574348 0.78265452 199 0 0 0 74.915802
0.28335482 -8.3065367 0.90901572 209.5 0 0 0 74.015549
0.60131419 -8.4736338 0.92782229 195 0 0 0 73.427399
-1.6236553 -7.5771542 0.66446531 234 0 0 0 77.928299
-1.172742 -7.7729301 0.71959507 233.5 0 0 0 76.950867
-0.78694218 -7.7841897 0.85919756 365 0 0 0 76.170906
-0.4137983 -7.972352 0.87529337 240 0 0 0 75.385811
-4.9745941 -7.4215717 0.54165787 1568 0 0 0 83.981842
-2.5516419 -7.0813761 0.64741486 189 0 0 0 80.08432
-2.1071494 -7.2027211 0.73489171 95.5 0 0 0 79.10141
-1.7563426 -7.2347918 0.85428607 297.79999 0 0 0 78.352005
-1.330575 -7.3414001 0.9301737 263.60001 0 0 0 77.419884
-3.5003645 -6.5196605 0.63787079 208 0 0 0 82.424736
-3.1665313 -6.6610584 0.679474 201.25 0 0 0 81.646759
-2.7537372 -6.7637348 0.77488953 267.66666 0 0 0 80.732918
-2.3460376 -6.8229194 0.83134729 410.60001 0 0 0 79.848518
-1.9347497 -6.9281492 0.97036016 272 0 0 0 78.906113
-7.8770056 -6.4572072 0.73955899 377 0 0 0 88.675713
-6.8050952 -6.4678931 0.5677585 1406 0 0 0 87.510658
-4.1872835 -6.0830021 0.63708037 191.5 0 0 0 84.177994
-3.7615929 -6.2512612 0.71683317 310.16666 0 0 0 83.206718
-3.2617261 -6.258903 0.89524883 355.83334 0 0 0 82.2323
-2.7819576 -6.4542732 0.94972038 286.5 0 0 0 81.058052
-8.3404026 -5.5682516 0.72859335 558.5 0 0 0 90.250542
-5.0480747 -5.5575099 0.64729339 112 0 0 0 86.344887
-4.7256975 -5.6869774 0.70848668 366 0 0 0 85.63031
-4.2416034 -5.7759981 0.83485055 402.625 0 0 0 84.672073
-3.7383697 -5.8835816 0.94295818 455.66666 0 0 0 83.596245
-5.6120553 -5.1628566 0.71736813 391.33334 0 0 0 87.769257
-5.2371383 -5.2707825 0.78897732 349.16666 0 0 0 87.059822
-4.8115997 -5.2975607 0.92247105 386 0 0 0 86.342232
-4.4687519 -5.4326649 0.95132118 465 0 0 0 85.550301
-5.5942731 -4.8189178 0.8153742 546 0 0 0 88.29055
-5.293828 -4.9107533 0.97586453 436.5 0 0 0 87.704605
6.5405965 -2.7232053 0.59963644 54 0 0 0 55.824646
26.310091 -0.62986398 0.81838495 75 0 0 0 49.977489
26.294153 0.017506955 0.81759572 69 0 0 0 49.58308
26.050499 0.6584059 0.81053895 32 0 0 0 49.191231
25.171452 1.2565328 0.78509402 99 0 0 0 48.80616
24.829521 1.8528923 0.77603084 126 0 0 0 48.415607
24.72337 2.4580095 0.77442676 157 0 0 0 48.026768
24.66503 3.066808 0.77470535 110 0 0 0 47.634769
24.081583 3.5982409 0.75970525 81 0 0 0 47.240128
25.054956 4.3760066 0.79191309 108 0 0 0 46.850578
25.394335 5.0819492 0.80569744 90 0 0 0 46.451729
-9.5440807 5.9678826 0.95093185 310 0 0 0 8.57236
25.6408 5.7906804 0.81728643 78 0 0 0 46.06456
-13.78283 6.459516 0.90130723 64 0 0 0 6.6271901
-9.5924587 6.0001984 0.67664063 482 0 0 0 8.57236
20.454832 6.2403994 0.67218894 108 0 0 0 44.897659
22.768461 6.3358774 0.73876953 283 0 0 0 45.28302
25.770649 6.4901919 0.82593596 80 0 0 0 45.682419
-13.547454 6.7563524 0.71230447 441.5 0 0 0 7.01543
-4.5944738 6.992012 0.76174605 598 0 0 0 15.513435
6.7246108 6.6444387 0.67149138 400.75 0 0 0 37.283447
7.169529 6.5758123 0.68953145 470.5 0 0 0 37.86692
-13.163673 7.246738 0.76793432 486.66666 0 0 0 7.6652336
-4.8118591 7.0425801 0.61995268 182.5 0 0 0 15.21918
6.8032398 7.2365489 0.70356297 1039 0 0 0 36.702061
-12.856352 7.6327863 0.70295978 499.5 0 0 0 8.1894398
23.131296 7.68121 0.76094949 29 0 0 0 44.508339
-12.281491 8.3437862 0.69748318 570 0 0 0 9.1622143
-8.5876198 8.0681152 0.84687102 484 0 0 0 11.7017
-7.0822353 8.4947081 0.93218213 295 0 0 0 13.65404
-6.5641985 8.2715378 0.7607953 791 0 0 0 14.03907
-6.3969297 8.4788837 0.76476544 817 0 0 0 14.42986
-3.5896735 8.4175463 0.99539614 273 0 0 0 18.33424
23.214718 8.3484468 0.76994258 229 0 0 0 44.116039
-11.935604 8.7642021 0.6950559 553.5 0 0 0 9.7542696
-10.510111 8.5306396 0.80193704 293 0 0 0 10.53278
-10.315371 8.799017 0.80285579 787 0 0 0 10.91705
-7.0969272 8.5147409 0.66022682 339 0 0 0 13.65404
-6.2247829 8.6850109 0.7689417 844.5 0 0 0 14.82839
7.9931588 8.9183903 0.99000561 152 0 0 0 36.30254
8.017828 8.9431534 0.69291919 155 0 0 0 36.30254
20.984079 8.7371864 0.71298414 93 0 0 0 43.337673
-11.701451 9.1934557 0.63756031 614.66669 0 0 0 10.26764
-10.095942 9.0469055 0.802405 286 0 0 0 11.30698
-8.2836113 9.4748077 0.74558276 205 0 0 0 13.25317
21.165686 9.4301348 0.72640568 167 0 0 0 42.945858
23.460114 9.0942688 0.78484726 112 0 0 0 43.731499
-11.177197 9.7798252 0.51502872 567.5 0 0 0 11.112015
-5.8143511 9.5208464 0.93855631 487 0 0 0 16.002489
-10.590574 10.476672 0.8778584 432 0 0 0 12.08567
8.369545 10.307261 0.76236504 656 0 0 0 35.516232
21.358244 10.152583 0.74091989 167 0 0 0 42.559807
-10.358791 10.760651 0.69800293 281.5 0 0 0 12.47788
21.625139 10.939121 0.75869167 161 0 0 0 42.161671
-10.12209 11.043092 0.69946492 410.5 0 0 0 12.86686
-3.7844021 11.140569 0.98549074 166 0 0 0 19.506001
21.880138 11.752286 0.77697241 148 0 0 0 41.778954
-8.594965 12.697777 0.5254994 254 0 0 0 15.21918
-5.6734271 12.561085 0.80854535 389 0 0 0 17.949739
22.18446 12.627825 0.79789269 145 0 0 0 41.383221
